447

6.266312729388535 7.666761420202382 14.747164359286373 1.9850826623858482 2.595841688659135 0.508718460543752 
7.453029796463596 6.773115806710761 15.845749532422197 1.9867250543505617 1.0747779258974308 0.6052195419429496 
6.217280554134055 3.8152445224042673 20.06356572040604 1.990384353424866 9.851148418124257 0.30122774751764525 
4.122707060652598 4.59801147360869 0.9160001187577222 1.9937802976725219 7.4918535293405135 0.32410791772749 
7.499057612578586 6.7150435506211785 34.98341003768283 1.9976264882891974 1.0071757720991297 0.07588245977876189 
6.501860883729531 7.602923880255229 9.16329242457811 1.9996553939373256 2.3702430252504314 0.6829272194060766 
6.003101491675935 7.739334183680859 17.85390155192873 2.00537050428338 2.8962503070641077 0.38621057769390493 
7.329843018394152 4.514070147725391 3.0243241966422687 2.0058480905871927 11.27150888824449 0.23081068636845795 
3.95399122293097 4.856295886051591 25.74516464259098 2.0060794028645286 7.2285519482857765 0.2879661087781435 
5.824342258877351 7.757023905826369 7.146439361380196 2.0084002912799845 3.0804285541377716 0.5995846949443986 
5.248803633639744 7.694882163940171 26.444710126790653 2.0084233690298743 3.661373734044897 0.29573922442469736 
4.1897066586824145 7.0201801250228995 11.101123675567763 2.011932618395353 4.946002696683804 0.1614679770865033 
3.751988340204644 6.0396940950274125 12.150998113746063 2.018903975272708 6.051876362342195 0.18349186318245983 
4.504971978222652 7.341193659547511 22.541616815241326 2.0203940301819863 4.515062419695273 0.31619407699298085 
5.644153636065067 3.731009203045402 15.714169936628664 2.0217634112194265 9.421440844141507 0.17824172448121872 
3.7484740292484213 6.04182025070132 1.297911269927667 2.0226876353783396 6.0616183978057965 0.15493429109652318 
7.770368971216558 5.647458713552404 4.170703903650924 2.0229694746290603 12.608106832270769 0.4278145033235845 
7.073382982089333 4.21110440066315 38.66706983528225 2.0296655347475294 11.00613510871362 0.14578415762453628 
5.124463995460398 7.684141301836657 4.206688562084295 2.0327808215461336 3.828939137850897 0.11668990699679155 
4.7335161108945405 3.9876453000651324 20.304409889930817 2.0344860739738357 8.522911817927543 0.3250242070685456 
3.74585758548601 5.371359698356287 19.95371337759189 2.0395968463602796 6.78843211572951 0.6753875003629537 
3.9476908237351926 4.78886529497613 2.665493851851487 2.0425714890915434 7.4176149891710565 0.23456771213589422 
6.02011207384165 7.77535624191433 27.744811222734718 2.0432886333301923 2.9386852320823973 0.3563587942356465 
3.7277955763346373 5.4484831917570675 35.62373461801169 2.0445593942815066 6.725793326319923 0.5321065437467415 
7.607151091002529 6.619702991916043 12.72308788456428 2.0507056027035175 0.8981417485135061 0.3666805649939517 
5.9680299992035915 7.791974570628199 1.7121144854013224 2.053581560991655 3.0073166688972037 0.3311617134310437 
4.234087881863043 4.356603692988691 5.281272200641105 2.0590150116760295 7.999075701640541 0.2613220598867032 
3.909243255587321 6.675294027326672 15.344792214853129 2.060231644526208 5.512790424225869 0.33514107584098113 
3.692319438809543 5.868366520017354 29.418656912164025 2.0610822217859437 6.356649085035436 0.4895028669364427 
6.239943861720002 7.7527184193777 3.1993273281035854 2.0617774018918293 2.743956142952296 0.3954580158429977 
6.5998668712257835 7.62889253817965 13.2737864436451 2.0621616980329787 2.363262101479741 0.6493528742066401 
5.676755819480277 3.6881903056437366 28.323782684020962 2.0631102553478513 9.64891845745504 0.2637165073794068 
4.302830229238452 4.27645594708484 11.589183349383674 2.0653407518585567 8.1292238536996 0.3462305631266754 
6.612772204164147 7.626651566456381 37.13282987617875 2.0654774213632687 2.354379916129158 0.6860146346490448 
4.987479476702374 3.8296103547484117 1.9187597604017625 2.066236660704581 8.95592692735154 0.4508002842531232 
5.6785168320174595 3.6839441526574284 9.462641770645227 2.0672920953854725 9.670387069075964 0.393944312327249 
4.0145573593316275 4.625282098724512 28.608396455157333 2.068030830645314 7.686088712487329 0.3008970832932704 
4.388766770590125 7.308214755231982 31.078492307983694 2.0690551293458324 4.7357039029250085 0.1791652862875294 
4.36870143794606 7.2962726881453275 18.402805723011788 2.0733897230468923 4.768593485832234 0.18563105725034426 
4.66545675717278 7.517567899483056 38.99388882520016 2.0737720040653276 4.398762591262535 0.2886731507697341 
6.760990633508877 7.5632931001986625 38.89917827730899 2.0760862044411255 2.205176531467238 0.6376976904573319 
7.6225438555982254 6.6490938846315055 14.306717027436214 2.0772073330605263 0.9298377401798099 0.22597601067388592 
5.06261846023908 7.710228444172365 34.69681777959597 2.0772551443061835 3.963532762311635 0.4027064932492215 
5.093142533594424 3.778359820722767 25.872094927287556 2.0781787044701243 9.124868937621196 0.4987805786063835 
7.633241398141177 4.862188905148452 7.533944155805731 2.0820198615321206 12.164526133131474 0.4699644672146508 
3.704015415397927 5.358369476989097 24.337156281589074 2.0831292295446064 6.938318481808601 0.21912064882741866 
5.154612319111757 7.750126434593994 13.72127268873004 2.0868618173983555 3.881810798538897 0.24510425394841293 
6.7718858495546534 7.571287467301555 32.14838644901033 2.088381844412021 2.21261362764621 0.4932176018725153 
7.6923351934695905 6.521614142552185 19.514911677098922 2.0899890881956984 0.790314736063527 0.32671791950579376 
5.02178065626207 3.7888395901420546 6.522363443404167 2.0919975061620604 9.114515032689884 0.5212443108866032 
4.392760661823654 7.342660995774359 1.6975754989490213 2.092526623141111 4.7637553570356985 0.31369796805623623 
7.58377079386814 6.763727803640569 5.222691509580372 2.0953184446087696 1.0581325583676122 0.14192295968519617 
3.7366308863778057 6.330761988966994 2.7782511875416205 2.0954569133047634 5.994605568160505 0.6065548360828832 
4.029744104638614 6.94669002325978 19.838003647653508 2.095554188584751 5.309703612706819 0.45675110657310003 
5.040176802504887 7.721787510218416 8.430348158054088 2.095660983354781 4.016004816834222 0.4502770637771396 
3.97604513108599 4.633117826551214 26.726429466722088 2.096268510070075 7.76351590697757 0.3049404905734647 
5.485184757009282 3.669921195576416 30.137243690166386 2.0968678893846593 9.615732851594593 0.4022933853110064 
4.344812400536509 4.192965535715906 38.53908276203874 2.0973575071156634 8.343722573973224 0.6363486919345683 
7.8445310272608815 5.879147364944618 2.5735194347755694 2.0985088196218435 0.12922902788926294 0.5085253424610807 
6.812573061249344 7.56130455834366 10.203312580479405 2.09997278876878 2.184523260001175 0.1805856130889344 
3.7912969333285567 6.51548595371569 17.061210416809267 2.1029708625475885 5.823192355680362 0.5899991399857204 
7.391709220776088 7.065557295619232 24.79397006244365 2.103782347021245 1.4212181226917266 0.7271763524603893 
7.819156555203904 5.369837316514357 13.542535931706453 2.103790036067832 12.83623999284021 0.3407092049007149 
7.654447082310009 4.8492162613018 25.972358221315105 2.1067344477228773 12.306233354689361 0.48412832306262155 
7.464246376089591 4.525089267029101 36.41362365195366 2.106904587702919 11.930900066113857 0.5109353375605047 
4.795857147483204 7.630912273422323 21.04859107990103 2.1090802647883335 4.303047394315854 0.26721465372269343 
3.6478901859989765 5.93587851009064 18.52990538651793 2.110311941546304 6.443620789877016 0.3831099198660948 
7.846058996598726 5.998652474300331 36.43034597828415 2.1107561133864166 0.2492312058248931 0.5630743006935435 
7.845314491864862 6.006188454935946 20.39442941929714 2.1109181282705802 0.25682156469269124 0.602954187726126 
3.678422847427516 5.344242042500213 4.203766601120847 2.1109408848034366 7.040015418855923 0.2162614933446923 
6.266869855312441 3.702649362702833 35.75407516316699 2.1115868628526315 10.472794341916085 0.4797549289036274 
4.2592618147339945 7.246120344436308 35.99644856610065 2.1120313496836176 4.972550865931737 0.372561788741263 
7.711409419217512 4.954524093780416 31.82749462420297 2.1165795111856895 12.48335757952005 0.5917989268765602 
3.925145311065318 6.8237276183811355 23.854912769177005 2.1173062211690876 5.52564647757273 0.4240986114938763 
7.779639217568501 5.145892221736523 9.02260958583242 2.117635842455097 12.692881288836695 0.7869366243977939 
3.74234365220817 5.073222330445072 21.42729329123931 2.1186580717135617 7.344811046215362 0.44969153435710046 
4.115979398664212 4.399588342559865 18.846362086114695 2.11981956075039 8.12366979614503 0.05790303996996403 
5.872295987879215 7.867348428086764 5.496195147451097 2.1208773360505435 3.209102466945108 0.357631261339924 
3.6297152904540377 5.698791078137386 22.829435324196012 2.1209030159846383 6.714227232745724 0.494878851304615 
7.102534843271251 7.384436944600406 30.59320209276484 2.12149349000592 1.8658464517580207 0.8702294020754742 
7.6850758862110045 6.619717445112695 9.41379453147568 2.121538856521053 0.8961282848619341 0.30631404004977725 
4.497860694193749 4.034329822877176 24.493679747685803 2.1240002348902007 8.670010241094415 0.4849899886057914 
7.7965758727379795 5.181272403226258 35.065090865149145 2.1241289702382136 12.770544131074885 0.2827991060744561 
3.956773130351965 4.609418407067807 9.977048596197179 2.125226805817072 7.880550250400496 0.08485101381453528 
4.493973286327349 7.465133693151111 37.49455446005405 2.1258613997251756 4.683030074355065 0.3503567376373461 
7.142990884335659 7.357938337344994 29.064434784733212 2.1274137586623856 1.8229872578240425 0.6732609419240709 
4.431099063431851 7.4196593538134135 5.5678414239392495 2.127736364838689 4.764771897061975 0.26652747310474956 
6.346045313773287 3.7069699000733776 17.109106014482542 2.12820158943585 10.633039865627419 0.3707473470241198 
7.877144254601587 5.670178174310524 21.893558913805755 2.128641398578198 13.294807815067209 0.9327843355763793 
3.7783403542258522 4.943100530449866 32.288045950133245 2.130382245686093 7.520348760782994 0.32615333875924996 
7.781634754282317 6.391633070434868 26.079702929684885 2.1305475286609887 0.6517506941791282 0.6489008478472569 
7.824589306097321 5.225822127074172 37.741635026787165 2.1397857910170366 12.915103356433185 0.568039398960454 
7.337615506340527 4.313699235085483 6.040707349206222 2.140907023498898 11.877291379885891 0.3624566974365419 
6.924191945693966 3.959377078719437 34.42905692974567 2.141274660464631 11.333321900817689 0.5681263196598444 
5.095261818693807 7.79125011655972 23.88750894345703 2.1436847073240965 4.0326624957082355 0.18920896273905607 
3.6579170189452004 6.217847698537765 37.15930238855122 2.14375667197707 6.263166848663607 0.26969764977995586 
3.609968959253088 5.914408675102424 7.206934495900555 2.1463371281812282 6.5783470747521715 0.5540848996772081 
7.512494733906577 4.524454554030051 20.526423250914668 2.146706623455122 12.18382446606419 0.31855440479644975 
7.7669788898414405 6.486939740216005 23.44277345447034 2.1473900490538838 0.7522299611396779 0.528775459871969 
6.83466368727502 3.896162792843115 18.626326355216364 2.1478379140736585 11.258480793436512 0.3657733976406793 
6.855858811205163 3.907026337842659 0.1719814157048063 2.149296542993949 11.289907089382318 0.4820794790735775 
7.473149788221735 7.035749223978545 3.678266044148529 2.1499758741925548 1.3782213598323736 0.6534565080822042 
4.012931853479875 7.017542165599922 14.372521396035843 2.1503648265419066 5.400016155820881 0.0 
6.809623194838041 7.621522058857661 11.714273852211292 2.1506734135683185 2.2702805700601267 0.0 
3.722460605203863 6.468833358698778 32.135122081821805 2.151194411258186 6.025245173217375 0.0 
6.187148098491608 7.857121310296181 16.36452207475 2.151989469379236 2.9401253656317365 0.0 
3.60372811479772 5.570479859956211 11.26157583930614 2.1537665811064786 6.945985930992036 0.0 
3.8757884600042427 4.688076120922783 34.968508111206226 2.154147446580123 7.877909853639995 0.0 
7.260145745429166 4.213041517494359 21.98081095161055 2.154711477062268 11.827185344283176 0.0 
4.754578748660519 7.665843202084866 16.99136177931222 2.1590087175815276 4.425924248977681 0.0 
7.89301671694865 5.484185803930815 27.323763963737598 2.159439241088592 13.301666820242868 0.0 
4.349119780614343 7.3998107709228185 7.13019910370145 2.1643338395263667 4.923376367398596 0.0 
3.5935858943069388 5.562881862556605 39.793943934359234 2.1645172654872242 6.987383528073364 0.0 
6.967222868392817 7.539883905379437 0.599567942307381 2.1645590558066985 2.1073730791522287 0.0 
3.653691883657233 5.21031784559364 8.560384966574269 2.1646626865239886 7.34592388326282 0.0 
5.38736733438418 7.88450619029059 12.185555340587271 2.1650910203870146 3.765266953485945 0.0 
4.353952172711814 7.40531899713937 33.22590191274123 2.1654169386902247 4.918591328247825 0.0 
4.2589759341962825 4.179023198259514 33.499381994931305 2.1658995536295347 8.56200920122751 0.0 
5.865825994364045 3.5871921169018384 14.186435752227723 2.165907107925445 10.322478059572617 0.0 
5.4477022796902155 3.605140626208799 34.38046112892956 2.1660576273600096 9.904018345442463 0.0 
7.704901981263708 4.813033225927667 33.411195910842864 2.167844203826532 12.652062936033387 0.0 
5.3729238033546025 3.6137018138054255 0.47243599206028364 2.169321644757823 9.843686086359844 0.0 
7.919422516547305 5.793149755508129 33.68608565044832 2.169851597852454 0.04315259997577847 0.0 
7.915863029931991 5.609374140679742 24.66426993925301 2.1704235293453085 13.496448793291181 0.0 
6.299748597532538 7.851089669561487 29.279550567647576 2.171819817578564 2.8556912207429033 0.0 
7.57215041365845 6.9321787293935735 27.663968146434634 2.1720448149672853 1.2500522696431489 0.0 
4.103490970976014 4.332506144492447 37.04677947090011 2.1726207246224942 8.369773132231582 0.0 
7.276899239916966 7.2957344263147 33.56054598129497 2.1727209221511745 1.719769593268504 0.0 
7.714801187853969 6.678853192244581 21.800933700764112 2.1732951848599202 0.9597449864998424 0.0 
7.855905459208271 5.21145070172461 12.051187071538408 2.1736773334136137 13.113400394103675 0.0 
3.8546061087456875 6.817777159133252 34.53771820542476 2.1754691596459943 5.718340169039996 0.0 
3.8643710752898173 6.83799259844095 4.190892900990093 2.1769989287930236 5.699955100957016 0.0 
7.845456404516177 6.342064410053842 7.811616213857732 2.1774934693082924 0.5996136427612555 0.0 
7.205727194385937 7.369663065084183 36.31686398611292 2.1777167191516553 1.82634968967918 0.0 
7.659099853327523 4.70218036506823 30.23712816135695 2.1777484329746897 12.590045723371375 0.0 
7.322399828013591 4.237253424700287 4.501104109071484 2.18193570487725 12.03800191416525 0.0 
4.953817213100724 7.782280347457719 15.475423926084268 2.182675065330974 4.2435268121593595 0.0 
6.626904493434502 3.746586553511686 25.96181573704842 2.1869217928805327 11.207912182063879 0.0 
7.866459657587102 5.198382563762226 15.058316627246974 2.1871632948079687 13.184712923041017 0.0 
6.265257398558443 3.623338929069222 3.5987147259962384 2.188190461861503 10.831746481854935 0.0 
7.794823474036928 6.529549926626649 39.384157251110885 2.1883786528103557 0.7970560211929616 0.0 
5.293763421825458 7.891327857553098 32.12471900067722 2.1893918810476474 3.898693506843534 0.0 
7.111363015322809 4.032498642784228 27.384420762144536 2.1916021928093685 11.796577042960623 0.0 
7.662531438866366 6.821240408314294 37.91656674165213 2.192106867161731 1.119239352644371 0.0 
7.842913556420228 5.085792104828941 19.046021467096764 2.1957821573769873 13.121727607122052 0.0 
6.872595115128228 7.637553920949383 26.51137329011435 2.1961510870159064 2.271384319794903 0.0 
7.317653470515662 4.210092375819997 24.626567897600964 2.1974651065779183 12.100814948604569 0.0 
6.47983392752128 3.6771240527667572 1.6646341545568824 2.1976060280175895 11.099937446247726 0.0 
5.371724146738993 7.915768714721621 10.674959230127826 2.198555604670324 3.8336506099302134 0.0 
3.712052754073362 6.576593611236046 21.3312445506418 2.1992012130126306 6.0615859526096525 0.0 
5.168221150212172 3.627834383726433 31.23211929241944 2.2004666625409754 9.780675618810752 0.0 
3.797010588576782 6.767584389379626 8.436241314885507 2.2021910976662102 5.8605933007042434 0.0 
5.389147117930977 7.926072981431796 0.30440296204339745 2.2057897504102653 3.827328593181397 0.0 
5.719974934919908 3.5431767297581 38.89897431809972 2.2070275146935088 10.37034614833217 0.0 
7.809374140105623 4.95520391104763 23.283792501906163 2.2074244430896726 13.056601126648083 0.0 
5.5982250591749665 3.547521463951524 32.75688728873536 2.2077018218991182 10.251654986569628 0.0 
5.628721071039873 3.5433485423406195 11.345754268089088 2.2099817271190254 10.29295365273915 0.0 
3.6675308662551824 5.001633200654416 14.45868999913396 2.2128557475268575 7.7153120756873435 0.0 
5.941153031567355 3.5426587489635635 24.622523486854817 2.215602599746737 10.632172247450352 0.0 
7.86413965901459 5.0858543311508635 10.523082273707459 2.2160045052457344 13.249053962739293 0.0 
3.8781246675796854 6.936588332821614 26.62274804047815 2.21628272828898 5.710510475269874 0.0 
3.6392230410049855 5.051113138927326 38.31781360265545 2.223470758792267 7.696178357644573 0.0 
7.975536608079883 5.74501771350088 6.28954114808711 2.2255421849703194 13.978511666453109 0.0 
7.8894036389575355 6.374269501777627 0.9714111120552644 2.228622969735895 0.63273577325646 0.0 
6.682439128483367 3.7256525608585243 23.280514590262555 2.228772146874928 11.464877219625844 0.0 
3.566177906781089 5.2788754692761515 15.942542339124529 2.2340629485940613 7.493203992726336 0.0 
6.088451914938268 7.963905849824892 25.19473061220188 2.239626935588662 3.1782442125454793 0.0 
3.730655240259688 4.772733055086459 12.96373179140592 2.2433911697052085 8.058979061182635 0.0 
6.925782943445472 3.8393108280300545 12.250643823454993 2.2434791378527454 11.809750857686048 0.0 
3.501951211313764 5.659254989398653 5.672752903050878 2.2498795552790587 7.158974714546208 0.0 
7.411036711517437 7.272828277617073 2.1980881953168385 2.2534526664917656 1.6720988043007328 0.0 
3.4913481220109226 5.757757975762542 27.68311181000327 2.258665201425729 7.088048012701124 0.0 
3.4753373600825377 5.693414666345972 33.56705187061293 2.2753663497162444 7.204865376311876 0.0 
6.548679780498993 7.8841876586823005 34.830814810421984 2.2787378862540884 2.763424916446663 0.0 
5.301251089211977 3.4684704001174715 37.45248982478559 2.32524254650425 10.50586506833391 0.0 
5.131783469615148 3.501584274198528 23.135373262076385 2.3318586909314303 10.362927411411494 0.0 
4.686566629020438 3.6705294906285797 35.771911602596596 2.335613010294811 9.902219093829132 0.0 
7.664797182472944 4.411837136561829 17.452376802511978 2.3360496782156344 13.252945171253877 0.0 
7.022401503858929 7.715752269390035 8.229025474440082 2.3416207147261354 2.3330322328639443 0.0 
7.8447074930769025 4.591846786914153 28.638124822214966 2.3935576756229593 13.830268734056938 0.0 
3.7489398476066658 7.063917694367923 0.15991264010316542 2.393871642563475 6.129709798888786 0.0 
6.812991415998547 3.5940985223873865 30.95228186007518 2.403718355310964 12.428354063491996 0.0 
6.995884906976443 7.808527623092603 19.00850109287336 2.406193087943482 2.4700518058235286 0.0 
7.992758420624974 6.650196395607859 32.33653804005779 2.4166751713769092 0.9224321185999749 0.0 
4.75769874075433 3.544211683861562 17.514592920424946 2.418711203247174 10.3754232451301 0.0 
3.3216518843235265 5.688709784067692 30.885334381245272 2.4291214587744494 7.692606850508751 0.0 
6.982626738204104 3.653942872931557 10.688800318939997 2.431629938060087 12.75144229554678 0.0 
4.165377385846671 3.9011681814708945 16.114316378394456 2.4349964933222727 9.749216771116721 0.0 
6.1995849797164 8.14790172890952 20.81415702095726 2.439684273731718 3.3800778415325112 0.0 
5.333584344303095 3.331020000180688 18.94337500779431 2.4545602941943225 11.148403423752425 0.0 
7.16359710691755 7.758420331986311 6.369413227679686 2.4560148636809336 2.3516366326122125 0.0 
3.7469177457250513 4.328467193923961 7.240860016387053 2.456235745229196 9.232452032760973 0.0 
4.400291700099151 3.6938031730693854 14.638923659045084 2.4596052296864164 10.16191004575029 0.0 
7.18478550935745 3.7499180417652536 15.59253750403738 2.4614908688675348 13.131249863664435 0.0 
8.201265539940776 5.500084078713357 16.554270690806824 2.463972547536537 15.231249682842378 0.0 
7.418861733042064 7.562813684097611 17.388919640711855 2.4640196706324637 2.0370548982026975 0.0 
7.511901916150215 4.025438824359481 14.15043222245226 2.4654430860720358 13.5808856979224 0.0 
6.843266333914947 3.5305487091966796 37.877255417188046 2.4741049511126967 12.791336010326361 0.0 
4.353574885498103 3.702098535981758 27.22954091686581 2.4786898770801677 10.197149705158974 0.0 
3.4202539708350237 6.603100424576626 38.651520624935266 2.48102738695541 6.923503371512279 0.0 
3.9908965638846965 7.5067982041264845 12.727416946033571 2.4861184261765787 5.859408583011209 0.0 
3.677843701924999 7.133668078630523 28.325619915832945 2.49165990365318 6.3608220109474605 0.0 
8.15274378930955 5.061434128001528 39.36692207001022 2.4994600771259856 15.006983853502096 0.0 
7.153091182425895 3.6773969716580694 32.434082725940826 2.50286799078446 13.283949708122263 0.0 
7.238222858946719 3.736087041070725 9.183017460171037 2.504127130166281 13.394060041167153 0.0 
5.888874965220875 8.251802580150478 22.329320801271024 2.5056540874615325 3.796926071673097 0.0 
8.213891076617124 6.214713292482266 30.898954188562513 2.5073327823891267 0.46741588473357965 0.0 
4.080926366053099 3.8785257175087526 3.8621015399837475 2.507632904865234 9.990648073298876 0.0 
6.673980043523091 8.090404258617276 4.93375799433084 2.5161937951165063 3.006310611165052 0.0 
3.731098455250619 4.245448839435589 23.21017381522686 2.5178637060308007 9.522650197827696 0.0 
5.632665387606579 8.26540686796474 38.10567531983985 2.5181419981148205 4.072865313622119 0.0 
4.397513281768667 3.6256615173685187 21.73873972217112 2.5183395942130575 10.439643436551876 0.0 
5.6276136017133 3.219444282075349 7.943179167619036 2.5335135034190626 11.816467067395772 0.0 
8.263547854695691 6.100507506389853 29.20710835811797 2.5378688559263547 0.3516314817186732 0.0 
4.1941410597783175 3.7268746173064624 8.716255887984673 2.5522016683574615 10.353809743153382 0.0 
5.308544608135904 8.266324821685693 36.40604059641494 2.554755070694139 4.456682229102009 0.0 
5.784934380587135 8.306857081244697 30.62161415906761 2.557095724617707 3.981741104103371 0.0 
6.871019166711283 3.4449401759186014 29.25211097233192 2.563198151670726 13.239022783499983 0.0 
6.199278164186328 3.222735016245995 21.4572952055142 2.566889005571487 12.547783772147671 0.0 
6.13335354488135 8.302943804840329 33.39179082237893 2.5815658060653246 3.670337471710873 0.0 
3.9636448896444634 7.652607498071825 9.731483553642704 2.609785407272498 6.066945546930032 0.0 
3.1616124942800496 6.141162006602217 25.56826544319317 2.617777224130468 7.8313572285004796 0.0 
7.655670508565141 7.639469737207881 20.58575430014722 2.6835938543377504 2.096233974422262 0.0 
7.093340864800261 3.3401224886671574 7.567989487052188 2.758998785550673 14.404510845938782 0.0 
5.786966378472142 2.989993331431 26.989912339778492 2.7602542135974892 13.044359022801515 0.0 
3.0044290888538683 6.28077023575184 35.74882849155908 2.7964042396069755 8.251153078651168 0.0 
4.389973713506567 3.2677577676579688 29.169273072146296 2.8304059779429993 11.919285917068972 0.0 
5.221607448827269 2.9232435754808375 4.765371258448539 2.8757174012227247 13.020087125308288 0.0 
4.9527788580017305 2.8929657558927993 3.1388822309090827 2.9661770380828973 13.170634497137383 0.0 
6.6072945555077 2.8877606045319038 5.5475161107102124 2.9878701966237933 14.949522480340676 0.0 
7.736002570125233 8.002621441397332 22.905727392475704 3.003083343296857 2.5472682088562486 0.0 
3.801131381696985 3.443396141815871 31.984130063858572 3.019687111274313 12.111537353822005 0.0 
3.234521704769028 7.444662951516316 29.92557608452369 3.033069991447627 7.730508789945365 0.0 
6.05478982008743 2.633272011781534 12.477278662232557 3.1315954698800517 15.062569058635912 0.0 
4.042777484120881 8.511123293640628 25.900795973958864 3.2462918170444093 6.896968966640593 0.0 
8.38684923093599 3.850208530439934 17.01668523356365 3.2499509987845836 18.390977468145888 0.0 
8.999003886360583 5.946427737863521 11.184603719702686 3.2549362681607694 0.19654716002059303 0.44925688944068404 
8.83745253856161 4.710535288189753 4.834993491508975 3.257736954539038 19.411001689448224 0.49673791172744247 
8.991518912780073 5.197735256661543 1.2349202917958664 3.288227669831516 20.105649144814553 0.08436722768015245 
8.898962671395072 4.797254045120074 21.192872928665786 3.2899378049409433 19.704696790433076 0.3216286515877176 
7.433691958236297 8.581214735883187 18.513112650674458 3.2940242092176066 3.40698026516478 0.08908884193952052 
2.5205640073030757 5.073525177688831 2.1513798343899637 3.2995264836256877 11.04707408463813 0.345774950549744 
4.8130382565443135 8.921748465140373 25.370084256387095 3.307247440821419 6.144983199259549 0.4083886004896744 
7.936078920157707 3.267370678338768 2.260111206899829 3.307928263117265 17.976451984280484 0.49701818872875686 
8.13641054636738 8.053021700910568 14.96974865981538 3.3164535652830205 2.54576861406602 0.2649486784888048 
4.763763075210098 2.5781879323272303 24.946514165849443 3.3216042907687937 14.651356604614318 0.3470394619282721 
4.908639763879611 2.5344558308671274 16.27961414513822 3.323794721484613 14.81239879815871 0.16651046353046708 
3.449779998013442 8.1517597283244 3.5047677846853276 3.3255769198952425 7.763901007154381 0.24807149868470876 
2.892622202162606 7.484056260870469 18.0826167114867 3.3423882173437223 8.677298199932832 0.19837636186683585 
8.966680810386723 6.670129588169777 32.63669981785905 3.345694829917347 0.9321421839605755 0.33932500741223576 
2.4834912942890526 6.479447213080057 16.313116728095665 3.3469646489253035 9.779450619110584 0.21188468752620382 
8.606153502860842 7.511738945640104 28.69772076374126 3.3557915525981885 1.8547360577160248 0.32627612808820466 
2.4903327571149294 6.555854515373731 20.4406711045401 3.3578016669074104 9.735047013474524 0.38266232215826507 
9.060528004373385 5.15113319262762 3.3857954860740875 3.364258777310809 20.536185825043564 0.3395590124704411 
2.5840040147059877 4.608494321636446 10.657749808810912 3.365496366456816 11.737628558122385 0.14005539880651136 
2.38627146203231 5.865123933112367 31.399265206982953 3.365698025241349 10.458505796447465 0.42467952973220313 
4.247205393178881 8.767996694559134 17.978217180852013 3.37145305152845 6.853483418845013 0.2829412241681869 
6.92283367919369 2.583313823879367 36.656624452023195 3.376898011057562 17.111049545821345 0.45227723591474267 
2.7556397823316434 4.187757681348749 29.443167548057474 3.3773945838974355 12.234515225904332 0.22546396580185474 
9.103302667809718 6.152908614188242 12.160233880184578 3.377421225332555 0.40387043455273997 0.4195564195051304 
3.923528649565853 2.9061684938984538 25.424548604120595 3.3798484032649356 13.997561391482254 0.44125580014294846 
8.11319209928848 8.16960218284467 16.005081136443707 3.3821814885316517 2.6962480066933168 0.1390241095158296 
8.570130367438239 3.881700551125526 28.192242986921613 3.382850590849675 19.275759949570148 0.23168826641752444 
2.757288425493492 4.1720051508125575 27.664670304830494 3.3832514408845404 12.270460180210701 0.2587028635493638 
2.569211786921141 6.904319859988549 6.398647084856911 3.3837653576489863 9.452443243483234 0.25419014190355715 
8.875576238142264 4.4421924139702575 2.56979005355565 3.388153996281235 19.945724000594264 0.3989418246523463 
5.435868901336413 9.12362482338913 28.386650399895416 3.388218233251058 5.636783630755193 0.168905404185201 
3.7139827744608525 3.0399968804570285 13.433784897498327 3.3896139972900685 13.78914737392197 0.4569372344634033 
2.374643537280294 6.062907511138096 13.25179803755806 3.3898292524772295 10.336109086580109 0.2920265445073941 
8.913870136348176 6.970863479211019 35.75016909016401 3.3912507831988887 1.248902927751132 0.27186385868644386 
3.3434856625274723 3.3584597750997425 20.662156360947066 3.3927534398739927 13.312723288956985 0.13331250169916325 
9.008819565694044 6.701817841862244 13.60175331381462 3.3949760184480886 0.9647498447625509 0.19231278553942252 
3.220283132973311 3.485681596613267 30.220739400481108 3.3950854568383364 13.144708662190741 0.15930675496731223 
3.427950197332377 8.228938218535285 19.283334136375736 3.3966233199140032 7.892148556024278 0.18640179212619035 
5.885612055001262 2.3555138768382253 10.443830702481804 3.39719394056323 16.14454738721291 0.0671407763182526 
4.612746796673516 8.951436600386169 29.69087410068841 3.3974315526245014 6.496312713406326 0.19778677000154943 
7.23302048513882 8.806811160329458 31.07305034271151 3.397564455496925 3.8022037594474583 0.20987997175707648 
3.530458142032275 3.176950147721641 6.261732389414874 3.3980805760871102 13.594425110038088 0.2653278432505298 
3.732506815986822 3.015229894664694 39.5252232833952 3.3984182021310008 13.854650401128541 0.5336532614497894 
8.677092346762038 4.018550117827383 35.53733067320243 3.4008511141989826 19.55156219465629 0.3616990075294048 
2.560685889419812 6.9359618076688285 39.04480977911396 3.402679812323664 9.478444498668107 0.34773156028904056 
7.962270324325955 8.335837430488331 6.589170786558121 3.4030420515779345 2.9371607950579275 0.1505226055701138 
3.5846245377126102 8.376760230403912 12.295758582212919 3.404220938879837 7.694256834931533 0.22731753279386713 
6.949917878255093 2.5619912161446745 21.470946435805956 3.4063474456512686 17.278265227609452 0.46121333906936984 
7.536872382930884 8.651343413746732 12.698996670247034 3.4074486815464486 3.4714537181039837 0.28087874206836516 
2.603282292001765 4.441361474627939 3.517622418668168 3.407985786930109 12.049643618208599 0.04725797741614238 
3.8181194597989254 8.558736500877961 13.853716856825997 3.4089827152644463 7.408725053874914 0.32129938146043585 
4.261938188956073 8.817767368937359 35.3480066650817 3.4096223520214353 6.8957002008880615 0.34483249007523936 
5.876858783186105 9.158018280695272 14.440594733167764 3.4103785350639 5.230122019097909 0.4353012208309827 
6.962732681424535 2.560810014777825 14.625765817592253 3.411986711351108 17.31844702548494 0.4168182160345513 
3.6088423401689997 8.406977951219007 26.83158526571109 3.412343470038867 7.674706727488967 0.15813096220534786 
9.122033970853073 6.275421314383575 0.08106484431183247 3.4127233492030506 0.5275194969747332 0.23474881481443172 
7.524809848311143 2.8348253950609443 19.897241961506957 3.4129449123804805 17.94958806183314 0.15158388375397774 
8.575664149917191 7.666397163452281 4.480864845809236 3.4142284598742347 2.0347178749084804 0.2243126901585521 
2.359362456709496 5.33064041125205 26.623494851220443 3.4164726567976396 11.153585251677104 0.491443196998038 
2.8552492164723517 7.56479520466592 5.049447517667119 3.4165865617034137 8.82029191808186 0.32356548647200584 
2.589521270919821 4.451555812349895 16.8155086670369 3.4168089067740692 12.066142627717017 0.1621808860000821 
3.9831119867840385 2.8249510093771786 36.79349901070415 3.417280329266218 14.246620541920343 0.5693526198602658 
2.762341408389755 7.4093898998068735 33.174995939108726 3.4175544910949953 9.003894832305821 0.39698690729351765 
7.514071379016293 2.819889974353673 5.985704397420854 3.4201597320384862 17.97059360442085 0.207217202388746 
4.288883665009015 2.6570895779204378 7.553393805044635 3.4206659912049084 14.609860861491203 0.22220179257010966 
2.427572098338951 4.932366756348122 0.618636775197885 3.421556850742148 11.574759892283527 0.28344276888482084 
8.451597281531914 7.850889162047821 35.476803723962064 3.422332997063641 2.262031075271306 0.37234901187071234 
2.784441049796161 4.0409959528425095 15.316290510301016 3.4227525064390467 12.542304595447149 0.5666313046609406 
8.195469302884536 8.145327328072458 9.362842273663091 3.4231437480715496 2.6530744483844835 0.5184088071742127 
8.176153967886751 3.3344127186540042 23.75327927609954 3.4236362233293964 18.82989499524608 0.6180928162206577 
3.4324740033327874 3.228848173692242 16.526316761016304 3.4244902214086257 13.591969314973607 0.4121421217842464 
8.986174672012332 4.629832100352754 36.95077365546359 3.4245587498500076 20.375966390126127 0.4490305864032609 
3.7686471543235776 8.544037369682947 24.27400175826172 3.425259686834686 7.493192766575479 0.3519221922610947 
9.141513201104395 6.239464340075973 19.0491678849175 3.426651008414979 0.4911442659597789 0.2010744047569912 
2.344450977311592 6.131182044073471 10.597435842329624 3.426815416193 10.383685607130445 0.10355053011589727 
2.3330946377241553 5.488452807108851 19.11592895442938 3.4269008139802737 11.027728201969628 0.7412719351138037 
5.368462724916233 9.15609276598916 4.584971339044792 3.4273953117202622 5.766069677368401 0.29068425240524054 
5.994683825801371 2.3311239369431735 1.105227225832671 3.42762070672234 16.397174167126582 0.5459991468927433 
5.023883015740699 9.100271916331014 17.383815402898314 3.4280559779831656 6.116437026926491 0.43907933337087357 
6.040702141691147 9.166517881442326 30.121109535665617 3.428863101583231 5.094994040466553 0.7704676652907306 
6.41509804187306 9.11416001320463 36.99265017060463 3.4292751420305074 4.7173528887873 0.4848561098622577 
6.0893708694245685 2.336291410617477 22.742182370938785 3.4305362438309834 16.50594805292637 0.44549972250914655 
3.5781941376398194 8.40558837762129 34.041854615849736 3.430581632192905 7.740462174929238 0.4608698039610081 
8.315528840313405 3.4701724653783916 34.01087397548005 3.4321351689726156 19.07128677783802 0.2588546191092776 
6.506024123904691 9.098170843061174 6.9207371555459645 3.4324656546352847 4.629430039939873 0.5755200634282588 
2.3714624261140678 5.14348800981578 29.803333167787684 3.4325461296822017 11.393374855303804 0.46999372373691395 
9.178851788040514 5.579183255734824 8.242267416517834 3.4331039810163024 21.399941188600845 0.1597170678763126 
9.156806072305784 5.324636180873226 28.248422917330082 3.4332582182122082 21.145337965124117 0.36247441237393774 
8.577167148101438 3.801602923260054 31.24068231550484 3.4335295618288737 19.501641886446095 0.3834547459373233 
9.058742343944125 6.671294955304022 3.0758030803337775 3.434612102301728 0.932716935668692 0.24487813596472494 
6.764593923066984 9.031786223822966 1.0745412304319188 3.4350431798739707 4.365795802099637 0.5121390366632873 
6.064230604572598 9.171182879894106 39.720135200140966 3.4355833813969032 5.081931373627626 0.7082174483963672 
8.507251697283483 7.799968033882798 19.2446249679592 3.4358122565288607 2.1965723634652115 0.4224319672162184 
4.333219263164084 2.61832383954912 17.663098579357204 3.4372464604979487 14.73732563289077 0.42649721521326317 
9.141452229425177 6.310236335978392 24.1194120829616 3.4374137046075077 0.5627467310519378 0.18439231376320422 
7.668266236927339 2.897441788980119 35.25746880265556 3.437562174418425 18.23420504308962 0.4057769282525627 
5.705347497912671 9.188329798654904 6.2906814078920945 3.4386197303948767 5.446024998856508 0.6512390843055371 
8.624582974379386 7.638699330533818 13.492469673743429 3.4395366603295185 1.9994174329201613 0.3776421875406549 
8.79693490125495 7.346578057180011 10.522316359074551 3.439894443897109 1.6602948877543007 0.6759428373514714 
8.534271099262984 3.729692893401708 10.092170594898434 3.44002999393358 19.455002030291634 0.4113213797251406 
2.9612122821887343 7.764459974867291 7.683713849625924 3.4402595723807368 8.655791309356847 0.5881755113553591 
8.823428243111625 7.29596606374213 14.998869599520638 3.4403447844363715 1.603382830082893 0.5404331791165967 
8.643093179043799 7.613313064330013 26.77790631714238 3.4412096301057655 1.969008781650171 0.33326630241305666 
8.385721693900361 7.963296070782045 31.71399327195433 3.4417594838448924 2.404075310800927 0.5482096904679504 
6.376834123503297 9.134565214249355 19.50957552159111 3.4421218322271674 4.776520850777231 0.7346395810517093 
3.1004716861595263 3.552508173278026 32.73553198579521 3.442233375927934 13.197519650380702 0.41880230501849985 
8.228080274420048 8.140021871429864 38.48232505330599 3.4428311594359164 2.641723180544272 0.6594792141922857 
5.857019897401004 9.191759400283766 35.25009179655351 3.443422865098242 5.301878854142036 0.5415252525355941 
5.846690000655837 2.3078065967728207 30.880631088494603 3.44355112949518 16.32405510635657 0.4327613136239494 
3.078887835238742 3.5764942697813265 17.947627908606073 3.4436851418253944 13.170843919756525 0.4382771045579144 
2.544076380427928 7.007979766364537 19.50022082516243 3.4439017621170125 9.531555306843003 0.7020983020502292 
2.5415072831099295 4.4985089027113645 25.260785221393633 3.443930237523597 12.100239018538577 0.4576497305415395 
5.48776034923338 9.184054916155182 15.935597510882765 3.44405325185366 5.6723999100042555 0.5617339673603173 
5.913171543260702 9.190246195014533 2.466879695838216 3.4441136501053577 5.2467684238882235 0.6750339553257811 
4.577904137633341 8.98916776935605 39.51955583196088 3.4447084852875554 6.606914736580229 0.10815298331255087 
9.023993970567957 6.821537814757832 16.70178533152708 3.444884585551645 1.089615661068457 0.3723135866242953 
5.474854845231064 9.184720715202442 26.842625234776236 3.4457236174182038 5.687968395713842 0.5465934914892269 
8.618612734140644 3.8408225153326647 38.29061929969374 3.445852243848325 19.627446457170638 0.4626857469686934 
3.371387666992465 8.243908734532654 6.3209886459048334 3.4463571212098456 8.038753187153503 0.6469006243194242 
3.3218364174423467 3.3040435666890797 34.58537879897183 3.4465462795839983 13.547137063615288 0.5431373388813335 
7.204190853857284 2.624603360647898 2.59308644929321 3.447140146950164 17.745458675249854 0.5786868822387347 
6.9886510913930415 2.532939321466637 29.73855881921845 3.4472794977452454 17.511904820246716 0.5844235892840024 
3.052771501090792 3.602254968160782 12.099762683873639 3.4478762009558968 13.150407593770144 0.42281179970212635 
2.3685740358550404 5.076267712611997 20.674661183047206 3.4478916378074813 11.509966209894156 0.3379459988593148 
4.111927806325271 8.78415658236244 7.791867576668196 3.448098994806218 7.12320210124815 0.528186210056454 
9.183729286175545 5.431767560314173 35.61950146719385 3.448444387895505 21.34852924619342 0.4735463899899311 
7.938378177867676 3.0847378216487407 28.257293770315833 3.448568040320089 18.621745441806222 0.6348411187812433 
2.3220391298402063 5.370942093007844 9.30410223108639 3.4488549729149187 11.214722691699151 0.41030923291493043 
9.036361983320457 4.702903514161214 39.79544375476893 3.4491428117823584 20.607717138963 0.6429560042469659 
9.1976985822695 5.856137898976994 15.27119135550268 3.449331930647206 0.10615465516934819 0.7624437970386447 
8.93968385235738 7.063737690630328 8.559935488850435 3.4496361833926947 1.3477651554867975 0.38759980000307004 
5.4455403261278965 2.3136209724572634 36.42371974574401 3.449840070778625 15.952132046959964 0.4027891079610127 
9.174618257626214 6.167339576713076 4.526242274168091 3.4499539899479603 0.4183642050641083 0.38072540018080714 
2.5323225421567805 6.995059035080839 9.351144691779893 3.4501623474191514 9.565203854635332 0.6902293592364829 
7.859192734555329 8.48058445079501 10.851444684192778 3.450331206482136 3.1504704635383582 0.41274177840132714 
5.894802466329752 9.197417412295398 21.919880437290796 3.4504571536033706 5.2751204192250505 0.6828394927136633 
9.19340524468701 5.528501003641731 19.894950034420987 3.450521914801544 21.458617195192954 0.24757943987050057 
4.901252816412178 9.094645204146243 32.93904896813955 3.450655491825679 6.277824065938422 0.4842983175020127 
5.73205838215873 2.298576163813344 2.621913637864978 3.4514704690389832 16.24672970577765 0.5631893187156966 
2.6407306151844914 7.248770582125074 23.058866615864453 3.4516473407917188 9.293290016481492 0.5017712461670203 
3.372307281627174 8.253639016130439 17.646061776170896 3.4527714934663347 8.046333809922569 0.6489327700817784 
2.3031441374808743 5.546404610241117 16.734290426243263 3.4528635101482843 11.05120418807266 0.6038325489287566 
7.426712794181931 2.7311820004989382 10.283631960941044 3.4532054541085406 18.02360571711036 0.6045884071830877 
7.059890306936916 8.945357549298306 24.185617272096295 3.4534218514489337 4.081096347684564 0.8112493262988679 
7.397680850967767 8.785213114165726 22.24247351185423 3.453602587885507 3.7072876758043236 0.3050405999052082 
2.3110306108445418 6.072192122677771 22.130495115203473 3.4540292736836884 10.528491788210225 0.5413057001505086 
8.278020460660478 3.396241665514024 5.295536861139091 3.4541374823072997 19.113360724849958 0.31788830157735226 
7.491012831164557 2.7661755121175755 31.17134373041678 3.454610579032956 18.104147845266976 0.5174360841495448 
4.597035579124812 2.4931489951814054 13.517316118761315 3.4549103350726678 15.105367061445072 0.42027032273251574 
3.6569088379254726 8.49873941058916 20.287864950342943 3.45493834388988 7.675490622526553 0.2764876151901695 
7.3926388820855315 8.790394996972134 8.176475596968949 3.455758127322048 3.716504937773351 0.429241316934675 
4.175694931297976 2.6733802995050286 33.44574459008355 3.45601290952662 14.651509460934207 0.49562867779934944 
8.130464754241176 8.255731399515579 25.50949229818145 3.456197664009221 2.8030778913027277 0.4169848325862178 
3.4171106152098822 8.300854814927948 30.442798812094956 3.4567662878053427 7.9906377363777885 0.7056659276524008 
3.4793305581671277 3.1435709642715874 28.568530243937566 3.456792159265833 13.812396004937238 0.6886744504515762 
2.759124516780501 4.01664441430629 19.42106575945408 3.4568566274259998 12.675733514738859 0.5819323423320085 
2.545109939181149 4.453820236013376 6.3034762440217875 3.457080022577418 12.18938463943126 0.4453489313960488 
7.864389940387916 3.0148819742351396 15.817179450279582 3.4570963878488374 18.566271207735998 0.6795601774852276 
2.998499828549541 3.6562002514006533 2.279741370435687 3.4575642554732937 13.111344788555908 0.5156886223658516 
2.41521848437611 6.666168412133091 4.8945112294315685 3.4583424232335975 9.937465312930442 0.5963761162888965 
4.264501409788631 8.873083699303978 2.2452128115830945 3.458375030903703 6.967850565113363 0.5751511941008914 
7.448913743698954 8.763583915263807 2.5116940669142878 3.459479140400461 3.6582482035047015 0.5214764301429385 
3.8354390138323815 2.8683379569139476 22.196175881288504 3.4596993945020733 14.274584521573004 0.6918236941456415 
2.82648743140812 7.600561389125049 25.75259348129721 3.4599860106126323 8.91730635053743 0.49810436622947724 
3.9740341250689504 2.7805792221641674 14.911407896097586 3.4599876509552407 14.4398390951857 0.6210427298513012 
9.138856373380042 5.049854122187831 7.293667251714474 3.4604265300127226 21.037488047278906 0.5384826028021296 
4.659205380177385 9.03412922590326 31.326104999984693 3.4605400843027256 6.545520132083389 0.23872788948085455 
6.5664725233833074 2.386748982214069 28.155180154253074 3.4609369815236484 17.13352333260931 0.5035350690685364 
6.18799707050402 2.3166377509173284 35.101182611693474 3.461187334889016 16.74963562529423 0.7153685564297443 
2.7415708239731167 7.46163839970993 16.518134291686934 3.461264525940104 9.083461736760231 0.3039684665414297 
8.77345298573702 4.065040852658207 19.78746745127482 3.4612649833800466 19.987966261754114 0.2534122242468712 
9.025178273635401 6.8697792635633235 38.577353585197315 3.4613145368775404 1.140293709482048 0.5019529683377486 
2.3552425372041608 5.071913645934153 13.665368147556606 3.4618173456695214 11.558118976174711 0.6192428799141753 
3.039773485050203 7.904554447685605 15.110148352138019 3.462287196403377 8.551589827635322 0.6160413115275779 
5.22358522625003 2.3278506916787105 18.902300522976347 3.4624006704115162 15.78771455227045 0.6885429302323252 
2.958001644782133 3.7022465411889574 13.785070304154942 3.462448417465862 13.068694957433594 0.236356812245566 
7.48829159953795 2.755511429708992 38.226830432776666 3.4624585893014936 18.13755118597486 0.4328330537329282 
9.087510984981774 6.672292477600994 31.137213978874364 3.4626006106846043 0.9335617127114446 0.5373169476685209 
4.1843560664788395 8.839472245078682 27.529497894364304 3.4635357194178233 7.065069846288459 0.5829866059645968 
5.643554173396175 2.28796749144764 33.684402349905525 3.463668547115142 16.215690903722987 0.7297229822141854 
8.658571774157243 7.6313239623154026 6.019342436506058 3.463981757545259 1.988799575764716 0.6732815786596527 
2.3917034755747384 4.8986952958015415 18.234395582111965 3.4645165962017295 11.744212878959203 0.3744342967745014 
5.508165506936203 2.293032634673569 29.417007387897883 3.4654158894665708 16.08835643794422 0.648981178895296 
9.179797176714706 6.245712045106387 29.590790723502863 3.4654349085019236 0.49741832869144886 0.2995450947438289 
2.363107740338826 6.484438015878011 32.7903594295459 3.4656079376812956 10.147478881443849 0.523246224323856 
8.62582764169738 7.684711800028776 11.981363488126888 3.4660488129744094 2.0526011343464 0.3130185316200709 
2.3911390300266966 4.893912914213637 7.758380467715384 3.46624178528564 11.754558083419422 0.5001446507058444 
6.9922421621227215 8.98637869334716 38.3828207870181 3.466599578276499 4.174828206512444 0.860203541939634 
2.3411162220594877 6.380814836238596 11.572140319442894 3.4667587122735712 10.25679492941412 0.4783760301993642 
5.424114074894883 9.201439736602676 24.5651561453042 3.4667907193226375 5.771989915040621 0.5830295259993927 
6.911378890247967 9.016736613707593 9.637776078634388 3.467040384831326 4.261739695084966 0.7072643896205568 
2.344220046704905 6.3990565128865065 7.962681396609526 3.4670753448962044 10.239229714220727 0.5346774976856516 
6.760146489508912 9.066864464045707 25.99725080253885 3.4672735402786437 4.421369198476725 0.5441876985088593 
2.6819221883975874 7.365609695275845 3.4330716108759063 3.4674624937432794 9.212709485754349 0.432875403599571 
6.086853837961376 2.2988782364011726 13.428388548239518 3.467522449146479 16.677700507056393 0.7198823198534419 
4.188222527327467 2.6539901674800603 4.900595365291153 3.467625377287395 14.720724826086741 0.5040387855404245 
7.4153619484681546 8.791660288967424 32.77430912570816 3.46772659431032 3.7099859161215534 0.46555582441621013 
8.12846464223969 8.273503355960322 28.24773511852927 3.4677317142373347 2.8261229342168654 0.401227592996777 
9.043427873958965 4.663088199835119 26.73101161555492 3.468147116589421 20.68547103176016 0.612526843162558 
6.126221400495957 9.197963683090673 12.050519064979419 3.4684284772939087 5.071231619972114 0.7368835040510174 
4.972945274654473 2.369719818228303 26.483178440144833 3.4684446303004917 15.560953859788341 0.8343283610210658 
6.393028113825075 9.158419563061154 13.57017846096388 3.4685456711750833 4.801609168790531 0.561922583932205 
9.187504209171333 6.213296383851876 26.71693892777384 3.468584542340129 0.4646851554832594 0.2782154931335146 
8.253315753588506 3.348935698320231 14.350119865880487 3.468674032388363 19.14233943311679 0.1980986659108752 
8.83446754972825 7.337169402567063 33.976702113532994 3.4688682272135507 1.648525006053152 0.6517154396241872 
2.292869011495963 5.463069649152601 15.117060060020954 3.469017684865891 11.185498999879822 0.6079270711138388 
3.0490516806684234 7.927583027405429 2.0485512560477446 3.469436505391654 8.545447722118634 0.6022646866092399 
2.374985692993631 4.944621611334307 12.138610512091788 3.4697775031588742 11.713418852298563 0.5012576187473176 
2.9106759030908176 7.745002098600255 37.81986935299217 3.4701289170157015 8.776309732473042 0.6302204442548033 
3.4923448102159877 3.1143617689634855 9.133265511260014 3.4703884279515425 13.895722786619586 0.5644960185530844 
2.2920223652663445 6.043923394125237 37.78942620952786 3.470446698039356 10.60845393527746 0.7363372432592235 
