472

6.601176667826634 6.175025600468832 7.157201469576407 1.6374830531036983 0.9830146689260513 0.0 
4.430154394677757 3.8291727264182365 16.97084026949088 1.64039536634312 6.871678557919996 0.0 
3.829182052295799 4.418548897338178 20.280916269287445 1.6462182651871946 6.0433539344406295 0.0 
6.236443858820774 6.568674583452079 15.08956563556044 1.646807257588979 1.5291261584764317 0.0 
5.089146538609297 3.608837906495964 27.779291373007922 1.649026031691411 7.609742455268066 0.0 
3.6225502797161795 4.964835599959185 29.98979878619953 1.652244330328453 5.477278119743643 0.0 
4.868583864925979 3.638425720862209 7.097714704178358 1.6560947814884566 7.419291635132382 0.0 
4.3767493105142705 3.836473098895876 15.34856294787452 1.6615128849432184 6.910227744516433 0.0 
6.65305748397269 6.140844826335973 12.578161068852452 1.6619791839675209 0.9401964564179899 0.0 
5.208280470258453 3.5879880205837296 12.010658985613816 1.6625355150748056 7.792790131256522 0.0 
3.6111530530982883 5.585423529785061 23.27937690502904 1.672820450527349 4.917607581439247 0.0 
6.910444025949461 5.017080825447092 0.6366436334794798 1.6767008395016854 10.30134720044016 0.0 
6.930288210795888 5.240642898274035 37.73919011709465 1.6803142642649789 10.548368746586736 0.0 
6.911138251893737 5.518054500738021 20.505510962219205 1.6826269661664432 0.26920146391680255 0.0 
6.288850819471309 3.9183858741858835 36.95175655398817 1.6889071037756644 9.077714933904632 0.0 
4.147290600610855 6.533811457325385 39.63337749892272 1.692376990348516 3.8593883284118657 0.0 
3.682411441401916 5.891354762972828 19.21884653629253 1.6937147992019046 4.663197378816562 0.0 
4.718822056102148 6.860444739979797 4.515115418261743 1.6957836738841845 3.2040023955727595 0.0 
5.39424859037066 6.941706696344408 38.77597794089829 1.6978454588920728 2.522546718781303 0.0 
4.663140314401465 3.654234575911027 13.46267420849393 1.700256327527903 7.413083953288485 0.0 
6.353258953168904 6.556427061539465 11.709712072520887 1.7099508720632843 1.4868233670359388 0.0 
3.641031157862624 5.851136802025187 3.1435068920973777 1.7175989606767814 4.781856896622509 0.0 
5.747023335767931 6.894564131272813 16.49794574257095 1.718028922389545 2.19444232608868 0.0 
6.0077605798006015 3.706134163936846 30.222606725734032 1.7198031329378152 8.88908770317338 0.0 
5.006899856951616 3.546941278211097 35.950421881023814 1.7203216819570102 7.8629083677975515 0.0 
6.893237754244683 4.724934700494614 4.035904232826049 1.7250866313666067 10.305508677760619 0.0 
3.5491016441442236 5.574732373567711 30.80238128044261 1.7316195688995348 5.11337681692058 0.0 
6.773314990281722 6.0871558942944315 18.870152703882347 1.738194048709441 0.8734543336551805 0.0 
6.919233944269236 4.716833560547774 16.855925219869185 1.7523151579721032 10.468365087633726 0.0 
3.763197480595138 4.309158730510508 26.223112539410387 1.7594783391912614 6.520235712882043 0.0 
5.896957352680384 3.6045363251332807 34.72283283984628 1.7680793312216236 8.99421791209401 0.0 
3.6089105436793547 4.588447182842871 38.74448386720719 1.76941423458028 6.236803213614156 0.0 
7.026075506351136 5.47074720098073 36.76927374182922 1.7897411910668186 0.2213107657919835 0.0 
6.54658000297796 6.513645315505392 30.523987921773447 1.8105024682449473 1.3986763302963272 0.0 
6.583161619404313 4.0184815678271475 5.490565920286784 1.8149263214340707 10.04996998251994 0.0 
3.4460836599021114 5.512565723726643 11.744499034634508 1.8229248260277355 5.463405062419188 0.0 
4.975959855268452 7.05948236785026 23.57578269952657 1.8301159636715583 3.1498141314118477 0.0 
4.516689151673505 3.5502824633786734 26.184623400944844 1.8511576120285906 7.969388733423621 0.0 
3.806183100171065 4.077055645642816 0.3559114001290524 1.8602165730500388 7.113177529179369 0.0 
5.847770336339579 7.012415692110474 5.934451075301332 1.861031554489276 2.314743593511217 0.0 
6.646338016457298 6.4808121136050785 20.856859401052496 1.861359265483399 1.344786389415301 0.0 
5.194868631390085 7.13461981214786 1.325203362919389 1.8854260272270138 3.016759506091004 0.0 
6.145790215142893 6.916641667451595 27.146550116430035 1.8921243503616734 2.0389806113169584 0.0 
4.636616948342061 3.4548514284174034 30.925600612603766 1.8970495940054506 8.31502827602835 0.0 
3.4450870205507442 5.834561554864165 0.8987506735677044 1.8972145568726804 5.366045491096909 0.0 
5.675789983402716 3.3908523433684854 21.247347533880067 1.9072826531808391 9.41726625062798 0.0 
7.170853264803729 5.137658344781319 11.448793138652569 1.9241356273413834 11.97729512307985 0.0 
5.264405591509383 3.318556267986126 5.645909700369366 1.9314974530147384 9.116373038293501 0.0 
6.601821825558004 3.868689931243626 4.4879292254389185 1.9327285774527985 10.604878584297435 0.0 
3.384338550317551 5.768232886937908 5.781846401528746 1.9363000722861163 5.5584378473293405 0.0 
6.909180384050959 6.248486788975421 36.11238676589216 1.9364543409484076 1.0490517808536985 0.0 
3.7388948090258145 6.480841519716478 30.33735212592032 1.9489509344380895 4.790626903833205 0.0 
6.898993317162495 4.196026922149663 2.1831930627368195 1.9570483409665371 11.183488507789292 0.0 
6.017183090898313 3.443777590920485 24.290009681430192 1.9623988600743973 10.035792592744944 0.0 
3.445678010552406 4.477475334289914 35.0453756185758 1.962746086669033 6.960153410342125 0.0 
5.499945339506851 7.205634884092256 39.75684376061067 1.9715426631497808 2.8462722123562028 0.0 
4.673644084185039 7.140843334608857 35.137198093623006 1.9767333299485905 3.689896853565978 0.0 
3.3067817276862677 4.81439311999593 1.1400038161088943 1.9914443521627332 6.695464556286332 0.0 
6.86834888228175 6.4170451728874625 34.412488961801046 1.9952562593167125 1.2465742383878755 0.0 
6.440859447508054 3.6462128474134543 31.985501068332958 1.9975683854428716 10.689171947725075 0.0 
3.677384248231351 4.018165284724504 6.246064761266759 1.9976328662866791 7.603129095381963 0.0 
5.240237926388101 7.248691725059634 21.29832765605817 1.9987155650324677 3.1493371802857233 0.0 
4.779968205591011 7.1927467757110675 37.13676533379492 1.9987983695938603 3.6141804599027534 0.0 
6.915317064635757 6.35794095284493 1.3343301332320792 2.0002035098354316 1.1742357645202688 0.0 
5.821616775479442 7.168992329105904 13.312726016332633 2.0023179810351834 2.5655533674492492 0.0 
6.295664603026042 3.5361943852346096 38.68276506092104 2.007621514933278 10.560555741833856 0.0 
6.824365904942676 6.495839768966159 29.553935355855963 2.007671470281835 1.3439969227212227 0.0 
6.378787501512359 3.5883989664174036 7.117068031172607 2.0087506610759998 10.664682873727862 0.0 
4.466643899992552 7.100760750936339 24.990739455023764 2.0097169294767174 3.961541307022788 0.0 
3.52622688767641 6.2835573470737485 18.261692365121974 2.0098842087194666 5.228662681187092 0.0 
7.152238459511233 5.900911772091695 24.500846578345197 2.0105216467104308 0.6628551305553927 0.0 
4.451613260496172 7.098423939622455 29.162769347713173 2.0134776995002808 3.9837073063554183 0.0 
3.6086363504339483 6.41703278840267 14.004784556706745 2.0139613102847087 5.08225719393036 0.0 
7.188465972093291 4.687825741829879 18.4076734690003 2.018338480412221 12.111885299453677 0.0 
7.019863297594951 4.270120865847359 10.711870530886856 2.0230124096805233 11.688048407269608 0.0 
3.472359859970524 6.219120121424374 15.563805087397526 2.024647692116732 5.350057632464916 0.0 
4.575249016174607 7.160092317518293 19.189403742985427 2.0257693727608133 3.8699661817600894 0.0 
7.123052212280933 6.0363095382819 28.076721123402493 2.0314052475868993 0.8074002508398088 0.0 
3.2382443311207707 4.949846870937842 34.1790808653682 2.0340237884925347 6.691327479947688 0.0 
5.0925598410175 7.278951548430481 30.532264025610623 2.035050807606256 3.3542479694010083 0.0 
6.916037337471218 4.077086479856351 12.510111753008644 2.03750007008195 11.552157783503933 0.0 
4.530847040297702 7.1628854675758955 32.14005748193018 2.0436026501038875 3.944973199518511 0.0 
6.164457580511903 7.077613743551096 6.96700258303396 2.043625372266779 2.2620151989615493 0.0 
6.83205056609559 6.549353926220865 2.314994672195972 2.0472431754114973 1.4076853145132304 0.0 
7.180188251685597 5.936095893446501 6.3219419109925 2.048500491078599 0.6996174053889348 0.0 
7.088407431023066 6.158642729388043 17.357932550098262 2.0507007319720185 0.9413564245985437 0.0 
5.855011752657759 3.290416086117154 17.110235183820848 2.0508555132925457 10.278578735597911 0.0 
4.19667272185024 7.010221382102934 1.5578354222794246 2.0513112072298405 4.328354946157689 0.0 
7.295752842302675 5.427725863177088 13.091023677504463 2.0534583448980674 0.17794849993977913 0.0 
5.569488737106937 7.28059254157227 18.819960885692282 2.055572699523694 2.908096799013027 0.0 
7.148793703763749 6.0379839029569204 4.771489969281497 2.055805477366979 0.8086782311943104 0.0 
3.1934770160923263 5.285255712739065 4.835962968849351 2.0568251623852873 6.426449380496656 0.0 
4.6616348864553245 3.278127188886245 39.23831033321327 2.0577793589318816 9.100364912345619 0.0 
7.262916041669687 4.784720776119981 7.541504485951329 2.0659902582019942 12.511694753311843 0.0 
3.237823478000406 4.756611463874231 16.474868067150073 2.0717834354166227 7.006875022448185 0.0 
3.285738760861137 5.917918650693199 35.55212844267749 2.0747138452150877 5.837876044241561 0.0 
4.172171228574365 7.0238068406513605 22.90145649341931 2.0755976412721364 4.393649107649914 0.0 
6.208136458262433 7.092398168139136 3.622786433137108 2.0766454879478418 2.266116203632617 0.0 
6.060664288312064 3.3360970932537786 26.16767350664508 2.078509303514456 10.627510416922435 0.0 
4.329408625717671 3.3856281266904364 3.383461364072481 2.0792717379868453 8.844658390383758 0.0 
3.4548992435609875 6.30576861228386 33.0326067249281 2.0825547023912008 5.435343219593456 0.0 
6.823128338697225 6.619314724563914 23.20704175581215 2.085606766607705 1.493798794850111 0.0 
3.9844095219745173 3.589679367139082 24.764881350359012 2.0876742710424088 8.478232353568492 0.0 
7.320036447074944 4.878746756230468 32.553303299186055 2.1030643982598485 12.840734321044362 0.0 
5.822593891293142 3.223527874399444 19.578610757204416 2.1058141038995477 10.50331054700101 0.0 
4.518690649700408 7.232487789356474 17.299310200544753 2.1130715086771503 4.065961337990192 0.0 
7.366662947867933 5.14543501295985 2.104192809824113 2.119244174556503 13.210996398989714 0.0 
3.4648983269488234 6.3947053499921305 31.38812980379587 2.120598576211612 5.452885242390996 0.0 
3.329890675331484 6.166096701187819 25.305070276772728 2.1274522285132966 5.736519587087059 0.0 
3.1277410469963947 4.949818238156795 8.461204052396468 2.1433833426961337 7.034809189231108 0.0 
4.7767301701857106 3.153533902541353 20.827575670477174 2.149221819544445 9.650788602039416 0.0 
3.7394813823613235 6.7894448500482225 11.004349966018847 2.1567468420222746 5.061260784202975 0.0 
3.1166138397886556 4.796147482394149 14.9518429284416 2.181127831264934 7.3094083434399515 0.0 
6.607807240939451 3.4808103001965263 14.666516878312393 2.23017324381724 11.96929525353799 0.0 
6.354684795869174 3.3076417368661266 11.933671593752472 2.234521004732101 11.685430484456308 0.0 
5.043191708799642 3.0180688457870106 0.677835071207646 2.241491991164754 10.355679325667762 0.0 
3.124992736288416 4.535914528252469 18.599521964970798 2.2417791889006113 7.769505393720902 0.0 
3.7439418622559204 3.5452516015656066 29.17427535732979 2.274725965084539 9.073412685900514 0.0 
2.912196067163393 5.246134062773283 29.331722761836794 2.337807129310916 7.348303641941694 0.0 
4.403707949750638 2.94235872724712 19.179149087952858 2.45792971380953 10.718746970403831 0.0 
4.744232403835485 2.7845709256805353 23.530765595812305 2.516772016260068 11.350773534122904 0.0 
5.836336201021498 2.6352392064482384 34.41261976459641 2.6796947863747014 13.218882775805067 0.3534998327239773 
6.849131837131874 3.087698280430744 37.04206998138455 2.689381222322511 14.38595453653178 0.36160690038450716 
5.658472280593441 7.9366732290273765 16.372812835236296 2.7175471741233124 3.858686895299847 0.07420362236599838 
5.3504429050038835 8.008688020635418 12.768473272733516 2.7605159612585077 4.235743250914499 0.3888772423297341 
2.590546575937675 6.0365305783760315 39.41359779564957 2.773323433261502 7.915177249637043 0.21151394215561134 
4.045362002888157 7.7539849688153195 27.770258561616195 2.7786855576222886 5.610723200794997 0.1992809873193871 
2.7012190921679027 4.112026641909624 38.69207179317784 2.7912841990476154 9.941196127324215 0.36314187905052947 
4.916958626401467 2.471124591628957 14.894654344307625 2.7987613495576444 12.855019737721946 0.5051889800316375 
5.320212346176632 2.446917178140195 39.27867127881513 2.8039620325106314 13.283579469114411 0.10411543636015665 
3.7298546917275672 2.8854639433161555 36.57010694106194 2.811026951421966 11.640534685098253 0.6679556515027 
2.606719617018335 6.218301426350717 2.9225916886199883 2.815055742845695 7.8552680405604 0.21347885529500427 
6.669877939438334 2.815298764319648 24.875699883782808 2.8184789284163716 14.769820946710855 0.486633933794026 
5.885863883143153 2.495514900791001 28.890746948456346 2.8269260760851718 13.962926875673364 0.3132827374250484 
7.663110740295575 6.732493499734229 37.37242577433372 2.8321176567515853 1.5602246079312891 0.16106909903295946 
6.879764961076365 2.9289695620118827 8.632374942139165 2.836074068570771 15.100880183106447 0.29208395902011497 
3.2504892951576734 3.2296555891002274 10.168340841200816 2.8425049863514755 11.177222699421844 0.5510782079177814 
3.1184292924553993 3.363923047685139 31.64114109840444 2.846204481641386 11.003320763085984 0.24746198199239325 
7.2421300568634415 3.2099076052417335 20.092972579374127 2.8514135341281635 15.64254937549697 0.29288931160586185 
2.4099764900320917 4.962375180240043 9.510024283534747 2.8545510284653153 9.25595028689581 0.6092026988977841 
5.247169452685089 2.3953723605008044 5.150744111997476 2.8546290428339107 13.44929189675787 0.2438239940509618 
7.8452676946749555 4.0551726051284795 20.263844315613497 2.857101137614649 16.71897654602234 0.17583737019210913 
4.2150354144783915 7.9131365544606105 30.738275566206767 2.85717482856549 5.547088921722221 0.5939230784911408 
6.2914988070888 7.911094751846768 34.29659883412231 2.8576467667424894 3.422726837150069 0.2632130473108321 
3.7908982712858776 2.7913677390825207 32.973027846167234 2.8589946570710363 11.941424958671462 0.4361506588796067 
4.574990880947404 8.029235505838518 10.039183068470827 2.8600327459170183 5.173967199828759 0.6455237618971942 
3.881339595902487 2.737260528576762 39.6423865943161 2.861309307466199 12.056506767833767 0.5688683962195197 
2.7683582141733556 6.6750235808887854 25.991149017086634 2.8616844968042776 7.498586770408849 0.28199118708438503 
6.3219246464581955 7.9044138779587065 26.969885742201555 2.8626797730770206 3.3979864628219616 0.2377450779166978 
2.4153555792591126 4.831647693889744 36.363204748209405 2.8653494802668003 9.42161397142813 0.502350353196419 
4.0384330120032015 7.847962430091902 20.487114458564832 2.8665839172388883 5.753708908126532 0.5816826624377428 
3.8683577718920983 7.768511140801644 10.718576883285806 2.872600496559341 5.9536371252504985 0.47753341830227386 
6.604342404661963 7.783436982039522 0.6097786101497462 2.8727245414468587 3.1021503562563844 0.7671723020470528 
8.091367999125502 5.6740080319002395 8.758287648827043 2.8728304714288972 0.4255627188973534 0.09813816325424211 
3.8314560010886254 7.7601346663608926 3.5261630994116544 2.883234836102357 6.01206034987206 0.25114508416723913 
2.4603405159026126 4.518829287365605 30.93668160153679 2.8838881129871865 9.799241444471111 0.28797758534821877 
5.130001643049157 8.132099755049385 0.8952167736557257 2.884596783560333 4.651147026056652 0.30819428475988564 
6.4284803551970455 2.6134529603048335 31.95982755519004 2.887939791635328 14.823008125909062 0.15487408523519278 
2.4052172089111696 5.754839913429722 36.7929457836787 2.8892304281013814 8.569340335373475 0.5939398678350802 
3.2122585414921456 3.2007341427111378 16.17255466434652 2.889962076839688 11.357003528516792 0.47975957487889914 
4.869920319036279 8.116444978563106 5.599556803325605 2.891533741634556 4.923193360571791 0.5317813777159881 
3.4876286569471127 7.543390680787134 6.2141175360779854 2.892333584760807 6.438350279217339 0.8138857732767286 
2.3688109175426186 5.5161446250334585 24.277500399516796 2.893455285693181 8.823536516788048 0.585008861922409 
6.104318005563494 8.01542514025307 12.071787376885617 2.894379978678283 3.6792452902001997 0.22039100454772856 
3.82147521834246 7.768055868067258 17.86153377449967 2.8950454929962115 6.04147970999092 0.286588542805156 
5.797752422223738 8.094582167936714 17.476996063739797 2.896839730843854 3.9992751061436564 0.4313176573423505 
7.381275576649524 7.2133867675123176 13.401413104572995 2.897796263104987 2.157175315131404 0.2932406707568952 
4.456374373731642 2.462841078335299 31.127936972971362 2.89794694383541 12.852356995405035 0.5305981292623612 
4.803927719058298 2.3865067522799457 28.626073634191457 2.898029340700828 13.208788796962782 0.28255605730888156 
3.1219228366723044 3.281627268066128 12.184323720922492 2.8988279743540604 11.270714165974486 0.5907841430097288 
3.4128623500714275 7.493968412894159 30.184277354862097 2.9000808579851376 6.545007882095806 0.8296304723690734 
3.548610573195785 2.9009126015646673 38.14354350792172 2.9005064363191577 11.850178596032816 0.4477231690610988 
6.105519065256427 2.4780425783845814 21.39347762935467 2.900975838966266 14.538958477559 0.2978423066412595 
8.142244505838926 5.488181931511825 12.552633929127708 2.9020353054458448 0.2384501505275658 0.3962751232121188 
6.395673861353538 7.916498157683506 10.976146668253236 2.9022027878007175 3.3810360556592443 0.287599573843968 
2.371063641680479 4.8760782537014435 3.5992443990088674 2.9031176392990057 9.495376449343151 0.31093062205451105 
2.3893043110370247 5.748244988286977 35.13171757688003 2.903760991060463 8.62171136777052 0.5881235671625924 
5.504179734534565 8.142624748435772 20.119064488110745 2.9037708712484833 4.306727160785087 0.7051130471609878 
4.314153225922476 2.5003614766448212 25.981801762095472 2.90453459157748 12.734450909606913 0.3790944432390291 
2.980417639636352 3.433783087595934 8.40478627344661 2.9068278179789706 11.093854936542726 0.34797814200149707 
2.533200752475955 4.214455169471126 31.89205000906744 2.907464745681758 10.192861974804327 0.7161010546960955 
2.9420424910689373 7.01882533960681 12.755829540423917 2.9078189326480457 7.233711575536251 0.6200315250494661 
7.801935378405679 3.855847125935135 11.960914797782088 2.9079264797827777 16.817056434624813 0.37954255716786645 
7.373444059133041 3.260843838450139 7.089407482477959 2.9095973788995577 16.09131981016192 0.8140720230547753 
8.109132019672135 4.710377613482619 22.773576576148443 2.9096096346323117 17.73885174032266 0.5866657572083835 
8.143659445440733 4.943095833381205 35.88582827786817 2.9098891995531977 17.975897040909615 0.3536484428830113 
2.78491344502196 6.7962777861531105 2.084065983437128 2.9099186785001505 7.51155288027368 0.43450135179501315 
2.966787305576485 3.4443662246539497 5.700374693584302 2.9109059652704548 11.092639577291589 0.4105701629777496 
2.8080522506622394 6.838071544222501 4.894323599722981 2.912916071579302 7.4715877153407195 0.6249116218138437 
2.345761347577784 5.02420233382858 25.742549402928503 2.9130030443292827 9.377493356510195 0.3691120356365969 
2.5952772786434224 4.048768738500131 25.28271582682308 2.913847846214938 10.392279180668247 0.8370340174308075 
5.8652441633046415 8.09857397139606 5.816627113444248 2.914257890269076 3.957797055648669 0.24629195682704932 
2.3654402857741026 5.673222760960661 21.326137080295 2.915442033436809 8.734407799493816 0.5179672559953173 
5.007790783992684 8.158267494333924 23.517801154252417 2.9183360195354786 4.826599648778018 0.36294463627078416 
8.135539155289223 5.686602030878424 4.49460978001153 2.918382694245976 0.4382472822940535 0.7406491104256675 
7.615413690125173 3.5403168476382927 14.626327458004454 2.91859527973665 16.51146004597 0.4063787517843244 
6.187418739636218 8.017005111972795 4.8624775390098165 2.9214844143182983 3.6347580431573796 0.28355841499459744 
4.106243192449892 2.561088032195002 10.456186210225404 2.922058727237042 12.594695709413568 0.5345526653923329 
4.431617699888649 2.444098949594723 33.69263896315344 2.9228120524250247 12.943955750788497 0.1266228113817608 
8.158101999667416 4.956009844018082 28.645508095145274 2.922924469137701 18.070787960192945 0.554558906418197 
8.01653882800796 6.200417085048413 14.497623703703901 2.925240113636413 0.967986424334363 0.4288919079549725 
5.311009474057563 8.175204202581764 28.51695717861496 2.9258403549624523 4.534885386248796 0.5781258541138197 
7.47386813880698 7.15135573775558 11.745733967165918 2.925874764971475 2.069694423358662 0.26854935253795625 
7.223271291182545 7.411408281335959 25.863438722957135 2.9266850440785195 2.4316918541219366 0.9019031517351048 
8.105842086698406 4.6052161191470145 8.92531407957145 2.927726127417957 17.745332432442538 0.7657898696302822 
2.4308670531147474 4.459838452527563 24.306755253350786 2.927774896285227 9.997958666386047 0.9005159486110006 
3.0167257992517342 3.3564243164433467 25.909134251778063 2.927992917526417 11.257727925807828 0.41809091627717443 
6.033542063769463 8.072004519068946 37.42529437236092 2.928762139768553 3.807285315759586 0.4219136954743685 
4.621333568490535 2.38910394139287 17.50187144885289 2.929154782571357 13.169720993213032 0.3395686067710185 
2.645057384240653 3.910206922166573 3.3451201484320165 2.9292953969870488 10.594196034654502 0.8509673248441473 
7.570133475894645 7.03876491981827 32.18989015308143 2.9296244271816536 1.9241495635304275 0.47183511460556143 
8.003051618860606 4.246845730553833 10.409059879664674 2.930121448749024 17.38663314448636 0.6775601193469263 
8.1349022018264 4.73594302515307 31.301975988737432 2.930343885534867 17.895162869296627 0.6991579555323434 
6.541396385645896 2.6191642536425466 15.290869748315629 2.9306998053658573 15.147923760996214 0.5346893153734701 
3.2432445550055213 7.386352512840746 1.415151364377337 2.931052622375786 6.814476137849212 0.8841386629898516 
8.023116351378901 4.3003653913315425 7.976116941397606 2.93120797424303 17.45023871446321 0.6711230293679079 
4.9335999650933875 2.334791486925452 32.09200075295871 2.93232836783182 13.501254663334613 0.5349888925026584 
2.754649391161351 3.7077567698227725 35.056679980825066 2.9334772612138837 10.839715407231601 0.7664244323668324 
2.940448557277268 7.058947727728327 37.321178525814204 2.933652969973807 7.26710187357223 0.7364233799713747 
2.7457293865541406 3.721548812035154 23.710260019437158 2.933859972691208 10.824707768931294 0.7788668085244936 
8.08969443470301 5.988731212663744 19.655774568885597 2.9342099936860166 0.7467667451258695 0.8875462924334463 
7.23813792799762 7.409337659597419 18.33554430149013 2.9352055377602313 2.4263958751036974 0.8666686556023018 
8.1633636964428 4.889561916881558 1.526899325826271 2.9355755210031576 18.083415061806214 0.49299607276980967 
6.750436203159838 7.773176278079971 17.538998068238847 2.935596588432784 3.0363207821196454 0.630125183596989 
8.077754316024514 4.461576375976126 14.274610294496682 2.9356100358723065 17.646758360378648 0.8336722226848284 
2.5560395597405616 6.416399041516067 14.219133378946403 2.9356276292698347 8.023047779151039 0.5913743463075541 
5.129127503977189 8.183215270085205 7.2208609763263 2.9357046821769734 4.732300804660788 0.24970822086740693 
2.5420404315619276 6.385104449742023 5.841164137440238 2.93624030626232 8.059003560454482 0.593650432886599 
3.9447916667552168 2.618797389584845 22.2314681286542 2.937140781479014 12.48844732408621 0.41392406601446763 
3.8511409267173775 7.833222316574165 33.30362239434841 2.9376596541723323 6.072446375373179 0.5602884092448238 
2.381011193074942 4.617795662902841 35.36691624350867 2.9378187653607424 9.866618218580381 0.612685144082097 
4.662499373932571 2.371361817155444 2.0671254011358187 2.937978007637264 13.253406978453434 0.334260488828005 
6.546295477832453 7.886907942233762 1.6568968396286934 2.938309966913694 3.272965421541123 0.5527195765574796 
6.110813295029226 8.059425034813477 29.140667814644367 2.9383445262827506 3.741912956109111 0.3435508000027251 
2.478782538909197 6.227368724690324 37.72771724008045 2.9385193279366644 8.235280489624508 0.6225547705827474 
2.670153826399339 3.8405009201042395 9.61129398724455 2.9397778718244965 10.705581173444502 0.7297689840147816 
7.009431662956491 2.893714281926675 27.400648529649892 2.940694163256383 15.743808619158017 0.5133519274972458 
7.52072475063467 3.381402928070809 30.512584729540016 2.940722004944913 16.452255801049894 0.47183253507113515 
6.195135679028045 2.4652376487732184 24.009072817604064 2.940779285254491 14.820308597999585 0.2145975397106992 
2.804972948576175 3.615328073365898 21.135740670715386 2.9411408653649906 10.973137295657772 0.758269045055352 
2.331835837308944 4.883016100690437 14.237928233657065 2.9411493098390733 9.607835958479356 0.17829042482760582 
2.357812155072864 4.714732843290765 20.168700516172706 2.9413026806834854 9.77864144935522 0.5345641181376919 
3.880657130973878 7.853224822830907 18.928158319968972 2.941407719299674 6.044713343770882 0.38766156581365235 
4.578144015634571 8.113898826884547 29.225661853360364 2.941650379354814 5.2985722299468065 0.4972235858696097 
2.9783842387406283 3.380759547053266 33.20796139633355 2.9418188315622884 11.267527776293115 0.4287379321083902 
3.787318844694804 7.802846211990513 8.702910115626537 2.9421862524590874 6.152396392020414 0.47982183620431246 
7.939015196171338 6.444121872968816 9.379057184025783 2.9422321072177375 1.2296029015046237 0.6265285486267489 
8.034761281992965 6.201582244334411 33.44767053244237 2.9428564636114394 0.9689972501180932 0.0730184581132252 
5.917846122860496 2.383699293555077 18.968066173638547 2.943076312905676 14.542635126811362 0.10124966937373732 
2.3120193818064703 5.076671746416366 16.26702572358071 2.9430889888637735 9.41941535248936 0.5036118491482057 
7.040073091733213 7.586120507410161 8.35461199138949 2.943097126988781 2.6987331831616963 0.8823808656977693 
3.9037839266531407 2.632144681795289 31.97600524947311 2.9437160500276054 12.473735682175956 0.3760211768147917 
3.249229593581605 7.409997263617857 28.306987516038284 2.9442605859597872 6.824632720763677 0.7703053163670117 
8.185536481953495 5.476705915977913 38.841492896280066 2.944277502074031 0.2269305321722328 0.7174455409979225 
5.070000341979481 2.310726771725726 10.338467237139312 2.9447796160896957 13.696835077865723 0.6285729787430145 
4.265902476854583 2.4740662977164174 4.647589195732891 2.945208966191496 12.875574755616466 0.2139497617951814 
7.585282205005084 7.045110046062003 34.71756521010626 2.945498778557907 1.9303512617600411 0.3553352933576841 
4.062415275303952 2.5540156764293194 2.8475081226749452 2.9459614646614534 12.660157903075984 0.1613943528809711 
4.778632110589264 8.158401824834478 32.14103951131631 2.946351788545973 5.101520731298539 0.6929918610396041 
4.646297800244037 8.134493418041155 27.00499230758374 2.946991453111623 5.237129735821586 0.6792027238531312 
8.172463779024172 4.867971717924757 17.27592282355608 2.947327628210615 18.135499456853793 0.8701775110199709 
8.166481349242957 4.822435022908888 11.799594991871679 2.9476558941160254 18.091589506176877 0.5890017556200137 
5.80936070035993 8.144111527462055 0.11268897044003978 2.9476712717831854 4.06741779259643 0.17665796674033354 
4.5908203322838705 2.3769410509533415 21.47874082624518 2.9477085268098393 13.225948035241203 0.369043227360916 
8.035875989312245 6.215284093649004 30.892795492497953 2.948368770910156 0.9834176501341858 0.43859831349911443 
2.726363873564175 6.774517530665163 11.279911207096305 2.9483712452738087 7.660361193501192 0.5275000546388557 
2.995514153583411 3.349879265607445 13.690122266293173 2.948417412267339 11.327531511405827 0.5368204854185116 
2.665549149904802 3.8302792033539674 2.238275467296596 2.948727409745946 10.744934552072806 0.6525017271000011 
7.9904413420346 4.161269630350196 39.99462924603143 2.94878832182478 17.412664295445595 0.6763529441435963 
4.258593316063932 2.472814713995085 11.616940462569595 2.948837961936077 12.884968766596895 0.26704954564775113 
4.15995334509255 2.509775737325535 0.6568126955078668 2.9490728576325034 12.78064824236343 0.3711805921485337 
2.313353133272246 5.521093365138492 7.101350271344721 2.9491331662853137 8.993498482418296 0.6390469697082632 
2.6602551462664135 3.838046404841357 15.334729659944635 2.9496425821310974 10.738912789471595 0.5989364877182263 
4.7878311898391885 8.164152242694307 14.578512917430594 2.9505733854093026 5.098829717368815 0.0 
2.94832369630031 3.4025965247038723 17.11731404749355 2.9513748334545507 11.26816489710136 0.0 
2.554298774353036 6.451753562816352 9.70511014203283 2.9514431594893273 8.034518486378197 0.0 
2.623858268425259 3.901596966888368 27.275237352674814 2.952085895434451 10.67458158363144 0.0 
2.300257348918361 5.370462453685267 27.37276128284818 2.952201366837636 9.154118219102113 0.0 
4.211535859936223 2.4858564710961737 6.345551114794347 2.952777881686887 12.853479166014747 0.0 
6.782565693914616 2.7257757589990472 23.21282279488201 2.9530434512585195 15.527233338137691 0.0 
3.5538943031488106 7.667572039991869 7.736754402323307 2.9532065798791485 6.445603382770596 0.0 
2.2963840150917285 5.230648180542552 2.6467281677093553 2.953679379895856 9.298609398848846 0.0 
2.5224288381350632 6.383697319537975 4.027414136422379 2.9537965494198875 8.116068891139008 0.0 
7.293553862878978 3.1168102601206593 32.00105093124992 2.9540837592753015 16.1775367129328 0.0 
6.996047730685115 7.633209552749991 19.30205020645169 2.954381568137308 2.772672139113272 0.0 
4.779690386687712 8.166730645156488 17.626583764882184 2.9544049804942 5.1130874744354 0.0 
3.3376767440244706 2.9977384051273894 24.178091074691665 2.954600231348221 11.843326633099586 0.0 
4.010493268455617 7.932339329493368 35.1579428350835 2.954880914028648 5.920595107337867 0.0 
3.6113893223517035 7.708945694147518 29.22238943569331 2.9549042082053396 6.378472881526164 0.0 
2.2953898588227943 5.309524888911179 15.211923408773615 2.9552096877797163 9.224536130281002 0.0 
2.2999535475997632 5.064310820835647 10.590814514764872 2.9558847309355536 9.471997285280814 0.0 
2.7498156443120134 6.827201261080329 27.594662119855194 2.9560929671409775 7.623199469125865 0.0 
4.695416315081719 8.153806791659278 8.997476663133106 2.956291079522465 5.201620258126777 0.0 
3.0051318189738154 3.3254354453020607 4.086879207623824 2.956921012706205 11.385090743048586 0.0 
4.329580462304129 8.060064278727426 39.31410866139763 2.9569635398415337 5.580758348433367 0.0 
2.3171633288498175 4.8730229845075925 22.773386644794144 2.9569651012233535 9.667585573147953 0.0 
8.191100864362827 5.556149262686688 15.325392501701586 2.95699199616762 0.30669886856257733 0.0 
7.920169540517463 3.979160744557408 35.71547992531433 2.9571671897748892 17.266812492944688 0.0 
4.53318307445296 2.3810233826272835 36.960493085255536 2.957169818556606 13.211305430117008 0.0 
6.9534148886785445 7.667837340283915 10.169546078017774 2.957627374610084 2.830577190484439 0.0 
2.4200015562922896 6.109940557389216 1.389117924874128 2.9577675624752757 8.419559770163303 0.0 
7.957400208600443 6.441288271958994 39.06475787821539 2.957901897703298 1.226100125943141 0.0 
2.9574647180397147 7.119174595853851 9.00196085172798 2.9579607314530247 7.269405394435335 0.0 
5.292515919891793 2.2923291705650275 22.81884782853882 2.9579763925249307 13.981652740309457 0.0 
7.6036361371335115 7.041726181551219 10.75615880310405 2.958020584052259 1.9246889701076455 0.0 
3.1106872529261 3.207079555746363 14.675850673857092 2.9580708191898224 11.54815125919821 0.0 
8.200896056572352 5.456735902273456 36.74437892357703 2.958129015101117 0.20690456476437546 0.0 
4.360078536608627 8.071353661689777 13.083426609157485 2.958377375409525 5.550929040569997 0.0 
5.281403650808359 8.208280426230143 36.051870723562416 2.95844710439455 4.615713604020385 0.0 
5.002507543159403 8.198348770680544 37.65953091136524 2.9587181328687717 4.895325565243144 0.0 
8.201753662791472 5.456231649573105 16.453258667953136 2.9589493370263233 0.2063989860854214 0.0 
2.635019099767913 3.864617308814335 4.846292367264965 2.9592921974038764 10.73863475446041 0.0 
6.28557191274583 2.4775798495687855 32.95724311342322 2.959513925796784 15.004342097614185 0.0 
6.968101073192225 7.659807056779961 7.338334130493273 2.9595677638146367 2.815803339117572 0.0 
6.782311643348207 7.782461966993305 28.4357199371847 2.959956517688744 3.0388651166302836 0.0 
6.620759786601992 2.626523089154169 10.328920576366407 2.9600022794427585 15.373873185424955 0.0 
8.164465027352652 5.767686901725138 2.0271125592670955 2.9600854926639326 0.5203629144405753 0.0 
6.161499977077479 2.4326424787625314 1.6953213074518452 2.9611375534894653 14.880577413426991 0.0 
6.569475668444328 7.9009101520047675 20.19525202787716 2.9611384083859638 3.283768739668993 0.0 
2.29421261765202 5.431508757512681 6.061189808356147 2.9613551760471615 9.121749068008349 0.0 
6.801821942222455 2.7275732977913716 30.251836776889988 2.9615515879987915 15.589362479743983 0.0 
4.490103753859151 2.3871258325783895 8.836593721495717 2.962007900629055 13.189644490921921 0.0 
4.801719911715313 8.177986381176986 2.3753180990574947 2.9621038614320097 5.1028710172424 0.0 
2.3698203990685958 4.5571714770720995 21.30508183324757 2.9623379104693393 10.005764484077226 0.0 
3.037121647283991 7.219519248895271 13.742420503821606 2.9624038677547184 7.152177464590864 0.0 
8.212409209959581 5.266392709663144 23.61542128185873 2.9624545647458373 0.01639279332039223 0.0 
5.319692858214754 8.211656671507825 8.213109492117532 2.96247655423177 4.583748001374566 0.0 
7.329197661457215 3.1392800140385493 19.036230663872523 2.9628030266195995 16.266570529628794 0.0 
2.3020059353461235 5.548510036165668 17.790317481653943 2.9630688900067965 9.009738157913986 0.0 
8.204693693753349 5.0250727785917135 5.363552474608625 2.9632426628334474 18.393458984023283 0.0 
5.470937319519567 2.2945512718722867 33.511146923905486 2.963695410083197 14.187228063891656 0.0 
4.110197215770045 7.985901416906227 6.908806145086125 2.9638331515063143 5.825529107353788 0.0 
8.171794402646215 5.747681224254801 30.017752618009915 2.963877381456682 0.5000501466710894 0.0 
3.7642313031844967 2.685387403875291 23.30339397132974 2.9639072840826786 12.410778660308978 0.0 
6.664745152740959 2.645096616476218 16.799896517465413 2.9642917340737043 15.443740029854506 0.0 
7.216705882948462 7.467918557176382 38.136451767780564 2.9643034183921633 2.505899130380225 0.0 
2.5805304572062777 3.958836389581805 6.478023578554492 2.965328162071016 10.65174812863016 0.0 
3.8592869286777347 7.869178040001906 31.72749392754882 2.9654976735743417 6.105705557897984 0.0 
6.781324535963874 7.7895823301613785 36.72131313686982 2.9655409702300273 3.04912906150712 0.0 
6.323943249905826 8.014375204484775 14.606770850957027 2.965657494585055 3.559524700114814 0.0 
2.338656729645086 4.6838668612133745 32.815467856708054 2.9658769982373236 9.887206090096827 0.0 
6.153645762088896 2.424929115906549 30.992668370892844 2.9660750434696967 14.895542536044715 0.0 
8.096990255155244 6.082309811244077 7.716057738405254 2.9661579753684846 0.8436383078636496 0.0 
3.0192703693879217 7.205195508714057 32.90532785340541 2.9663014280727293 7.184155487268175 0.0 
3.4472931457187705 2.8936135125358717 1.2948935043168461 2.9668685985018066 12.043521635402946 0.0 
8.074118533063613 6.159648343900004 21.238489261233376 2.9670027971596853 0.9245377750061756 0.0 
3.0215977789672355 7.209093195205561 15.48086055405787 2.9671236250288735 7.181681551322292 0.0 
2.7639607602766656 6.869938958680516 16.959308136285685 2.9672534996685207 7.608285350824442 0.0 
3.012842207866706 7.199665284459055 36.311525757948985 2.9675022676196097 7.195459732539504 0.0 
8.19677330678054 5.601171126365589 34.25984834795126 2.967624316106605 0.35199590659376767 0.0 
7.610962876296107 3.451552491033336 12.86720562672945 2.967921687942049 16.71596055766959 0.0 
7.497412412615573 3.311447989443785 37.77484945572753 2.9679700891366965 16.535862658813514 0.0 
3.687421242253036 2.726610714028036 5.475247277625485 2.9680205293629864 12.340862546295991 0.0 
6.185167067924702 2.433103615205056 39.80410872950067 2.968070532787541 14.938077737602434 0.0 
7.462204477798208 3.2711224835918937 36.2546582434706 2.968131546366495 16.483227615123397 0.0 
6.260435456625753 8.04118682101622 35.84670787856049 2.9684513945525746 3.6317909131997617 0.0 
5.523190774745553 2.2935731944339572 27.201270903194413 2.969022171704937 14.264765111437935 0.0 
2.2851938567904266 5.411877999175921 12.064565145207624 2.969222112512032 9.166128077692719 0.0 
8.18749137370076 4.815857604930702 18.29770517169696 2.9693998029505746 18.22158504097359 0.0 
5.863193869413754 2.3445666990979035 26.14146295622504 2.969435870241596 14.610774627757593 0.0 
6.400983224250615 7.987845456894547 22.72895288596868 2.9699427819984088 3.4832395908336125 0.0 
6.100969754418843 8.095465106446788 19.221220957069498 2.9699867331255705 3.802178621540353 0.0 
7.5578812747753545 3.3805207814695546 28.887538512190744 2.9700620409304452 16.639331596106867 0.0 
5.53674868724203 2.293626190012656 38.235548657908566 2.970247618299542 14.28415812923868 0.0 
8.165427963879262 5.818613536265326 6.004082821018116 2.970360511148998 0.572144903117195 0.0 
7.903145489146704 3.91393581212534 17.123945543564673 2.970563667168353 17.27881782939999 0.0 
6.9537372682439145 2.8164221233482856 13.332229051266353 2.970693851767951 15.813535518681952 0.0 
8.139861179347335 5.939582587382553 28.4602942008138 2.970996765518265 0.6959292907274275 0.0 
8.065484053637187 6.200958534475525 31.91188797751488 2.9717457143196366 0.9679851085655926 0.0 
8.177747186938099 4.740233844316725 25.071895462299132 2.971794933050406 18.160038502768437 0.0 
2.30782585524822 5.670901352922304 13.585697453659797 2.9721283025700096 8.914895365466524 0.0 
5.43470496368961 8.216419864095485 18.429875071505222 2.9721646545425227 4.483841263012714 0.0 
2.451420404435634 6.2511803998448485 33.242306020008634 2.9722735314473834 8.316522346297013 0.0 
5.330888951994558 2.278553677214015 35.206533644630625 2.9725471016878995 14.08869714394083 0.0 
8.068752932637729 4.30621952961117 3.1861670821496375 2.9725560838344403 17.716718315134408 0.0 
4.563673067973342 8.142363242522748 19.67935395689394 2.972677208228609 5.36204587094808 0.0 
8.219516269946253 5.111281434649079 27.15234766567017 2.972754567374933 18.539598862381002 0.0 
4.985116205595295 8.210930695085654 30.137339868179268 2.972755288556165 4.934828647278778 0.0 
6.7144707122473815 2.662923985608611 18.386257402641476 2.9728163029809935 15.54036029160564 0.0 
7.516637580531647 3.326334348911317 25.207378093220512 2.9729001763693317 16.587159934431156 0.0 
8.199394269872982 4.875135046759851 13.356573895793844 2.973121304677515 18.304806745618908 0.0 
5.858264293257692 2.3397201388913675 9.70309503536835 2.973165706856374 14.623302716260675 0.0 
2.8656687180506353 3.4737991422081755 7.386795859541579 2.9732011619301355 11.24420707251565 0.0 
3.847853428766294 2.628021920240405 35.55836604955698 2.9733456001551946 12.551432466524215 0.0 
2.362836012659491 5.960888594836691 16.77221848677111 2.973395110654624 8.623354782534477 0.0 
2.9199299275162502 3.402201618026403 0.586251775047451 2.973816639120285 11.336381196990889 0.0 
6.385942067851676 7.998515486960454 25.946120012785755 2.9740043314656734 3.506004023896452 0.0 
6.464924403266638 7.964587392263862 30.108027859655124 2.974058845398104 3.42010334368576 0.0 
2.5422778200382243 6.480211249338792 7.55538411262404 2.974084585524875 8.07505636279486 0.0 
8.080304794278243 6.164060865820531 38.086283749576666 2.974244861294876 0.9290978398711616 0.0 
3.1697055570208708 3.1240653896509514 30.613788477281147 2.974428169744533 11.712825213446703 0.0 
7.308978147849093 3.102945404378529 17.507797138124808 2.974766284920441 16.292347832967756 0.0 
8.00820380980794 4.135444630545651 37.45158129152656 2.9748818342950294 17.549304798341293 0.0 
2.330339225292077 4.678557197961354 37.896179608168204 2.9750572961490755 9.921434393452508 0.0 
6.885486563302802 7.735306099309225 33.471285165091075 2.9751575934742753 2.9417590191855076 0.0 
7.08998635526577 2.911821090325276 21.10177307289446 2.97533702313064 16.004666020841317 0.0 
8.124307275924938 6.019059107150444 24.279620344352736 2.975414967147617 0.7778904058778267 0.0 
2.3018869591343165 4.846780380869225 7.856749371480248 2.975559873868156 9.752461029739749 0.0 
2.511567800220316 4.085854174316728 28.290671493491757 2.9756085791390614 10.54424707121838 0.0 
5.561770930228901 2.2907493282756555 2.503109709358867 2.9756286144337256 14.334663683525811 0.0 
3.7956673296582153 7.846322513121548 24.350078156989703 2.9758988739816497 6.194034719857761 0.0 
3.1123978114500837 3.179439450379979 22.018331689090857 2.975998001702311 11.639309221513223 0.0 
2.3220652776673525 5.784052563872317 22.325535992169534 2.976241569365591 8.81317782488081 0.0 
7.603674419169236 3.4280593129804586 5.541932573866113 2.976449418093456 16.740885097842195 0.0 
3.263606994119492 3.0332049529968774 20.45593934091817 2.976564706877473 11.85194257083657 0.0 
2.2953230962208657 5.612419419388342 28.35142726026433 2.9768210294331827 8.98863831392024 0.0 
4.74802163537778 2.31562903108253 24.415721048465883 2.9769976926048236 13.52438305767707 0.0 
3.57826878750436 7.713301411942982 34.27988081877156 2.977001695147728 6.45131902492507 0.0 
8.1002899684731 6.109774695071112 3.030755003185128 2.977140478825781 0.872197828986387 0.0 
7.969885931420798 4.0391487375044335 28.186152724904773 2.9772370177444527 17.459539362719152 0.0 
3.0394377022144816 7.244761995308295 31.904493722070086 2.9775260016189815 7.1682910914933196 0.0 
2.4169608670501184 6.166494803865984 12.7235617345914 2.977595246896187 8.422771101201992 0.0 
2.3834601744496116 4.444162203844984 39.64428610839102 2.9776542991385737 10.17059029386552 0.0 
7.661612279851973 3.5031585741664895 11.01361543996483 2.977806030509859 16.84338212252379 0.0 
3.010164901137742 3.2875556383032496 11.181915777231076 2.9779269874949366 11.498004960079502 0.0 
8.134824927671822 5.989568905522139 0.490110184473437 2.978116355908873 0.7473894798262002 0.0 
8.22496006534898 5.1058074336932044 21.282255400527355 2.978452431481718 18.56991960549677 0.0 
7.9504885525513735 3.9921148864037868 0.9992787988872749 2.9790792841863034 17.419483336963687 0.0 
3.0816584219657237 3.2071498861441547 39.07363871805364 2.9790840516361747 11.610086721846347 0.0 
7.130150022154366 2.9389793516308984 38.66419787824754 2.979224822499204 16.07393881805752 0.0 
2.9858919518384717 7.186471744379983 17.911929461433374 2.9792797905755437 7.25167060114677 0.0 
5.473890220268089 2.2790615844407025 13.994247022303718 2.9793626667087203 14.264017277508813 0.0 
7.78280882757422 6.818924941985822 39.97756893041782 2.9793700727877206 1.6523337469214283 0.0 
8.205883048996824 4.876408526587724 19.799256504475736 2.979398460822774 18.345535168120165 0.0 
7.751013611051624 6.869569856305837 21.867399148925173 2.9796099748322757 1.7122680784905313 0.0 
2.602721100313362 6.617558020256283 21.055791526737003 2.979647716004928 7.940049734154819 0.0 
3.2300445059424288 3.0594815602238743 28.381209655603044 2.9796965001443683 11.821879964985143 0.0 
2.464423285231783 6.308044721213786 8.600431010672487 2.979747684947041 8.279510464146206 0.0 
8.190244427890153 4.765228522077862 30.240533764705006 2.9799397110589183 18.236577875490838 0.0 
6.601205369879466 7.906121160772452 38.81185563666523 2.9800563035443304 3.278664019874533 0.0 
5.7364449481336965 8.190100796245163 31.84160122075005 2.9800707004442417 4.192452628247704 0.0 
3.991208122157012 2.5486246803097767 16.076840582263173 2.9802660299971446 12.744584088932253 0.0 
3.737789801142142 2.6818400930875548 3.809735423815681 2.980306191149201 12.458344573798108 0.0 
2.4348810154043203 4.271114838358308 16.9892591819994 2.9804548406431683 10.360772310253182 0.0 
2.441628123751947 6.248238522867277 34.25667121035107 2.9805088062002527 8.345633319573452 0.0 
3.4689194659327534 7.639835807652366 9.763011062750714 2.980530666906601 6.590744341238953 0.0 
3.0794175276753784 7.292608237825929 19.40945181589727 2.980549728220822 7.1132602042222395 0.0 
8.222903853994685 5.4637321836991575 32.70617187644314 2.980576919229774 0.213915780326694 0.0 
7.857378321279533 3.8058842572898044 9.493918919360802 2.980585846544585 17.219993140474525 0.0 
2.6985340418620964 6.790766218936543 30.128763857752404 2.9805937457078224 7.744562693520187 0.0 
2.460649736709467 6.300546437057628 31.567816594696367 2.980624549944767 8.290296502999894 0.0 
2.3131191047888215 4.740662556965631 33.85152827810455 2.9807203866738647 9.876058553731873 0.0 
7.729324316887579 3.5952650205693537 27.26551975061726 2.98080474376659 16.974686577932232 0.0 
5.336771193018082 2.2704238210195076 12.876134634990812 2.9808393861940594 14.13365812806726 0.0 
7.909829676740394 3.904299624929621 29.695865887999013 2.980872927303925 17.333183307883203 0.0 
3.710707250292355 7.802735396746069 12.271864007912264 2.980919350653894 6.299925234723357 0.0 
3.684071112666233 2.713501142512616 17.669656344041897 2.980932695352441 12.398604170563878 0.0 
7.685683537508828 6.968821565225454 15.124251057327783 2.981090717837281 1.8319702312991062 0.0 
4.580085871725656 2.3450899318218372 29.623687843838553 2.9811553873396868 13.372679404870134 0.0 
7.672297913984343 6.987957755526754 20.759496745539096 2.981278977903358 1.8554390913516627 0.0 
6.804490479627514 7.794272134412401 24.179466726889054 2.9815702817810603 3.048193291959482 0.0 
3.542722636249877 7.6944464502247865 37.84462584548414 2.98162949488868 6.501349328117392 0.0 
7.091738735997708 7.594908807386515 31.442816663721104 2.9817107315488016 2.6984748977938047 0.0 
7.847146035643167 6.714963105543484 6.31502237175458 2.981825687571395 1.5314020262716852 0.0 
2.2895420619577713 5.606582631816368 32.39489776849217 2.9818555257138684 9.01033738865047 0.0 
5.111563391647202 8.228672878126435 21.578481817432447 2.9818881282533454 4.8224253054737325 0.0 
2.963264542942211 3.336084840497099 37.415383092051556 2.981984287071329 11.446256544598029 0.0 
5.385980160336834 2.271017058085775 3.541084862433493 2.982084836523126 14.188771049955953 0.0 
7.7578471283373425 6.863838085279422 3.6086900286994066 2.9822425428875157 1.7052554263339275 0.0 
2.6057513847072347 6.629133702806678 22.857039200404706 2.9822911510607018 7.935418571595701 0.0 
5.828815818387486 8.176335020975483 2.35447515854451 2.9830294008948637 4.103220779888133 0.0 
6.021691614332859 8.13155661860269 13.597402399381387 2.9830984720328346 3.905271640835899 0.0 
7.8719753441756914 3.8269990658187467 34.721237101871324 2.983234212083582 17.26083740987627 0.0 
7.0430148618483805 7.634443392343522 22.035314707981485 2.983365982594133 2.7627151541514188 0.0 
7.202937390525751 2.9945670198105923 15.999336270279983 2.9834447170074387 16.188263659518014 0.0 
8.231260278521244 5.132087590328846 39.88844542400206 2.983591155745545 18.628512987488026 0.0 
7.5847962643687925 3.392276900402944 21.86917720767935 2.9836904515862486 16.741759547536812 0.0 
6.220209590846702 8.072042826897693 3.8290067137870594 2.9841635958867343 3.6993431764478863 0.0 
6.211131414368733 8.075167532038988 8.762500994243979 2.9841824977326215 3.708967513259701 0.0 
7.178324341347626 7.527657128150553 14.354275816962947 2.9843184747692004 2.591176758126947 0.0 
2.277268590341613 5.514708738586631 30.8933487415132 2.984493717576511 9.111006498684603 0.0 
8.147532546635635 4.533907922425978 33.9735328421406 2.9847081469344805 18.03032808190359 0.0 
