254

3.748409696324226 3.7378388178836937 17.351638242956007 0.01226472242846044 0.05620134879621119 0.0 
3.735123132839316 3.7132915750255826 5.459929461671109 0.03960845415588721 0.1713995152714034 0.0 
3.773223166959858 3.7847111158720335 3.956161255421776 0.04176334575590368 0.040976173920894254 0.0 
3.7129170927996604 3.725794603760141 36.76961721471963 0.04428366757121194 0.16473036096000904 0.0 
3.7811894675431157 3.7146809132015495 33.66512333428652 0.047119218774291705 0.25612948106356104 0.0 
3.7051070981567147 3.778037474371571 16.345772191365093 0.05292893920198383 0.13673255703441 0.0 
3.8054029694191227 3.7410185369395057 27.611266880692405 0.05612624786286058 0.34363137260859844 0.0 
3.707689662653367 3.708664509874448 38.29862297754559 0.05915054852074886 0.23159432417657833 0.0 
3.7878876833647723 3.7029682552975327 35.25274134785699 0.06039421793936417 0.3255563112143811 0.0 
3.7303930127693974 3.6911175397693947 29.11720914875113 0.062061083386207416 0.27250722501978686 0.0 
3.775998940721143 3.68815985392056 39.84061152664715 0.06708314680862881 0.34282006343194205 0.0 
3.7723315059662887 3.6864686719692106 8.55399224261955 0.06734185771181396 0.3401035133270349 0.0 
3.8027754098683593 3.7927754446066686 26.086695881935114 0.06793366284892621 0.04627109994690137 0.0 
3.778678280958502 3.687383936223684 14.783569994250293 0.06887100436014015 0.35412626028751415 0.0 
3.784778378258011 3.686505227816456 1.3406064139352623 0.07239559163994368 0.3774338670460944 0.0 
3.7131744180610253 3.820578252180435 6.97931832416505 0.07960787125648605 0.1633320670720222 0.0 
3.8172620614093624 3.793960674461818 23.487417482202346 0.0803537541386501 0.046515419943846226 0.0 
3.835276959782399 3.7548687994416983 21.948159984196813 0.0854158362233377 0.004871439863816995 0.0 
3.662198653009667 3.757153252478613 13.105676573349708 0.08809225592718017 0.2695888470517094 0.0 
3.7359485227845983 3.845635543804457 32.112624107062146 0.09666230522136776 0.16593823584934064 0.0 
3.759784872824401 3.8466580849115104 20.397660431760144 0.09715209269465319 0.1428046587106504 0.0 
3.6769695719661053 3.6852888313416727 11.575448272559576 0.09757550290897887 0.3772919298315571 0.0 
3.661977769294631 3.691251467585291 10.050490615731114 0.10582676012819947 0.39474676769805317 0.0 
3.638256195242673 3.799844282053607 2.3620270439680553 0.12235657054316018 0.3330571852838027 0.0 
3.830137477658865 3.640715603914036 24.56897864731185 0.13551787540173033 0.7243581619633428 0.0 
3.7486830794720634 3.6112431497754374 30.620515887698005 0.1387630994317972 0.6525887603489284 0.0 
3.84967107662684 3.8687555698539704 18.888267951314624 0.15503937850525107 0.1352795157517983 0.0 
5.074827307286736 3.7591711511518913 15.573008188115423 1.3248590506714564 0.009171224398970779 0.32373339921267397 
2.48600855529088 4.235132538256602 31.31694743257807 1.353893626535387 3.7572181195745884 0.25149401312456066 
2.47745710913179 3.260729531901939 22.703206018060634 1.3633601872037036 4.78355470142564 0.428730567674002 
3.5284349246888116 5.115583062764792 29.879623601920947 1.3834407048759712 2.3956269333262687 0.504265461379398 
3.632447594744572 5.128495724975979 10.955634256203012 1.3834988369197787 2.2908892023027807 0.44271343727353196 
5.01583065112026 4.328783316369696 9.244806887039807 1.391875484597471 0.5969128298200337 0.4462973704963328 
4.432276457744716 2.534766020481671 10.918550171891773 1.393662365771793 7.280450435054355 0.4134354921235893 
2.7127675134339277 4.682573424340301 14.012195504510231 1.3948277395341098 3.360525332399053 0.3672754213417151 
2.4265497105496054 4.194473790031921 28.272857879940602 1.3960936998180582 3.93361065392733 0.17023354159349716 
5.137509116566211 3.9092876246941497 38.919731173812515 1.3966223884554667 0.15963499392777347 0.3101922331989834 
2.3595508095627364 3.5989149811476313 18.53666558188864 1.3986334881266296 4.545317100046031 0.49513146054697516 
3.169493997429635 2.4754719676619423 22.36334014551735 1.4005030968319012 6.001152482753442 0.5140709065760974 
5.135753445093394 3.965634008249147 3.2022491320537867 1.4024302606909935 0.21649282247925594 0.6351151120297248 
2.4556175397682667 3.2064061966379107 26.68082848395553 1.4038946457655639 4.968649737493269 0.30565798758426016 
4.824257713363914 2.835664442475103 19.667805433365032 1.4106874729989747 7.868862952005983 0.47401130321493384 
4.379741391796278 2.484019874973253 14.03300588271292 1.413958944773238 7.315797532566046 0.5646207161433381 
4.548496503903425 2.5808842536164507 32.988896817797794 1.4157783354706186 7.52006042423864 0.35514381153774516 
3.851358216587645 5.1633977224963346 33.09628783905943 1.4170273850662332 2.1244165643169133 0.5552268313176277 
5.018665560222002 4.388257981189602 14.17112339295062 1.4201709595135468 0.6619696799016133 0.5532872888481869 
2.7720039030285175 2.7202227476669574 36.03818226474752 1.420182226023845 5.613661423658774 0.4636712120801184 
2.6969819782224924 4.7042298777425575 10.776408308055963 1.4210565132199324 3.4181674555531494 0.5435497216868117 
4.8267973596822245 4.681902392272821 30.84754175414035 1.4240556950282603 1.0159059155661065 0.5837409133639301 
2.3987888461844316 3.2990840521935247 6.430912727845417 1.424463679488463 4.933892553309652 0.4569681657570708 
3.9167077164363047 2.333817261875552 19.869701663559482 1.4259610830878473 6.886773118060421 0.5857267691967594 
3.1642633445755646 2.4496390983137823 28.395763856102242 1.4261928004803552 6.117180341150751 0.5662175969311896 
3.6461630336628907 2.3273129551449134 31.40947028135959 1.426471360797894 6.618159033810897 0.4789085951590478 
3.5300310801498025 2.3392569574318003 37.50208172379875 1.4277892904258116 6.507450000267787 0.47958274909209436 
2.6647066902858496 2.8218099707991 14.20818557963889 1.428075032488932 5.496836401409123 0.3437734146830689 
3.8117937173538694 5.17806262540906 19.680809421324582 1.4293989385733523 2.1834816211554093 0.5096504281020295 
3.8321404226867424 2.3227883896782906 36.031226538525836 1.429573373309759 6.818891497693172 0.6687064682135864 
2.3332416137542022 3.5547986457750103 7.92141658224822 1.4301426130596442 4.688738111146705 0.3716936924418348 
3.5776323750849564 5.171356109749009 15.158721516381455 1.4317694607860894 2.4218049345050723 0.3969738655567392 
3.3264735332089126 2.3819780632207603 34.60824317551127 1.4320819416436212 6.318570415951527 0.7033946412167875 
3.6925939234454948 2.3190474726541686 29.85195103996572 1.4321035553139319 6.691207551623331 0.46684978838822844 
5.119815140934965 3.319431621932554 9.487185427167596 1.435890890188496 8.584671625289484 0.30126981082010745 
2.317120967734536 3.6484853046553365 29.750030083508722 1.4364705198774292 4.614404615303801 0.5267435773608125 
5.11005327398484 3.2843085882584875 11.082664777341023 1.4375720500366884 8.558284793446155 0.43289619028246595 
4.56716196346962 2.565177824385912 25.361329363399534 1.4392905413322308 7.6515031720692335 0.5010162369974219 
4.26479777800311 2.4025139620388005 16.869729632420736 1.4424754329753102 7.3239095139241375 0.594375436772238 
5.158607301154922 3.4294414619272064 25.500749571229917 1.444621855434258 8.753577576229786 0.16746313644589486 
4.938112236861723 2.9277566738091103 4.9884221855094 1.4448857307226843 8.203785248840006 0.7971828240435066 
2.4959696026784277 4.471220245568579 34.366629363565615 1.4466343283720673 3.789699960774053 0.6678202809092065 
5.10427065217507 4.259002607439698 10.776000065141055 1.4467662747393244 0.5201351267834315 0.45190196209013284 
2.4810261136594915 4.447760355234969 19.81630940957689 1.448158913086462 3.8214821098910825 0.5638049199416417 
3.40295187132915 2.3438452694447927 13.657034486107932 1.4483485526200957 6.474723750783134 0.6205217934714808 
4.389072116534866 2.4497468358129755 2.8136044214825304 1.4488172628426002 7.4892436724789295 0.4774340808516086 
2.9247060708340866 2.5586898805713565 21.309522937985406 1.4492514861718113 5.951405613051371 0.6743003084992133 
5.097824882789792 4.285064372439137 0.6777973313227079 1.4501468192293514 0.5480153113097579 0.5397581951716572 
3.452377987643305 2.329360014662549 25.333489469504478 1.451480909340128 6.540194601792131 0.6679958500175087 
2.590172787872671 2.8762969769275735 34.101633425966405 1.4520868205851007 5.49935086049523 0.4334423247952759 
3.602694539306328 2.3039023261206255 3.503386548546519 1.4535808822179495 6.702279767029237 0.503077227116142 
2.7190421583672757 4.774996599046747 15.677628382354754 1.4537854378419817 3.4296164795282795 0.6400364912093814 
2.398596104643956 3.2129005988583224 4.9104549676592555 1.454224279501012 5.118707390560862 0.5549793448440338 
2.694550005027587 4.751086099128065 12.402811669203643 1.454698618186844 3.465998423804388 0.6823259949795508 
4.948556801060669 2.925242036201034 22.771114253940333 1.454910342329934 8.264579031406791 0.7854327544852115 
5.200958742976675 3.63656794807307 35.86506722078657 1.4553858952954024 9.030912064856357 0.5611655819317352 
3.0910001132728926 5.048201974583729 28.434814229258045 1.4558877764166558 2.970775957321081 0.6710903780038022 
5.107683724035411 3.2235401544707587 18.135207106603573 1.4561816725482213 8.610798546684915 0.3066985274822782 
5.137124559201654 4.1949297817739355 34.15485917470617 1.4567350663211835 0.4521551113918747 0.584917078239996 
2.7129155883940435 2.7268737700199814 29.81224073946992 1.4568223499346784 5.711057989787719 0.39463260755014523 
3.393893106301113 5.16329827411354 16.969092563199396 1.4574718286650286 2.6491401484456674 0.5195921333086452 
4.426124547589869 5.041367961744088 0.7687478958127443 1.4576610087646182 1.5866190628269532 0.5209768612088391 
4.337225351577136 5.084146472823159 26.97843111115663 1.457662657984132 1.6852960662815155 0.7125155730369235 
3.2529896478919964 5.120768784449849 7.857256115386448 1.4580899665400064 2.797538201459771 0.7389335378938798 
3.197633013710205 5.099686639411216 37.0983267084932 1.458342659373308 2.8572669344544543 0.65820708928177 
2.425318234290457 4.3617672204802105 17.84527638355651 1.4591233369586805 3.9526938171406325 0.47545455375090373 
3.351639458116095 5.154370352313466 39.36714461835819 1.4597764239043887 2.6964897175754814 0.7539797847331547 
2.327552278236772 3.4212634236670176 21.196924301228222 1.4599401555435518 4.91811714551042 0.5998166834752898 
5.095690948022316 4.317896634537213 2.1943587990212947 1.460613129856051 0.583275952330407 0.43947393322053446 
2.6014464102192463 4.653003180126242 29.82172691091811 1.461023645228359 3.616497548524923 0.6676062230954312 
4.536938367787446 2.5189992869135667 9.323866216174288 1.4610389284051515 7.716012677329444 0.4659391936583158 
4.151541149224251 5.15530130480009 31.487586205561 1.4615426958502329 1.8890135927669274 0.8440843946560611 
5.207889115432266 3.873692494317045 4.738049530029528 1.4631269616975293 0.12384030820086878 0.4737752428001001 
2.368708050511313 3.2674281845326307 39.015695312303386 1.4631619892567354 5.088437813271156 0.5152008126995764 
3.580306714153412 2.296657610898908 33.06480059290467 1.4632156065390627 6.725165106129234 0.43127563287800286 
5.212980491120987 3.781944102509182 19.524995590443453 1.4633291984668795 0.03194664014848847 0.6629002258613066 
5.1552616740095125 3.33814651779531 0.3253342681251752 1.4643714225715228 8.783430948404181 0.5248642643043668 
2.288665925970019 3.845709557678272 15.386108980251038 1.4644649519029238 4.504974512496322 0.7408968269059663 
5.195505215690357 3.9850918034828737 31.53582546170518 1.464497690217658 0.23611337476426542 0.4662794043579865 
2.3697428695604943 4.239819563927146 0.2577998557889316 1.464593100944722 4.101711529529771 0.5667661602385022 
2.4212677138117975 3.1337399106044446 28.326631783170214 1.4646863098086038 5.237512502684956 0.6778715737378476 
4.81883016050557 4.751704503892228 22.75258678408207 1.4648582952368951 1.1030236980702153 0.7092104923722617 
3.949565358359937 5.201646538740632 22.51097872435261 1.4652999712328476 2.1015002951734782 0.6601582559124145 
2.556169848611561 4.599814970501904 9.265548129973673 1.465406399076138 3.697169208090701 0.6842382572977882 
3.3911912270397604 5.1709085919226565 9.408887532906448 1.4655118430612786 2.6645144419325852 0.5936014452784962 
2.630457669097794 2.804290454199019 17.90469733376377 1.4655175112229275 5.632010891896947 0.4788026409899949 
5.212705490302611 3.653949780149383 6.410634663728146 1.4658557214455852 9.114124046063438 0.9621331659899949 
2.9949379184312264 5.006431396338315 22.756831029301104 1.465857633171659 3.095773608479016 0.6093982022221576 
5.194236415957267 3.4983506840719825 30.000960598675256 1.4659966587220221 8.958226807679274 0.5213281682392324 
4.081914314439306 2.321090341868027 22.756150846332936 1.466952597472919 7.247664879932657 0.7639544846817039 
2.8948778254182326 4.943152789357998 24.316980205936282 1.4679398871255647 3.2186591073921846 0.6937840308862097 
2.3188911116752964 4.07753412243587 27.159107757685007 1.4681114574860465 4.281894257028856 0.6381589283058847 
3.7485476096502914 5.218236164315553 25.54708928851116 1.4682368826731536 2.307753492754358 0.7159139133551434 
5.038139837199317 3.045176501811074 28.475051186767743 1.4683597664670456 8.490822951040151 0.6682575015885445 
4.651653877447348 4.908979183157721 36.61888202397044 1.4684047336169865 1.3357077468376897 0.797459984830334 
4.6765716126422765 2.6105310346033512 29.972436965876803 1.4686471585975367 7.923503430423434 0.7601546994049904 
4.421123426492483 2.443189354995112 21.290370446555855 1.4690679751070412 7.619797452809326 0.3836151790940789 
3.274535648307097 5.140105510291307 34.50994642352398 1.4691697245291317 2.791947825999138 0.7843753996241389 
4.539014191528668 2.509574419546606 37.40801088557115 1.4701017022902803 7.760547441966411 0.6306461054568145 
2.3170462939259053 4.079983268725924 4.41846399427704 1.4704575075093216 4.2867609059131375 0.6641085703561064 
5.21784091447531 3.8381195265502788 16.56308306811527 1.4704835943209815 0.08817235253417621 0.4407078461393689 
2.446063670084114 4.431090372419236 3.486873924794601 1.4710996050154737 3.9134748418957495 0.5997325235679959 
4.951379645657636 2.900258693331641 38.82586698213671 1.4715207580115601 8.339952428755655 0.835232233174402 
2.360506423706222 4.234739445103413 23.036742672593526 1.471619763458223 4.129266937111054 0.6343903695926317 
2.2783075732167797 3.715850846502013 13.885837618800757 1.472088571973749 4.658854860200645 0.548023875791944 
2.612861753651952 2.814459252287411 10.773882385320086 1.4725216066116462 5.63980426762533 0.48958273725055196 
4.430965819005823 5.055719513329094 9.623856370990936 1.4726227942493058 1.6052723909394029 0.6918740575423147 
4.696064528864534 2.6212487112174854 6.495445140906 1.4727924377534871 7.967754075833505 0.796088398239613 
3.540783558917834 2.291847938766656 0.4500691365882048 1.4730848423964369 6.731822510291596 0.4913028868040102 
2.693008996835202 2.723846224682646 3.5025819939895584 1.473167183781048 5.763307993386286 0.6348305899229151 
5.086803247107252 4.369250171430976 26.76610779872309 1.4732663358313 0.6391074919133617 0.6721069868756737 
2.3246752198306497 4.124434713500913 24.05813546359088 1.4736865622103357 4.251137705218543 0.7167323434665602 
5.012165892246783 2.9889247982369485 3.388822165120203 1.4738718405240623 8.460863199683153 0.6990972765049067 
3.5762769649906003 5.213744225516238 12.649304644778475 1.4740172490934436 2.4895086260577948 0.682768892669514 
3.1053751631408524 5.075774475820185 31.372645750676995 1.4741842289998799 2.9828104426066204 0.7563496020671318 
4.1787775483481155 5.160843492124871 3.1382946738643795 1.4745607974032557 1.8811723975724775 0.9082472669983274 
3.0650482317341385 2.4433018929140404 23.86264176923924 1.4753368659098036 6.240056721958931 0.6832418798378685 
3.7975369559001786 2.2753373343516223 15.423083726724599 1.475428663010664 7.0003389571011905 0.8394736946969327 
3.0465919001675648 5.04790028527365 21.08993571287826 1.4762547562745727 3.0520750564267782 0.5880701120521454 
4.627872042744823 2.562743833565401 26.923548548894978 1.4765624023961699 7.898249793642646 0.7728501229472475 
4.373808675987231 5.089106443449729 15.77341358725922 1.4772756449375057 1.6764842344015944 0.8733081803771 
2.6533241500363722 2.759406785215168 0.4616704554138167 1.4778270660233541 5.72836931936376 0.6392711055002427 
5.18644563129436 3.402325856894249 27.012831400011674 1.4779219740733853 8.93509416406853 0.4338230094357008 
2.4156072023240505 4.385602277449999 21.50620988020859 1.4780373451266615 3.986363147225866 0.6242250731337382 
5.054840149808607 3.053734578197213 7.934834345654437 1.478983892458184 8.567781449797312 0.5012213165003035 
4.556421971166035 2.510205491642645 0.4756487410930319 1.4789884443539008 7.822486927745416 0.6650820515656628 
3.19454025795899 5.120740163615565 36.06814256325238 1.4790078164692353 2.8926432805355393 0.686706772145912 
3.2710964735538735 2.3504350906138995 17.00326270263929 1.4792330861725147 6.483031013459657 0.6585515716342188 
4.807131474217624 2.7152615934513182 15.464155774866107 1.4792601271474985 8.148491901738566 0.6400317126653388 
2.964659767318218 2.4954045607111723 19.471285408926676 1.4801246560182029 6.147093566631913 0.7485643984973186 
2.2710528507645016 3.8103405067723726 10.947418456066984 1.4801775727896138 4.589757756649121 0.6176744662481619 
5.169184707356326 3.3279102347023386 37.35905128997364 1.4806231808137738 8.875003185301592 0.4911480192909522 
5.074249093524039 4.412327823861167 29.348377332578984 1.4806464155766268 0.6866799869229592 0.6046229444038357 
4.969459260152266 4.590113036810385 6.105898062911201 1.4808344950702208 0.8933174225084031 0.7344851159803483 
4.885359253046801 4.70132663459598 13.203975125588258 1.481236982785233 1.033062115613678 0.8821167057832211 
2.350061056721106 4.234163742541961 25.578450226739477 1.4812979357648022 4.1604074406105305 0.6488816932315362 
2.3782062391459924 4.309507707473018 6.052024369949265 1.4815083519979542 4.0805538507333665 0.6350841847707853 
4.985026162638051 4.5683617755652195 28.325762940250463 1.4815551350208755 0.8670071727355069 0.7053573067395467 
2.3497241846346153 3.264312806550368 20.08207869683619 1.4821148433836604 5.151030051262762 0.5488963457581594 
2.5057352427269217 2.9441876764899515 15.80469920355371 1.4824062489454417 5.509057209718337 0.526146223332276 
5.224746962243828 3.900740453043915 24.0584945097943 1.4824308708439946 0.1510014394003143 0.554353770296225 
2.597128240192446 2.8171360691067235 37.56054967112394 1.4830200295759397 5.667950272975396 0.4063773282072607 
3.140389112575189 5.102191468815893 2.980196702179768 1.4832556092613796 2.9581185828865006 0.7125217381269645 
3.2994624543697553 2.336222483171772 12.128537283104038 1.4838298241751027 6.534619079866626 0.49039343233096894 
3.111157208594016 2.4102663830137194 4.936560907697807 1.4842527670900707 6.333956478286986 0.7230217965128554 
2.2819467191748224 3.527919001491391 2.9583742137893125 1.4847560086560174 4.887416098092308 0.5359046197080874 
3.6070200899352747 2.272053000023228 26.910669949567133 1.4848469919228908 6.853974806813219 0.7582246063936935 
3.0575007105202348 2.4359295016301115 39.02282049398377 1.485374208950751 6.2792484402327515 0.6869110064221319 
5.145132905319678 4.260174839084254 18.05624474675861 1.4854878626028467 0.5207770602324011 0.558799229605727 
4.288993366103456 5.134632529399042 8.066913005638074 1.4858401967148163 1.7823776858817837 0.8281547190144865 
4.533546501207179 5.0124916825668375 29.945535186799987 1.4858769693700944 1.5086733848751805 0.7177528301819813 
2.2683053720733435 3.636688321702887 9.428107215128126 1.4860210317708231 4.781894528272423 0.5627639116565589 
3.991521900086716 5.216293627586318 6.435004337272019 1.4860517590318774 2.0916866163852506 0.7549246036657741 
2.267181713103776 3.8491413069291767 12.191676099502274 1.486128887645173 4.569596605173587 0.6434017594609669 
2.8514377756562004 4.934103230823037 32.85151984878 1.4864435852945197 3.2998161045606107 0.6780811099019313 
2.411578750841209 4.397087638444169 35.87247592215017 1.4866384402493527 4.0009240288107435 0.5815875328620138 
2.679190164473914 2.718397715877444 9.26007263095567 1.4868883537328148 5.8112713788622585 0.5927075721188283 
4.346339812371595 2.38790654412478 12.457139218104853 1.4869161894193932 7.620535610465366 0.4046874337563481 
5.168412749843583 3.3038253772219512 14.127728790208234 1.4869319160371706 8.889511897391177 0.44065279466687873 
4.463255767701694 5.054860933658809 18.138958080744228 1.4870762745564436 1.591998644475666 0.7760622226936786 
5.012065200961516 2.9634890120895925 31.4476838329354 1.4870803964755355 8.51485284183747 0.5806653432103702 
4.841174755643122 4.761932638265597 33.37943932894895 1.488176740760317 1.112765392760977 0.7727380385647414 
3.4983184150071 2.2832451124744946 10.553217348375693 1.4881913587655642 6.76003952985689 0.5145246340344042 
2.3781538718686424 3.1730592402738678 31.21035850336306 1.488227952802381 5.267872767331074 0.5212590372193558 
4.127513524534252 2.310374845438651 38.95626542307289 1.4883000526950407 7.3951324279542945 0.584067013253939 
2.261097934655557 3.7757361766691657 33.66217610915902 1.4891244779992345 4.652485062316114 0.6964050530006992 
3.371387125501018 5.1904059902258775 4.463599530451312 1.489334457203946 2.7222553677543946 0.5925712106681509 
4.792593194446117 2.686258060270812 35.92545758846295 1.4894789301779925 8.17388344081226 0.6491638304713019 
3.7449102690056284 2.2598671223583544 7.9870912157170295 1.4901415699154787 7.017036972391995 0.7705798181583282 
2.7975207812352823 2.603890895808025 7.70096651373229 1.4902290900698392 5.989226318314444 0.7239195176895828 
5.236895209323941 3.8609050755425587 22.488163818037606 1.4910255863973587 0.11100759736161425 0.5059870608341352 
2.844255841267829 4.9343984980406965 26.871085046528677 1.491030611100426 3.315541690501071 0.6645282326300317 
5.090750525209543 3.09748364329789 12.633835815202069 1.4911034728057804 8.693506668450286 0.5490517722805349 
2.4937260829647983 4.55324242822551 7.5356537558771635 1.4911145338720908 3.8362142653247453 0.5231189806262542 
2.2754684342753624 3.9734523487801496 16.9226889334278 1.4913665848790225 4.460969342802411 0.7211009126197809 
5.096102686165039 4.3924220488648515 32.48437260754912 1.4915423328113915 0.664152822143568 0.5662648550575082 
2.743041572132694 2.64962973726832 32.58254844158165 1.4915696398617067 5.923454028079373 0.7623266803650576 
4.547108911389279 5.011681485654991 21.140528287590982 1.49238828320943 1.503333776641398 0.6844596721042707 
5.132694830148868 3.188316511995172 34.424095593774425 1.4924253194105492 8.801317391306469 0.6281533840443347 
4.772016603559329 4.837761697764524 34.89758479651138 1.492562711940275 1.2187523346636127 0.7618849239754241 
2.9359168350246057 5.001128819192317 18.46110264679794 1.4926669828564962 3.205724276596545 0.7205535569922088 
3.718804270381229 5.242391159552996 5.472822644970883 1.4927171690103866 2.3759526468916903 0.6855997658543227 
5.190393729474048 3.3578053285450498 32.90866150361604 1.4928331307369265 8.98289474455214 0.6870987330019789 
4.593224370128474 4.982056714205035 11.295605616242945 1.4929806044943346 1.4491085332625069 0.8154822296929027 
3.510256804685487 5.2236909598821075 13.653892281504326 1.4930645816366617 2.586085916659334 0.5904478973732625 
5.20573582621699 4.084065893154888 12.393820506211533 1.4935751794606897 0.3369159550344172 0.6787348136204236 
4.78143519233067 4.830934015435339 19.663328874718843 1.4940806208847535 1.2084523312822668 0.7415683769550929 
5.181929390578927 4.177356562284102 37.91889007825449 1.4943411293714102 0.43340734055756336 0.6856599721741746 
3.030499589064844 5.060254629356741 6.197246642821256 1.4948070226911006 3.0986923769416244 0.5151419417154038 
4.250879863643527 2.3412796094009085 28.375338825089983 1.4951166431731053 7.556327615028767 0.36624562863461074 
3.9162793524037838 5.235994885838857 24.048176085840197 1.495269080725961 2.1821391972935054 0.5599520227609699 
2.390795314420526 3.1264954614521736 24.3284946566037 1.495391349075865 5.341060278965021 0.4566640780712883 
2.763837246244302 4.874349275862853 38.00749181301571 1.4955528312394533 3.4260310620237533 0.6646672003361072 
4.098211529589465 5.204462429419676 28.483684065161903 1.4955641838224212 1.9977898112745889 0.6665126365936962 
2.3309131729263637 4.222485357736491 38.64825643603822 1.495677049382419 4.218088800307143 0.547910774403168 
2.43483228271288 3.037098860404466 1.424589590707555 1.4959592773303771 5.442778922904196 0.472752010681903 
4.543351600003454 5.018391585844753 37.80126286885031 1.4960695091705511 1.5138024708197682 0.6760034410447137 
4.097341120287224 5.205266835250341 38.70001386707782 1.4961441827651254 1.9995983576035243 0.6922341833865667 
2.6476494965579738 2.7383017693601825 25.795422414580727 1.4962319146170582 5.8115685273494275 0.4852839942204122 
2.267980801365672 3.543357625912483 32.66037999931505 1.4963562329503162 4.908246629803405 0.6038670943688994 
3.8888472328530206 5.240001175656596 1.6167249813080744 1.4964565003798078 2.2115811457163765 0.5515245653893106 
2.508482024428722 2.9132623290113235 12.542266185947874 1.4971629215680429 5.591349324047809 0.33215839792911034 
5.056414371621411 3.018602295504955 17.14026280521466 1.4972177906101651 8.643154192108964 0.6233466166773635 
4.020450638168295 2.2773672259030366 1.8902964060249658 1.4972611111727157 7.327620099348007 0.5905464588752706 
2.253532243654134 3.6974376937812146 37.19604013195744 1.497390577577496 4.756764344762298 0.5749128677245621 
3.582333732389019 2.2615483473855225 6.449765988423003 1.4978652474322804 6.890505290514582 0.5893137389087928 
4.518318484096386 5.035935739730722 14.778565702481366 1.4979799797463809 1.5462646743623845 0.6178517919548339 
4.830254864442607 4.787822383074118 16.645652306416174 1.4980073000361358 1.146525880337908 0.6990234522466425 
5.125641276824109 3.156917770932033 21.131992438192135 1.4980438755051506 8.802704668502017 0.5292773631895973 
2.4986061052845496 4.5736351380404985 1.724894382011911 1.498119327806065 3.8344252405268247 0.4877132062673486 
3.9356384305447616 5.236680738207545 35.30330329103018 1.4982260324305048 2.1672912014432173 0.6045627813678438 
4.450890771292071 2.4256439244445005 34.48461616195602 1.4983880966369014 7.7903404172706265 0.40207488564128346 
5.179152824635839 4.200309937119266 20.98501707930337 1.498418111086807 0.45737944554798915 0.5878757902379718 
5.180500022181694 3.303670443183237 1.840658280952539 1.4985127249209715 8.962226065131853 0.3982127803084518 
5.018779164743775 4.547542515963805 7.6119577478721965 1.4986242469871445 0.8409935710994905 0.6373345919305338 
4.722954816301454 4.8898575194858145 25.3298209670493 1.4986381281992482 1.2951679916694445 0.8101959460631689 
3.5473847521026682 2.2649684159814107 8.994609896107157 1.4987900934464635 6.859644401482328 0.6989698857744547 
4.979028155103754 2.8921659920647915 23.897249317941338 1.4987959805150006 8.503895628542523 0.5049982891224172 
4.811406921256885 4.808405130589741 39.29338032252011 1.4989349795607225 1.1751381927533622 0.7186465754479234 
4.8317344864108565 4.787666484426178 4.52711224839269 1.4989667214424554 1.1461226821953012 0.705891522522056 
4.104078108452019 2.2933995782345633 5.02405566333568 1.4990183773297134 7.421413859264351 0.5497240839835661 
4.8052159685549105 4.814709333179608 24.284723101330925 1.4990285869365678 1.1840471439988018 0.708945415504596 
4.145602554893418 2.3039909941568464 23.925429374633325 1.4991475665916634 7.4649104786685205 0.5080504299327 
2.9853801063867067 5.039723390197083 0.34566873920237384 1.499343191177611 3.1575359785489256 0.5949195664452649 
3.9534537623089197 2.264413592239971 18.36212258563024 1.4994533698381558 7.270090809153225 0.6952548322588866 
2.28124153205665 3.447360415840601 35.50430953991686 1.4996140020203437 5.0159088202580255 0.4848463027666378 
3.028674325537615 2.435136082122275 2.0137948261475955 1.4997259253528212 6.314785468852354 0.0 
