56

3.9080299419526314 3.8408345245037854 24.63831579142962 0.18227554250469513 0.09508928544660122 0.0 
3.863974123162497 3.961755281547835 34.245575001437516 0.240479520986846 0.25900378436739313 0.0 
3.8358019041851303 4.205040371201245 18.152369741387176 0.4630590741846665 0.6410708607965301 0.0 
3.983562403002062 4.356568357960243 0.9848590546576901 0.6499819758844729 0.7820838342601357 0.0 
3.2652120324132907 4.2674150465914895 39.01269238503015 0.7090399875579136 1.6475612102942279 0.0 
3.2273394668805073 4.400100743521944 10.194044967469388 0.8341492729772872 1.8751278757039174 0.0 
4.622984164532654 3.840600089656406 28.49077696597881 0.8776729047717755 0.0907617710456119 0.0 
3.726521385322349 2.7960175135106153 13.310254336897529 0.9542713607122721 4.473416860426901 0.0 
3.1048836774163986 3.0256666432831993 39.96867252107073 0.9699659176055715 3.865093334900302 0.0 
2.8656488511793814 3.330997020125287 22.441640346257074 0.9785910543042158 3.507328121088295 0.0 
3.0351940514609614 3.0644504683248046 9.1410698355849 0.9904169346527116 3.8686692920285966 0.0 
4.574156625400883 4.302357763818551 14.151168840974478 0.9921356975952442 0.5858079738216606 0.0 
3.2361035448808106 4.605649906972423 11.94187003236842 0.9981113815030789 2.107662875361389 0.0 
3.5327493349827774 4.755565222626715 16.46805652371377 1.0287658958221455 1.834880373121301 0.0 
4.691817931082103 3.3306474293465387 15.489742543735197 1.0309595500413404 6.04583679824752 0.0 
4.214314796433472 2.770820845917714 21.090711823752066 1.083688168236766 5.586601519336921 0.476304606710227 
4.328092529276576 2.8232557357174892 1.2332720590819974 1.0922664069657746 5.756371453474013 0.28640500433056676 
4.834731889869646 3.5145868257928186 35.79350439594121 1.1099831690122481 6.737015202827508 1.0 
4.142514569145037 4.790853606276214 30.477489210991656 1.1124045652051746 1.3462081290089962 0.12857389653833837 
2.901069877539083 4.490030528192292 20.578907426329508 1.126200486360253 2.7306111489518807 0.8964025765385816 
4.508240206501599 2.897518160173643 2.8336935541456185 1.140900301511625 6.205750162641789 0.7395791279268084 
4.775287167970109 4.261680784756448 26.384299898707873 1.1458756487041433 0.5304213508433229 0.7174347230272521 
4.1550951719856455 4.82534919418361 3.7355062860698816 1.1491205279679844 1.3910414424398905 0.2205559516808043 
2.58674672393781 3.5789502130617334 28.169627810298707 1.1757619716086434 3.865424140600715 0.9345527026394089 
2.599480600866543 3.475136705440434 36.508820043781824 1.182896748866337 3.993578596234788 0.44241481936100285 
4.583403757378315 4.615156109141585 5.905081441068212 1.201273039736303 0.9659312498216313 0.4271543788392408 
3.7545878394470913 2.5323179782269296 29.04658309213687 1.2176906645039798 5.742819919227267 0.3568328946504464 
2.8643562300802454 4.59724628933736 5.473142546825304 1.2256390830883297 2.9149973946118415 0.8160222652104929 
2.814686736512731 4.545835281360182 35.2011992094947 1.228073571050549 2.9923123336589255 0.6822834318763142 
3.673230526329732 2.5180559147032566 31.537778607689965 1.2343337398715302 5.739841660242689 0.47057946929200584 
4.984212742822581 3.63909323188893 11.836065433348175 1.239185783391046 7.6749785384914615 0.0 
3.676997238690613 2.5036096570748674 38.15732525363507 1.248526447495537 5.810497849586355 0.4364156538655148 
4.962881148960744 4.059787594037914 9.77030475675691 1.2518182914960672 0.31304002247120977 1.0 
4.110306854785569 2.550528692927837 10.338888519620262 1.252418638513047 6.267355545066334 0.4225784891228911 
2.6101964048770743 3.2216277206804103 18.84241423207998 1.2563158444469784 4.492169920469106 0.8042539146721012 
4.6251914505341025 4.7152213083673065 23.411356150447027 1.3029244986622512 1.0870005879302846 0.2602965767926604 
3.3332402266666383 4.987716794881434 29.199780454167957 1.3059983051292396 2.47563564459385 0.4422362668631277 
5.07213316308688 3.6482611034327577 32.87265220573514 1.3260418183484406 8.229927492951012 0.0 
2.427592337531914 3.5161565403556496 15.470983277241459 1.3429239700641082 4.453961698853579 0.3545800676254256 
2.4089165771903067 3.962617814766272 32.410006752381925 1.3578332305887006 4.052262488089951 0.0 
5.082391381165462 4.09470022681292 17.101243254637744 1.3762576208576969 0.34840984098319794 0.0 
3.535137984700497 2.389307804262268 26.667797477473847 1.377551791099026 6.275816999341281 0.0 
3.6000142335798353 5.152546821701577 32.957980554009275 1.4105436247042615 2.365946593601292 0.0 
2.8113037361894184 2.688480107999644 35.17532868635884 1.4170304008045809 5.651569257841848 0.0 
5.0848539412264 3.266360300276137 31.28234774685619 1.4197684330751412 8.427149762919662 0.0 
4.458044052143988 2.5180367040479985 23.428216792475702 1.4209362907426204 7.43720750673217 0.0 
2.4648237542336533 3.1275361816641762 7.388914137130747 1.4279843093743347 5.130226324632892 0.0 
2.3173191802634436 3.8667574486792784 29.721789061232556 1.4374305663450688 4.39893508661907 0.0 
4.101427762728222 2.3544632022075307 33.93058754787743 1.4391054257451132 7.136642293239783 0.0 
3.6772123194500335 2.306221287303009 16.167373747869696 1.4456123331228279 6.739469157616125 0.0 
3.0814980838393735 5.03230133899546 14.0015977507612 1.4460952720688833 2.966464622583551 0.0 
2.378867951253861 3.257797645139574 12.699410848462264 1.4568000045404077 5.078755444489943 0.0 
4.819254353921791 2.7413728261324852 37.12238193634165 1.4699094017131389 8.12412498122766 0.0 
4.045536176765574 2.305092549138587 7.914739903871684 1.4748217429004897 7.247484412249229 0.0 
2.2908556134288176 3.9675209104897444 2.842879346086491 1.4752686831091077 4.416376383473418 0.0 
3.8364805652563243 5.2352617928863445 9.010377086725896 1.4877773629058257 2.250465877350596 0.0 
