437

5.15627988559215 5.317743113703263 13.189537332891128 0.11563991222252668 0.2909167700937427 0.0 
5.267587093384732 5.128039931236628 16.238112961723388 0.12322160616746558 0.5983154979346654 0.0 
5.338280969082861 5.337368691777717 36.06103078806511 0.1242047414761549 0.09690509547173498 0.0 
5.34555009507203 5.358511135151125 2.143482005767254 0.1445838411443674 0.12272687113764125 0.0 
5.203946559158053 5.111623467194042 17.82217316273625 0.14583889825688212 0.6403942423868045 0.0 
5.346438382068017 5.362790709322836 32.68343337888909 0.14839846914791766 0.12812645862993577 0.0 
5.410788113522811 5.185295869276138 22.79211248861619 0.1733189025552453 1.0226847630838822 0.0 
5.23358732879268 5.423606809024261 3.648158114426238 0.17438090467636025 0.2903538848141869 0.0 
5.0802342338741155 5.353145799567996 27.496826775532597 0.19864408200807304 0.5156046201588609 0.0 
5.051457193221193 5.318874893671217 11.549003704818112 0.210149939571318 0.5900338707094335 0.0 
5.363946653498147 5.061403901741975 0.657406825479832 0.22034592830723732 1.1581115191924996 0.0 
5.024658446967857 5.237112542614013 39.107370145741655 0.22570977400372572 0.7219826379780692 0.0 
5.111007749048497 5.057090213025023 19.50891475622847 0.23776675910500256 0.971998631942113 0.0 
5.338964568867264 5.008136929551922 10.0180805887032 0.25770611044426106 1.3052451461812336 0.0 
5.196295721555596 4.997582986549558 37.60999762628754 0.25806684832127136 1.1620117148581546 0.0 
5.084629011373323 5.449020315581589 8.496009634665398 0.2587598305254528 0.585861161034849 0.0 
5.537297681174469 5.2711702295432925 28.982791416143073 0.28807661520356564 0.021189331022153368 0.0 
5.5192668769759825 5.357170179856824 21.2911260466299 0.2898104526875178 0.1097765315512298 0.0 
5.340671085281059 4.948488747157321 34.57936428269771 0.3148496169551529 1.5756674533463038 0.0 
4.82991495009587 6.4248309881462475 37.06111666286992 1.247677562458203 2.388303882288252 0.2407976418403273 
5.054054044616225 6.483834099015489 34.17976573343158 1.2492963624875482 2.159148509307439 0.2571238819170292 
6.368236411134781 4.5680963622662825 8.805866051395064 1.3097500686551133 7.512188170898636 0.24766233427107287 
6.543279810778754 5.5019461317333915 7.522942912947094 1.317592320205058 0.25350731630656576 0.3935207777551622 
4.129038686271972 5.959773666409718 35.368086526626556 1.326775385814631 3.41927338106448 0.42040857589924163 
6.017862639537608 6.34315615770029 0.10624512384787721 1.335890496378997 1.2803751801005152 0.0944056466174816 
4.568026419705019 4.088953603567856 29.437033125350496 1.3465202185219605 5.630207360622428 0.20531622110105047 
5.707414633987522 6.522071655555368 20.2651559353737 1.351811541692598 1.656794345745558 0.26800518022195785 
6.317010157432646 4.405662652283275 26.808790970596334 1.3606675688108956 7.638467654587817 0.2150767858772337 
5.206505365864853 6.6181871739822205 9.503067944905034 1.3688783460366394 2.1937310338130835 0.05567781872072878 
4.611637356054809 4.037481966589957 7.580785863490711 1.370294437896196 5.7933102102720255 0.31913632004068443 
6.471149710312507 4.610902593083155 15.46490617560601 1.3782786766558357 7.995431914602937 0.25030442090934935 
4.881281264783662 6.587816053139482 15.566447762542836 1.387697840935568 2.5529918760834835 0.0794130596262798 
6.564584555179282 5.70583925264994 27.807319739190653 1.3913741326373592 0.46441475081633143 0.6144878050668588 
6.637497460041166 5.365008723266606 4.364460940391169 1.3922557983532 0.11513992512654392 0.3068603480095279 
6.321057091188512 6.151593307610668 15.452546896006126 1.4000120659885544 0.9795911214348152 0.40149229559572086 
6.592186070780471 4.840970494603771 23.78529908023735 1.4031281427160542 8.401057998200363 0.3698019484521874 
4.787676035311513 3.918918420852269 10.920265128723742 1.4090853837407091 6.169109898459215 0.2793246229422508 
5.066419054680092 6.647273733130952 18.879819362516095 1.4092820330871536 2.397799192745248 0.38172529426793494 
5.94435590742416 4.020100645728913 4.291325509490321 1.4123677098444531 7.381520002554112 0.22733800811385071 
3.861623921827576 4.978788748462338 26.356623999861696 1.4146178556069708 4.717053886902228 0.5658228969488758 
4.293001918355874 6.295668721290468 17.29054024758028 1.4174866500097183 3.277154160208191 0.34948323847097834 
4.027687013996766 4.529404120747638 30.782073532613865 1.4189106585502937 5.213477206421336 0.4784706278704692 
3.8956658644291586 5.681564152040257 18.623681299082364 1.421431872478819 4.027074343657597 0.20944023985135712 
5.9116649632978655 3.991557757779036 12.117300568286389 1.4217866930950267 7.388240615477935 0.3095133274665112 
4.74227708313791 3.921204391762868 33.662747178608065 1.422490888820465 6.184157828891269 0.30820494652407987 
6.497677346827301 5.935001828755364 31.849268437247133 1.4233503669807401 0.7146524614332694 0.19604046963401248 
3.814661871346246 5.170013545709117 33.86331944835626 1.437565085982993 4.596271695889566 0.35149247805564116 
6.5551619200871585 5.871296956900346 35.111551236274956 1.445495605769604 0.6422175705870554 0.17596265945754563 
6.220823188301527 4.1756815225714 17.180104721113096 1.4479840654815384 7.887494767245771 0.4822342809884239 
5.603666232823867 3.8418634336754387 21.79146063266284 1.451870653212659 7.199039960192962 0.452922299805902 
3.881797777222733 4.755903582336115 32.25782920489494 1.4546850491982588 5.074154771069372 0.373207962179818 
5.238438672326395 6.715021765786269 21.90941914166584 1.4650673836124724 2.312883912355659 0.539827546348648 
5.819615397382407 6.602941137807244 16.821195954924733 1.4679616559386957 1.720893686496809 0.36904870633506354 
4.942391896793159 3.810936608604634 26.416931598078616 1.4715726926023183 6.6247294508447165 0.3224817963913312 
4.821303669581385 3.8407940059995287 20.44428852110052 1.4729704943552804 6.506218402328418 0.16586318985235365 
3.9639608779639293 5.970696529941987 5.660746833314477 1.4742116916093577 3.8783557571459486 0.09702928853223378 
6.692279003737381 5.561947420800217 33.341246904673056 1.4756286517839081 0.3143189082019209 0.3748110483748461 
6.163013129577293 6.409874615783929 11.50667576100382 1.4761104630482231 1.3343013015565788 0.2824718732905335 
6.672954169582469 4.8539858950357235 39.7357477821475 1.4770327484733676 8.8795513616951 0.13621014014088392 
3.9712336225084224 5.990117440858073 39.924378257577956 1.4775037307787877 3.8665184047676266 0.07147751811064908 
6.406680091061214 4.329623889070957 25.309977477860528 1.4781748944648765 8.294140988243942 0.3216000177250993 
6.519751340330493 6.011542484943407 36.98908454470924 1.4806131914328136 0.7998878594268248 0.30449787763332287 
4.385763975363483 6.457848528167936 28.50959637883942 1.4851942543913168 3.2553387358502874 0.1464710951588638 
3.792550875070221 5.537098955986634 29.599065838377072 1.4854574252691304 4.377785041670782 0.5542477580068861 
3.8383202702846386 5.7178020364655335 12.461108704869304 1.4871712761516536 4.196204523023136 0.2528979067318845 
6.404471931228349 6.1915809048003805 24.420008554216892 1.4897583831879615 1.01925944595979 0.31637056280605375 
3.77104799001307 5.052788378217391 10.65167212009537 1.4920427177566005 4.8851808518108495 0.6152090600960398 
4.773482420555945 6.6652366606073965 14.058136530788893 1.493306334630105 2.8306793944794535 0.13250167208503622 
3.8007549802962632 4.871109445121888 17.195656478273172 1.497954999227923 5.0890160267095705 0.4944905555139156 
3.752126562388339 5.17255075155102 36.83057716266511 1.4998744018043246 4.789478110221186 0.7354681824935689 
6.231943204421798 4.11570612162039 33.5780923420241 1.5002783272578468 8.140389914670191 0.2270457692906177 
5.504131269889961 3.7713887306020677 23.4593912537353 1.5002913011566958 7.325318696621981 0.22402842313083246 
4.042900607936452 4.3576941606959405 21.83889388541043 1.5010991483497391 5.671385975779522 0.42374319017969014 
4.3886842940367 4.011751799486318 13.973092514219914 1.5083512029412858 6.19121974678629 0.4903281741537677 
4.116024997016204 4.252364427177938 39.84705956504135 1.5103562637841774 5.834683057300104 0.31551703924677105 
4.603618016412408 3.8815828832346693 1.3331037711805038 1.5133985179598168 6.463874830496438 0.33910224131588795 
6.075272346999539 3.9800439319682113 28.433407889557916 1.5145503826063007 8.009932912308106 0.2499869411452977 
5.73241125614975 3.813923510854443 30.52911892200225 1.5149377223954161 7.629936125740974 0.42797937637702116 
4.385266178316218 4.003245986337503 12.47275376933844 1.517287103005684 6.2299493454230905 0.29899521023322456 
3.9885852410877565 4.403585501558157 2.7629626907953124 1.5190736312549795 5.670082235455601 0.36038657253897083 
6.49917628449575 6.115985980225332 18.38990065873935 1.5199911538207824 0.9213858365485237 0.10842910440657498 
4.424913723445043 3.971510691682136 4.316307890464422 1.521611736035974 6.29838054408294 0.3934508825112222 
4.052282958894367 6.190562318503293 25.46278046177386 1.5228865964158738 3.770487719591614 0.19198718750456203 
6.716014895495367 4.8354055771958 2.5907943808475906 1.5235118014753417 9.152616955983063 0.40730531065732495 
6.541989566324685 6.080679463751187 38.68975483583682 1.5359900426076365 0.8776651989499822 0.2859187263703424 
3.9070716427048833 5.995761487137441 2.953613067541365 1.53610441328863 4.047128922933984 0.23866009412131237 
6.315741100598752 6.356337067758803 13.570977597627547 1.5361594321562415 1.2352041512598078 0.3915071199243544 
4.951508366699157 6.761372613259512 23.573326819630736 1.5405662696753724 2.7203073470983323 0.22995157826083 
5.705896089717721 3.7773549954956636 18.714694881287677 1.541598051993931 7.727426901686696 0.3966871952680594 
5.441654384627994 6.782269176308974 25.498468188260865 1.544208610199322 2.2334873541668054 0.3824549574012426 
5.576109342825349 3.7403037994010315 2.8251725954962055 1.544516080065514 7.606942837932696 0.6039108917374195 
4.982031708162766 3.7285473044589263 36.61164722241644 1.5448706451348477 7.010700848129414 0.45670277437972717 
4.995333967097711 6.777851010528352 12.517084938989882 1.5489297914000808 2.688880801829196 0.19478750654097637 
6.599150360117414 6.013716521589535 26.094188981366266 1.5503127489489854 0.7985644273997003 0.41588311285926766 
6.214387986370432 6.463909354727251 29.885137550462773 1.5503612836206755 1.3944722496456308 0.34449846335846523 
3.9018829259353582 4.479616382451975 6.148927854018837 1.552710714708633 5.684095227402683 0.2375851241494118 
6.80598920681158 5.267009172410864 10.77477744528396 1.55608217124297 0.0170095111431543 0.23952988151186522 
4.388406505052659 6.547174571847558 10.776307928939822 1.557242826402959 3.3591202781658502 0.6028661946285983 
6.527466930407318 4.358018906354086 36.548097081896465 1.5580603421260846 8.839873741095625 0.24802597140584454 
4.182113567327685 4.11481877431415 27.73633595963414 1.558530669648575 6.167927628228599 0.3558996900543854 
6.796034739372701 5.050451834789585 29.87231141209694 1.558859482309443 9.594505794962856 0.9635282245451018 
5.162123896392085 6.812048048273052 38.5756254138258 1.5645179176663198 2.5454613737824676 0.3729595170864399 
3.6874194244045553 5.3312545567707135 14.205050266616347 1.5646917773875444 4.8343330715135 0.28388830769422024 
6.814012701961547 5.42847989567805 12.440986693649016 1.574163525513888 0.17886452406805198 0.09558670716636138 
6.59528773760394 4.4312666055926755 31.808160561509105 1.5748407754643847 9.034028428271354 0.3041898004395498 
4.764633168157784 6.752070674306142 1.0331861973195586 1.5785427685251556 2.9729289409754003 0.3793115835193081 
3.972404784150906 4.322511594271739 23.344004309907035 1.5787603612710952 5.951188599327743 0.4500381080703182 
6.190635271604315 3.981689964217777 13.774033192973512 1.5790519500801818 8.448750844815972 0.36020259987161124 
5.218834967556493 3.670560197597572 5.7679682441879905 1.5797472420169716 7.413216440764419 0.5648829726937727 
5.001125125774606 3.6886804259631685 24.904363271474033 1.5810305232003765 7.200516501867341 0.33275691620223596 
3.902447967035979 6.0793331216873305 31.195466525129028 1.582305251294176 4.098012078466434 0.11428669122803814 
4.119821547188821 6.358468046732492 32.67664989871337 1.5830365585878376 3.7452938331051175 0.24375152369037525 
5.755830011436863 6.752025741970359 7.97654429353225 1.584911773573476 1.9747371040269428 0.5646794193608072 
5.650599608831162 3.714887585676766 39.79443425766568 1.5865214058451862 7.8812894280271735 0.543708565158814 
5.452375460641644 6.826628062959008 35.7538086528188 1.589563423075592 2.293954176738975 0.13308006710919906 
4.7603611632127425 3.735014626135409 16.94376647456118 1.592145368210459 7.0051030905050435 0.1764012967851429 
6.830103600518316 5.47737915393298 16.74361204179599 1.5963798633202 0.2281550850438876 0.19945282829640817 
5.296107428964537 3.65007381760942 38.33215715444377 1.600590417347488 7.5887184529387905 0.0 
6.7918153517123905 4.787839628289099 22.017835009594293 1.6095921185057938 9.64460701951034 0.0 
5.127523386734402 3.6449123333824263 32.21182446807842 1.6097536887129231 7.463190456532697 0.0 
6.674086234550832 4.498353745260603 38.08016450729182 1.6102775213300733 9.335645759549127 0.0 
3.653687978124135 5.498402796027914 1.494514163579666 1.6155234508542105 4.825924451774494 0.0 
3.833581017406911 6.035708554026747 9.321388898582967 1.6197470994327618 4.268255273776978 0.0 
6.521628973963153 6.256161296515392 3.158734437855024 1.6215427228500991 1.0854208742824607 0.0 
6.5875272753570675 4.331205819031483 5.851452819761004 1.622702055001381 9.219027623714457 0.0 
6.651594928132339 6.067856402094748 5.903081113384015 1.6227622860461293 0.8571633294183689 0.0 
5.863163573114799 6.753239257358867 4.794286799375634 1.623483240523211 1.921396659243836 0.0 
4.671963534784235 6.769041610502493 30.015831252645135 1.6253041467851927 3.143994562367613 0.0 
6.421599451467497 4.122032131573061 1.242691011939911 1.6263323113320216 8.972082911796026 0.0 
3.8174593443488725 4.478000253485881 9.25543062030183 1.6273156850197283 5.916717732881459 0.0 
6.31995099845356 4.018006733473693 20.184829560971764 1.6317483102053245 8.856329322141779 0.0 
3.6183349895912844 5.215327118900893 7.630721039835983 1.6320333681869945 5.161859529856301 0.0 
3.8868469585656715 4.3512346238186 38.249010917346276 1.6327784343854344 6.0812794050159145 0.0 
3.778136075321221 5.958754490846051 38.109905176051456 1.6336206233594335 4.399055419672509 0.0 
5.169730635498178 6.884017191304343 6.521165615497264 1.6359875770786458 2.650104882304456 0.0 
4.268473243505204 6.562000805544175 7.882432827003523 1.6385178935439675 3.626186891227878 0.0 
3.6285604166495684 4.993970348701211 20.366981711720953 1.6415290143033716 5.414094734179031 0.0 
5.1626685321516295 6.890459555872477 31.462960432975024 1.6427824992158486 2.6678493697342027 0.0 
3.866788667327681 6.13859203818499 21.64923739857967 1.6440405716279907 4.226121317721658 0.0 
3.7049442307078433 5.813252704317177 23.500718395679414 1.6445214924541416 4.591526131839553 0.0 
4.2117953062440066 3.9706318499007107 18.90944495640148 1.6476200562100027 6.6410230787324505 0.0 
3.8687921908167926 4.341972719303412 35.17920964752271 1.6529514677200652 6.154208004365099 0.0 
6.728179222347938 5.997936183040142 9.229499639580347 1.6566298160065247 0.7760050977009598 0.0 
5.7943082404590225 6.818713145077684 32.89161369388788 1.6604614997557512 2.0536864270464292 0.0 
6.250660322774094 3.919749789258228 7.288365190728161 1.6645980610204019 8.917782390067229 0.0 
5.159704786728154 3.5877546221207055 9.124018153850635 1.6646960448745252 7.754355749087013 0.0 
4.160593710863521 6.509517219267538 20.165838708088295 1.6652896710307008 3.8033549114770384 0.0 
5.2298883983248805 3.574443005573925 15.18220040415602 1.6756776892028125 7.876332992724379 0.0 
6.410199333745121 6.477192981327992 1.639816056571476 1.6888058228947784 1.3737628685359642 0.0 
4.1707159829096145 6.5502282483448635 26.990109043450587 1.6898069378898604 3.825059196213033 0.0 
6.8929231409424006 5.647922108831834 20.684799126289697 1.6904255238670585 0.40169183168802114 0.0 
6.650944912822561 6.198624297556618 22.888874203867353 1.691902688300425 1.007041999318215 0.0 
5.647347522091606 6.897650335539627 27.098951913510074 1.6948854479038347 2.261239413878892 0.0 
3.610649521832584 5.72039650078141 15.7483054817477 1.7055036963358163 4.88142349753608 0.0 
3.6858233153469877 4.532458596405171 24.80687644734137 1.7209051010107825 6.146532986464525 0.0 
6.233474499530569 3.812655584278036 10.376946819876693 1.7416030146488661 9.252183488029718 0.0 
3.432317461387994 5.113610470091048 4.342917054953439 1.8227923400771067 5.862988143711226 0.0 
4.1826695557284035 6.75093071790706 4.357062192902134 1.8417348607294186 4.031449699955253 0.0 
6.100842108494174 3.6089090953460445 35.202055819633635 1.848543115787335 9.59522592806741 0.0 
5.230397268177813 7.131372579683562 3.255478089068795 1.881474701047046 2.975016635853221 0.0 
7.072900542931265 4.697416707890147 18.66633245534714 1.904813556266875 11.407653503590081 0.0 
3.7228583841086333 4.011003303066385 15.483684469244047 1.9665386673034675 7.51846376071671 0.0 
7.587004057987016 5.699528556869797 14.342575678877239 2.3798453501203003 0.45224555922814247 0.0 
3.0594324317842077 4.074609832644732 28.761057849252225 2.4859863870170926 9.034237465235385 0.0 
7.4327445074140694 4.042847437176688 3.653311109814787 2.494311707581306 14.412154183562082 0.0 
2.919031539411428 4.353105306107701 13.044115971049322 2.4975656260028116 8.763718378513087 0.0 
7.770536858783915 5.141697711328321 34.3205987382844 2.5228625492126584 15.743277320959441 0.0 
6.0691886230170216 7.642342503941217 37.71375183263554 2.5287096820798265 3.137848470279737 0.0 
4.924671923315497 2.716479062973171 34.66990748396846 2.554323138491397 11.710750097957781 0.0 
2.6988701038527037 5.033189647365579 39.053631422033334 2.560326244060702 8.260572429854268 0.0 
7.812887880671497 5.2881173442343865 6.577366831504051 2.563171321005353 0.03811874932588566 0.0 
6.312717594943968 2.8722416700182016 37.48174689999506 2.6044391646573968 13.367794737501592 0.3382315603985549 
7.698405329788142 4.35855221211541 8.01947600133989 2.6056415366391663 15.461905173688335 0.1283507190586871 
5.787701683321801 2.6942197041240465 20.78130904486602 2.611730464851775 12.849064416614496 0.2185895561328178 
4.925598720703312 2.654526075134223 12.859260901185237 2.6156683820139532 12.00080813914194 0.18813946917609334 
6.887981811989857 3.1983143882417373 22.688210210688204 2.625337743206665 14.140406579555865 0.455856927858432 
7.880518571189938 4.990929145220006 24.655779027339385 2.643245289633861 16.348512517742073 0.5379921390157253 
5.677560114546942 2.6305787948484163 17.57681996316937 2.654086490969946 12.936519295761753 0.27882820247298995 
5.365449228898033 2.5871250708864313 7.557257675168437 2.665376411044927 12.675775787192213 0.11568248349934689 
2.75097508665859 4.319669195975159 0.7080455942131891 2.666578504829466 9.327623240852208 0.13347368003275936 
4.329670825129071 2.740187990971096 39.14775372062431 2.673230650502179 11.657748851679404 0.22147642891688615 
7.903516955908304 4.911513610441517 31.048586790463943 2.675018742216437 16.468242224704976 0.11308456097690539 
3.100379992385336 6.851675697235107 11.664990363352018 2.680714683857801 6.705102146439042 0.22002150980721347 
4.019170109380014 7.6345698117031695 39.23682506608793 2.6834894086859564 5.493885385188495 0.08684840702521117 
5.695550136072137 7.90079700852365 11.61959428059653 2.687980599660613 3.7746540070938757 0.5745120906012132 
5.736630229778107 7.901977525696331 17.639777910040195 2.69625551039443 3.7459565813785822 0.45676781313596865 
3.5458262993880405 3.158985785096993 10.021627104568111 2.6975078218207074 10.867096964000549 0.4429754733781264 
2.746255468043943 6.315115184199345 34.73222129080007 2.7208835030026304 7.453522213077132 0.1783797186126779 
5.310779328826513 2.528252148570032 28.826067994033796 2.7224263981926584 12.889916537696621 0.27591632911560005 
2.541397506517959 4.971189743542466 31.572408517151114 2.722914362737663 8.833587527577517 0.505924279261635 
4.9646119627927385 7.964617311544973 10.276283138393662 2.7295775277358723 4.573520920297266 0.3088068226535547 
4.688602060593747 2.5744624275954973 27.273972104797917 2.733801190232706 12.31731412221512 0.4491781808197415 
2.9782071348085832 3.7247112968505185 11.517705833516398 2.7363385116410694 10.214388117213733 0.0280220478124539 
2.5700370854178223 5.831042712749424 0.48822705058551463 2.7422275357043238 8.029481143374898 0.4937377176624408 
7.48262917514712 3.6465636496348726 16.02346466688499 2.7487526559132864 15.558929392716415 0.07152416995924282 
6.230176203307588 2.679042941742157 16.17056053777699 2.7514660791905654 13.96816812374411 0.24456789360517922 
3.7874650942434416 2.914471535965914 33.03922207394791 2.755667170917009 11.444062305200497 0.2225333082106189 
2.5582982995746013 4.654910676686548 27.1248857616471 2.756698994593832 9.260236187113257 0.23386378154135215 
2.5902370276599758 5.975136962862932 19.56095647688189 2.7568392560940356 7.927095879050192 0.4665693947757011 
4.884881180160469 2.503125846203365 0.7875486025428344 2.7710339892172007 12.692006379270616 0.12927935106024005 
7.896725308620548 4.42017033547457 17.299241503540536 2.7737649740774577 16.585344064526353 0.47439099308918914 
4.89229509794098 8.004122933464917 33.72633783493497 2.7772551070426448 4.721203469280731 0.18884366140703768 
2.8034921507793076 6.572012912204867 26.26361031806757 2.7808485748661065 7.3586120756754525 0.29240828450538586 
4.989653562709576 2.478365825576633 19.520208446697566 2.783834812671419 12.857785051355211 0.1821760198214332 
4.238925992481823 7.844296881222984 5.661912353654763 2.784357548268932 5.4083850624334175 0.522079160535589 
4.027041740446227 7.757972970803042 9.110754086242228 2.790260799081231 5.648876215494379 0.19358637315875812 
2.4636940011722395 5.091200383821006 17.951858265805413 2.790827554185704 8.926528773119422 0.5838582546735546 
7.912563665591433 4.412621720868538 23.178890306341025 2.7911373408861224 16.686755219258778 0.2772206688628193 
6.418438182209906 2.7115540957157194 3.5228478168715327 2.794450821650584 14.37401941991548 0.5542026277216613 
8.044580395076405 5.242919152545743 37.67659118768472 2.794589365711189 17.551841987206082 0.3421290890102339 
6.424410966359404 2.7116432710289313 12.955635826073532 2.7968725393585467 14.39193908126175 0.49651290795058295 
3.3875037251698554 3.161751892673082 3.4897867763678647 2.7981552014694655 11.148047146618946 0.12550504228415224 
7.940875826243542 6.0255572057414595 2.072900945168776 2.800410986201732 0.7858298123755425 0.20877096405027484 
7.60114350317166 3.7190217113704103 12.58896569292348 2.8056675306888197 16.00911861050351 0.27514676505880403 
3.0495250102123963 3.507004183487079 31.812608262886535 2.8071559623687286 10.699468794685018 0.16286636264383741 
2.5698507067244414 4.412585781166234 19.421321529185676 2.807928561796122 9.671720407533147 0.3602957114990991 
5.5593365616486565 2.457378237227024 25.985114650797158 2.809702015923728 13.550373729544006 0.18652852007051138 
6.591837074657857 7.719505355538534 16.126141228075383 2.8105130200658834 3.015858141299722 0.12982463488947338 
2.839807251664273 6.698766564358299 36.37401864674484 2.8121083980054324 7.312507727702496 0.2794549763408488 
2.4858713269379145 4.729777646556409 34.655653970470816 2.81265686109528 9.359457173651514 0.21543720796964963 
6.260552267726386 2.6211442235827196 24.47802900667567 2.816398157045527 14.305561641182164 0.3858236083299118 
3.504162971884835 3.038542126346294 37.43904064328945 2.817533115277079 11.394424282201147 0.42299259872969824 
2.433837368904311 5.151248180135241 22.441722168978217 2.8178935194053 8.95144562339853 0.4485392333077985 
3.0167142598194863 6.97133275178421 29.086127281931198 2.8196722574899766 7.006703598117504 0.1750929659035454 
4.114333161824014 2.65648370394711 11.445244457819882 2.8312657849846143 12.173462787015396 0.16603059737565484 
7.995696364645308 4.5591013916165775 5.253711997514202 2.831287589400378 17.091558612515907 0.42645331006862147 
8.08142823189915 5.218556282593765 28.166857514464894 2.8316028216824227 17.760040881293218 0.40488286326592277 
7.81375649380616 6.4562715922472105 36.05393038036806 2.8333616983710126 1.2460503071274651 0.36904790141522137 
2.8968665570040715 6.830807147586587 14.564551903952285 2.834817143733738 7.228933361149782 0.12312195285598286 
7.984456851254683 6.007532802101885 21.69762564009565 2.8374478352269366 0.7668333787285988 0.21190238129056665 
4.956401141617262 2.425726086627126 30.337133004860405 2.8394935159993206 13.086673408599026 0.22101384094052004 
6.49873621444106 7.8031677881616766 10.212206520179208 2.8421836477896667 3.1716280220934445 0.1237729005758078 
6.855910659807002 7.597246323137542 30.83434675724616 2.844031355095172 2.7609149004778644 0.4709066740471548 
3.3609659047127565 7.376052900029551 0.6683171246892883 2.8440377541238364 6.533411327992946 0.4513509707512351 
3.9652272758925715 7.788149614997801 36.39362702604933 2.8447925092568545 5.801611569516417 0.40296668877558284 
2.9570858288815636 3.565603704420651 2.00316309791814 2.8451091853700756 10.740773101326827 0.257681503008724 
7.225421643414678 3.2023062931196407 2.2339384241882954 2.8452311305882643 15.591368316503258 0.38587962460466085 
2.545028983028778 6.132972843646215 27.795445699786104 2.84543656497048 8.041407283566924 0.14665174663008002 
8.029991724828783 5.859385035752428 17.858558758892094 2.845997911439061 0.6141402609173525 0.3174935822233391 
2.534634797232595 4.391382850810501 16.492106248218157 2.84788194862118 9.819072715939589 0.4969416953456941 
7.819902921376041 4.0162129584049655 29.49585020795871 2.8507247305386985 16.635664849896216 0.4964213756559543 
4.18968656835154 7.8971037969849345 17.636278915622725 2.8515650238678036 5.565633178269336 0.30800935277050895 
7.2593093767418 3.2179326968146613 21.177188373684046 2.8577301650326365 15.695099792552572 0.31596389516248174 
4.067232003957056 7.85341185076733 14.79560313920615 2.859491807503427 5.711069894312175 0.3880876580513755 
3.233403577814813 7.2811927967493855 15.998967096677532 2.8622378146367717 6.7336677506641145 0.4137629740310062 
5.609524010743713 2.409856902491887 14.304945374564625 2.862808119421249 13.851141251527046 0.20866430979148284 
2.4501604672306483 4.651580507088294 6.859231121583626 2.8630765443408617 9.597484808219237 0.3241731558704158 
7.422819883932991 3.3817959548259804 9.478050194256745 2.8655422876689745 15.969740828999964 0.14367528903799778 
3.4003535455427585 7.44056245611443 30.570945219415876 2.8670116638451812 6.513888116700938 0.47751013208897203 
2.5388510309210206 6.198374540505402 30.57569127543453 2.872236585244476 8.056885600420845 0.14672153636012913 
5.992090757323328 8.026460942002632 21.020269415136127 2.8739231121536397 3.76375289865976 0.21860456295709604 
6.840105090273689 7.645312888027263 36.27308774000922 2.875057917619018 2.8312219996318753 0.35098836939353106 
3.706664499391085 7.677219707045147 27.913800711601453 2.8763309916816056 6.147168918242677 0.30862196849737283 
6.627205312386168 7.779631471331879 0.5762172427032723 2.8802308680412008 3.088299199585194 0.2940936030300106 
3.174606064123534 7.2485800316569975 13.110932040791191 2.881246628112715 6.843096280206069 0.5234286987638956 
5.604859768090447 2.389933252415153 22.30051354395151 2.8819970950106404 13.936853961966186 0.23448088811548035 
2.7677441904000935 6.715931906520938 1.9603027289044306 2.882802500839868 7.5187524724808945 0.20143915969780216 
5.806652696749752 8.084552851409674 34.95012857387569 2.888693838438657 3.9773930260671833 0.3465462146767449 
6.117545520924211 8.0069789213539 14.696186596928747 2.8902539687137114 3.6588691600344596 0.456147177806759 
5.682555164727393 8.109872430892825 8.872975088898272 2.892399400413637 4.10918640242183 0.5095848809228515 
3.0866992176440773 7.172380869965718 33.5242325450927 2.8940315278434507 6.989355779770936 0.3951465932423768 
5.8057581028519145 8.09048045037979 5.706812128187323 2.894338656390323 3.9871853575658243 0.40838432705240174 
8.132547038431863 5.513933238443604 3.5852562529386596 2.8946050133183343 0.2643003366293595 0.21209086931901078 
3.7785488993145844 2.7571486762128163 25.882799148009873 2.894732468504789 12.097538206384339 0.45206146603229086 
7.7568123036616585 6.697882447281254 27.7092649999923 2.8949044037644187 1.5162652304959323 0.4333755223608504 
6.192923519559915 2.5117858550912526 9.474410672694958 2.8960182090445494 14.607596678707115 0.4767323431588309 
4.2221456843360725 2.539692449547104 21.085076027088128 2.898663745982092 12.608918063509538 0.16077793193702386 
7.680056462012532 6.8306109223583995 18.983419720104244 2.898880007252374 1.6717432782824773 0.22454393001034667 
4.667606813946898 8.090800614562161 7.567780744237403 2.8998844726743576 5.141508917342769 0.2954695475755069 
7.881414717287872 6.469149467198859 31.046606319592343 2.9001153145574188 1.2582547578367738 0.5536739914236248 
3.3863696420215605 3.0274497828478992 23.952841054805752 2.9004909203342963 11.644320853082156 0.26594575838108214 
2.9625247445441927 7.035022477279883 17.70399643250734 2.9015251659630703 7.192739264640078 0.2956442306086538 
2.3542159674666294 5.055168054156448 14.967041122746458 2.9023308995006785 9.312920006222726 0.2610023875064299 
4.767891173469149 8.11330555392713 19.133410262596044 2.9036094117096587 5.045330938357722 0.2797451663922453 
6.121894506970214 8.019695583069254 39.1713531301838 2.9036896621640116 3.6755464710883814 0.4650984472402429 
7.342246032398034 7.264148976417292 34.85690546384285 2.904184835592967 2.2257151498097016 0.5769214807447497 
5.153124224345653 8.153793012004318 16.13809589353255 2.9054085379639387 4.660698794552161 0.40629381338860837 
3.323086578051166 3.0744244512687935 34.464275017311024 2.9062216543002473 11.588643870961384 0.15856144657032106 
2.8638236316756345 3.5904116168529576 18.100009338977102 2.906556598834137 10.897531910748764 0.18397921542022963 
8.154630062620981 5.421220441159175 32.51018996072284 2.909672187747668 0.1713194114998764 0.5066649517226626 
7.644321064150509 6.90673669151475 4.131025170423669 2.9116232282433194 1.7624024374189204 0.4133710115551296 
6.489705645595635 7.884622908255222 24.808782164545008 2.911719072373721 3.293125359139406 0.35989751522457886 
3.3362902600924826 3.0550223540305446 19.72934984052754 2.9120803276905867 11.63475409145033 0.24148480558804528 
8.080957589963187 5.941491019574002 11.529261011079356 2.9141861138783987 0.698150099435356 0.05885715440458063 
5.7111884270556885 2.372032208919874 36.17031100655345 2.914685810125119 14.198268152683404 0.3792714639790795 
5.982594971121708 8.071233489617573 32.02375613372064 2.9147991002215856 3.838019880100326 0.322847232261373 
4.130581865649205 2.5579039586365653 2.2245728835679692 2.915557932101176 12.590319197805364 0.16139336560984568 
5.640305483530151 8.139365956531114 26.19776788845376 2.9156086845176383 4.188346679287349 0.551392741111832 
6.990737489910014 2.9099106119177236 14.738400713642385 2.91653653380058 15.60918544566881 0.19021262674538386 
2.682393405222463 3.860740484069442 5.030857718545491 2.9193570573242167 10.619322931634628 0.2070788248879451 
3.625049013413488 7.675679159507636 21.887826492693506 2.919654961408653 6.309464253983364 0.40502713846731786 
8.088139111066486 4.558599509664058 35.75969966842645 2.9211416007790594 17.656049571344457 0.057084216311023665 
2.6604426140684483 6.607230750166725 38.94797913457158 2.9236762413493693 7.773582085522369 0.4577496979863375 
2.4303001052479267 6.0326039657115516 16.65274897133274 2.9262905637705035 8.400966163424783 0.26092929375456314 
7.70048111879845 6.85011269274681 10.283603174846853 2.92663942826532 1.6929630600149395 0.5207977173192784 
7.664064803683425 6.906275639076203 37.54027273434285 2.927619829995073 1.760471650499479 0.29772503861853744 
3.8770535138337117 7.83602816632656 23.368043523987318 2.927887246959943 6.028123275531636 0.4127010910986483 
8.17731208704546 5.189935341766146 0.477038475382912 2.9279282467525016 18.33664686850292 0.6945992232407665 
2.9399244742569905 7.050564278826947 5.350302084511796 2.9289043440891764 7.262261940559764 0.38062382864704497 
7.158982461460251 3.0284683395648155 39.29319086032557 2.929064177596447 15.882155480478307 0.41409451557671334 
3.4530459216697054 2.936649476532077 0.6145969179198829 2.929272026298888 11.869324108108295 0.4463403942124576 
3.3842858359225474 2.9915225247231394 16.646663547453002 2.9294384868728978 11.782021362323825 0.29989992275488064 
5.585454283740448 2.339611449920108 11.243270841421076 2.929657162351246 14.141875789615383 0.3597369360660889 
3.273093542536266 7.413568743677448 24.771548329019712 2.930731794310053 6.7733392776812416 0.3159663916926234 
7.739745357454234 3.701813632966843 19.57772066816395 2.931844636407639 16.79029972845887 0.5315577963648026 
2.3181877816712664 5.268317910286861 11.76409322838365 2.9318694427581398 9.192421473188837 0.464958780310263 
2.4018101658527335 5.946961360058475 13.289822541609748 2.932224491534437 8.508158211422945 0.6005245697174313 
3.451551348686527 7.566247607486298 3.2735313373221615 2.9324768593455692 6.5423886280355354 0.5221177440778787 
7.4091158575077625 3.2636714126472093 28.188028806299243 2.9338170602606466 16.251716110244963 0.10813379484246172 
4.745540653986824 2.359819904844679 24.000171994016142 2.9338746077861027 13.318579688253084 0.516581936511061 
2.8605878120574033 3.547044103991041 22.4444130111416 2.9341692840802986 11.034816245336451 0.35430851198893865 
7.846323983818657 6.616922944948458 12.920592613855462 2.9341739154962423 1.4219288906508005 0.4310262095064655 
8.18357094929142 5.31105286561972 19.575009828197118 2.9342061902543497 0.061057271881303166 0.8528383306980416 
2.730332261530429 6.754576279643572 22.703209750096143 2.934701908806148 7.6398626633227735 0.23989181050892852 
4.986412728044126 8.173016413993098 30.690163185637196 2.934877034291251 4.87403698746542 0.30204526131560977 
4.056199276204408 2.5677063315584103 22.646601845336882 2.9359597224581817 12.6059682041499 0.23812634204184302 
2.3547186126990916 4.751857273582514 24.0992117490281 2.937822405717154 9.730002472942731 0.5378553777962216 
7.113270877169796 2.9785338851542704 11.339384590415364 2.937913659827575 15.862919966490116 0.5280343794233564 
2.3692100693938976 5.832110499521388 9.927913292357104 2.9390139941712685 8.647199536650936 0.376739086764742 
4.325112898847945 2.4600968008316784 31.710941065005635 2.9392135020455865 12.909843657055417 0.1363003898812459 
3.054948126273082 7.2047635719426495 10.121182863009473 2.939277691975706 7.09551416134938 0.2873231160413053 
5.949036021942499 8.10573691429619 29.3049301997914 2.9400484151875994 3.912421562541569 0.2729017784507085 
7.779538544143692 6.749239427002477 16.324905527026097 2.9404564451437323 1.573230284352828 0.3476356553664255 
2.697724077467651 3.7897511595529387 20.912653573121325 2.9404827938223583 10.765906934489841 0.08820392446789682 
3.2675237181107253 7.4220147355807295 19.122147263851474 2.9407244379290876 6.79484835180109 0.18775288987534952 
7.780172672611865 6.74970213430727 25.079220250821116 2.9412378762823064 1.5737230978735415 0.3464028103729132 
7.085292267586967 7.5486586754678076 22.0020681647229 2.94145022289481 2.6385405137259994 0.3357283630479604 
7.3766754352599 7.282145640581303 32.26788367434802 2.9414901515169958 2.2433925497298084 0.6760292406360463 
4.147376466531515 2.5225236455232185 35.98393372792375 2.9419221473024195 12.73326038419807 0.3822546607874534 
5.709595349203567 2.3436314176852537 2.0911179761190724 2.942483002716546 14.327609379611866 0.6067432146140459 
2.7555061096264515 6.813144348484258 8.564689342996346 2.9437934749756542 7.600334295547588 0.03807125631767119 
5.8389181571510385 2.365266934882847 38.89410830053777 2.9442332538035068 14.4672900083021 0.49944848072975795 
8.102584042182205 5.980608242454788 8.539461407446524 2.9446602727064173 0.7383198837453939 0.12058403909251911 
7.136361484429239 2.988380019383606 25.742240857992172 2.9450440721084936 15.92551727796381 0.4190906072428185 
3.0735395395845497 3.2656098274558953 6.618492041003734 2.945298710256984 11.43029860825077 0.4160349326244301 
5.201559238623631 2.304108901631169 32.99015855855478 2.9462893392895824 13.835618471468877 0.17658381000245912 
6.4274347417378355 2.548804421758067 0.6038016260144303 2.9466608428804646 15.09707119604747 0.18412441244748934 
2.9222825556454186 3.4417865356484905 14.255441429797763 2.947525137028472 11.206601705202292 0.47029395978368066 
5.045473610738714 8.190954582731562 24.420464364567618 2.948057818563611 4.8354892065674875 0.15811828473443107 
6.828805013505723 2.7595564119884326 29.73395562011578 2.94871743911463 15.561546750244844 0.33022636397215543 
8.187083519728859 4.985559778372665 15.91805466442662 2.948963925292605 18.264090897707753 0.15825862374096308 
7.377778553647531 3.206874393729284 31.18921102342157 2.949882000413144 16.27768611935274 0.1300644137981556 
2.3167502586374296 5.5961487067971385 29.209273156377257 2.9536033877995393 8.932072681879387 0.32628344352708033 
6.728832004253553 7.8070632386379 33.55707461546233 2.953898526218855 3.091140838649153 0.3611260494047062 
2.305539101693185 5.48728789028109 5.275406140936866 2.9540066899944275 9.042741898382321 0.3843100843715568 
4.2266364863380375 8.021098902289332 12.053535773720803 2.9540247133975863 5.685195867210293 0.38545168032556876 
4.403017503476352 2.4198131863966594 6.357981471643207 2.954206619265427 13.06233322543321 0.5064017685984349 
3.5072946849976745 2.864105554673639 30.357528255247814 2.9545751165229386 12.059208269171673 0.4214480274784048 
6.51317751013157 7.921299286782766 19.183672155838757 2.954903941191373 3.3363443562822663 0.4894330880230267 
8.043203300739599 4.284813274649821 39.208926259552165 2.955261425670289 17.58522943334422 0.46623129610433317 
2.438971254424784 4.325762007895371 3.4426893763824467 2.959070542332468 10.23616063699459 0.38522514860285817 
7.89465351481613 3.9226302816429506 14.085934185589444 2.9590712364930645 17.21591604922522 0.28469350739185434 
6.76330898911072 7.792895625709075 13.116097618586437 2.9591252524645975 3.059671363304158 0.5095622066440655 
6.363571271478992 7.993296075304501 7.236631154481202 2.9606949071872326 3.508994942402172 0.2322686438934504 
2.4425565961664075 6.190724307869375 6.791412415205393 2.9608614775340407 8.344503959175693 0.36636052414562575 
6.876365450702793 2.7719924571507875 32.73794658374443 2.964048913506201 15.689286313012463 0.3876703599051081 
2.4726597280527205 4.2136019036892325 37.28500128714154 2.9644122520689957 10.371740424278524 0.2585677574705647 
2.4568439492524714 4.252995210859181 10.128649972040378 2.9657611625680964 10.334021714586662 0.25212450856768226 
7.208037333022637 7.478122053401018 2.49539038705624 2.9662161219915153 2.52077162507649 0.4192315070881558 
8.013485502629104 4.17216344166081 11.08688645928041 2.9662406796707685 17.53435330762953 0.5435196113893679 
5.429564729559568 8.211184693819664 36.40688495692848 2.9666240548835403 4.480287613177456 0.47010174353280004 
7.416494365313838 7.2775193804802605 14.50118413091566 2.9672432783915217 2.2321792939604936 0.5479196001109875 
2.2833954086549006 5.3934160688327015 32.99122932508551 2.9700691860947033 9.187275675729088 0.3037611542629598 
3.27154191494426 7.465954962455006 6.989887974581045 2.9706485470266246 6.8314005085161345 0.4288366070754869 
7.293832834275956 7.4060244199725584 8.924108109191224 2.970806953334819 2.412607187373613 0.5094001089607186 
7.341960584079708 3.140242315111573 5.236166104908854 2.971090132306473 16.321836644116136 0.24433192911981358 
6.221193580029956 2.4412121436431384 27.4779876712376 2.971953262066747 14.994366518337458 0.3731368922899725 
4.221603963875449 8.038388807155375 29.340569295645835 2.971987642468599 5.718497731353379 0.21387859578146634 
6.112878270904867 2.4055617770821254 31.487674263402525 2.9724380085034525 14.882765564153303 0.39323981955099174 
2.6160191797892027 3.8712593693502786 8.269946394736287 2.9730086928636346 10.77364489426703 0.12551642219601172 
7.29629380165494 3.0931088830130538 35.95031996453323 2.9731292627850245 16.267418705287096 0.31524295700710897 
2.280645562241064 5.4071204679996825 20.932963320307877 2.973508469552948 9.184358687947299 0.3856985078444518 
4.883420487059326 2.299055588673122 37.423806128510485 2.973626314460032 13.645369458244271 0.267289494337525 
3.953974624239139 2.571821615646865 4.769685086064598 2.975285067524194 12.679735282363007 0.1668215415380037 
4.636444115445572 8.161388997487379 37.83622955771245 2.9753380846824644 5.291639890349682 0.5538406894603429 
2.586127165723558 3.923996438352832 25.667493994705588 2.975651848368183 10.722633341105013 0.40520204872725846 
7.781840013352195 6.814474667137993 0.6697265352654114 2.976204770731975 1.647305222223853 0.3819995419015586 
4.8168121301704385 8.19464969146917 13.464293062857386 2.976342308276547 5.109959567402047 0.6952863144073498 
3.387703916139623 2.9282321213746716 12.797813793785856 2.976365701014924 12.013705102024527 0.26727224402978783 
4.105360629975422 2.5023973982771928 14.620284533104986 2.97649447242964 12.851486210219687 0.1073825682986924 
2.455807068185929 4.224286605475769 30.207981518047973 2.9765083752454213 10.39815932341666 0.18495529671863278 
6.556393580042917 2.574005590277899 19.418499317131108 2.977853298408314 15.385210064485104 0.4196589042268458 
7.565277018416876 7.122748188088365 29.44731112959655 2.97786726500655 2.0253176025023247 0.47096569493506246 
8.158500802523845 5.890671976314286 39.14138526357454 2.9782272410808917 0.6457190906512587 0.3280960304878628 
5.652046710972767 8.201639571191217 2.0413661280240873 2.978895385210077 4.275960518722943 0.44997241666866455 
7.383785093513037 7.329500714445315 23.659149795376226 2.979490232686961 2.3017002421781587 0.49213524498294875 
8.124076437553935 6.036968725009359 23.307898720381242 2.9798716655328588 0.7964163557087858 0.3031378077174463 
3.830534223255227 7.870895989171573 34.89949153074557 2.98060042229838 6.161390323971741 0.2095688695610546 
4.033750158614998 7.972108471660174 32.43232547106597 2.981465781818251 5.936067222055836 0.486215711659606 
5.9781146480059935 2.3582750797862646 5.033673115678845 2.981983225108086 14.787815810080238 0.7512042219687315 
2.273388688507251 5.067055657340033 1.9508300145772495 2.9822279477293265 9.55200469174843 0.3013819372627225 
2.270533576021945 5.379773241102054 25.48578935047159 2.9822912778128674 9.239330138471624 0.3542751198632069 
3.7046982619505346 2.699062058774196 28.57457169957685 2.9824892022610983 12.430215323428389 0.25869406167057085 
4.713556671761781 8.184167029879504 4.256432946115439 2.9828019719121834 5.22475244956998 0.6214984757196553 
6.396187620173354 8.004180965486547 4.153701520639231 2.983162558642602 3.5094957322568163 0.26417774761968377 
7.8925785419625045 3.8657252825511312 32.490349721291366 2.983192558955728 17.304462312839522 0.35309387259590536 
2.3148690632234024 5.784350844561853 37.68075768673603 2.98337467326969 8.835298046662967 0.5049746762831411 
4.741186812910553 2.3102532780640352 16.31208314628492 2.983454649980349 13.547886253914744 0.4838352824122301 
3.1654677876051087 7.384691285365417 37.71387145155791 2.983652363853235 6.994596604346093 0.23549640459350502 
5.003323564146811 8.22360827515353 22.28288013555685 2.9838222866093735 4.933935377934596 0.48752127232889536 
8.125608160200716 4.453156425152388 2.1490533186365894 2.9839708399696 17.942210061471172 0.5241487723308668 
3.07575165822141 3.20617377672429 27.24557886239282 2.984054537483589 11.626117714757275 0.27457088293882 
2.2680926135505866 5.369687561715086 8.441965759346925 2.984308424709296 9.255761752682307 0.4394710484206405 
7.761693581993374 3.637893722050066 0.6907475718808271 2.9845420588814426 17.049398345315534 0.35815074465392066 
8.208744231619075 5.6480437389491485 29.72990548411658 2.9853988420738324 0.3992326071344401 0.298520333492762 
4.522725971827933 8.145578951690199 20.71960307672184 2.985515864557571 5.424303432628523 0.405091457470578 
4.086598453507874 2.4994941038286616 17.943576596849393 2.98643363282253 12.878197150592879 0.11610601228868331 
7.92890673245356 3.9271122306552755 26.723517352924592 2.9877371590330477 17.402065810261877 0.6026644254745934 
2.890164178039832 3.417502724761478 36.06749390158592 2.9877870356441107 11.359152746549327 0.059812823314102585 
7.281120787519786 3.0587167038452225 17.44141528897829 2.9878377026709377 16.3132165770392 0.14955824691026673 
4.913013612886015 2.281038462379385 3.491688000355886 2.9880248387472785 13.743030455707718 0.2197900422578925 
6.584165851596452 2.57631941123525 6.466820050628115 2.9880706836190307 15.463971095478225 0.260616882312147 
2.607493111719485 3.8542485934820228 33.20360975432906 2.988471957942199 10.84079795186651 0.3354751542855453 
7.482321313412967 7.2370272778358 39.0346840269631 2.988567524614652 2.173668848184157 0.5286733488064749 
8.127771554097173 6.058929543199561 5.316326265213803 2.9893036184757005 0.8191426193250564 0.4135296852221167 
7.884883861160606 3.8378913370400127 37.165577129808085 2.9894253357144187 17.312389612059487 0.31658566995228615 
7.608899749887609 3.4135315989470882 24.36190309558983 2.989485610951432 16.80591698036074 0.6005619669262547 
7.928625643379 6.579256060127779 33.51921430812152 2.990310520791109 1.3774552685753108 0.33618462143038147 
6.140131937874312 8.105248565950845 23.298352354400876 2.990782379276073 3.794083382381686 0.5281784724251717 
2.2595375434439156 5.3062361816012995 36.087604251483114 2.9909911755457497 9.34023640857826 0.4681094839213813 
5.1168502303899235 8.238156875744178 27.829568793756387 2.9911219258339203 4.831637117552258 0.4104757393610722 
2.834268536668123 3.486151436167596 39.133984842404274 2.9911402941127996 11.283385391141675 0.1988991611077619 
6.346302476962412 2.466599443832221 34.13435728015345 2.991520980549698 15.219665520610683 0.4230895751667793 
2.462540160360801 6.337153774820724 3.593614113855324 2.9919618459646724 8.286904769688196 0.33867674153680816 
2.863128863973021 7.0542168944298655 20.75114091638106 2.992048198499628 7.463159445854252 0.11046841301766736 
7.179108325408576 7.53716919139614 26.504217811956096 2.992089878535128 2.603472291201477 0.4892830835168627 
7.74397114471868 3.5966829995195404 6.717304237979526 2.992214760802959 17.048973146459417 0.3509720026930684 
6.990258009144439 2.815536142045003 8.13300086740211 2.9925093507089473 15.959073289684198 0.3409440137852745 
7.293858286706312 7.436940017502902 11.748892585537277 2.9933364889857694 2.4521543168454016 0.5083913281005015 
6.782166259731002 7.82212220008611 28.04870798975834 2.993884777280831 3.094353737509092 0.22869407232157382 
7.602027006534362 7.103236107102454 20.64242667310625 2.994413984093592 1.9982881604854867 0.4384237666245721 
8.220274604079275 4.8676685933867425 9.660730616867681 2.99478021365862 18.43338136089527 0.6169138709359466 
4.787453655043171 2.2909415434341582 9.971200121523456 2.9949918314757964 13.649161385107949 0.19355608497695215 
5.01654983859407 8.237133557364125 0.5900792317454773 2.996241957417876 4.940172868603582 0.3482409211624571 
3.7201735398085853 2.6736528545677807 7.908545321984775 2.996320011627354 12.514259992595296 0.18316175920078753 
8.23848209281406 5.02970201101078 13.098490793089368 2.9965908000631316 18.607638375135398 0.8662419067926714 
8.218502631509415 5.660030281425129 26.398940545813232 2.996686954782546 0.41132060394634706 0.3086988388771232 
