440

4.625120367239383 3.837341114274345 1.9023639302583 0.9211629412717492 4.215612745299449 0.3634995649672363 
5.515432309028083 4.220160673885209 17.277188291621563 0.9309223013774246 5.285504245971055 0.498511343530977 
4.646262021852774 3.824529823620283 18.75327117559327 0.9312661356875234 4.2845345474954755 0.42114232961603415 
5.431012733746057 4.102579566854667 33.32935874440781 0.9396443799535903 5.1897206659711035 0.4670051755871835 
4.087863889329817 4.079997143726111 36.57329157039796 0.9419809214992654 3.704713089997493 0.1101804673974116 
3.9656434635792612 5.272844048032839 6.53233873317388 0.9426457843693465 2.4071810762844468 0.3751627936086974 
4.426107963719797 5.635257588500574 36.65665755341481 0.9426489533031828 1.8113391016868743 0.35305333596409794 
5.436151688883681 5.396977211258232 20.522690815310874 0.9430713928676924 0.7129820164574259 0.33486614646278784 
5.52795711410889 4.216597614193288 27.934885482791465 0.9432578526452469 5.359740811886774 0.4916763398367436 
5.694757358269122 4.743312413841833 2.5229386554566133 0.9447810274408961 5.92954662811292 0.2716937329939143 
3.8104286739517637 4.645701066701399 12.392664762492757 0.945342553902695 3.074392920496268 0.7085246190625779 
4.109843648306034 4.04961867434717 37.59403267255623 0.9488593973489134 3.7687619369639958 0.2557061490277773 
5.456193110044415 5.3839259269980335 21.586983647226994 0.9489840828984026 0.6942050133203459 0.21479524882485007 
3.882912297407362 4.359105430411812 33.71824799788539 0.951125464132315 3.390878906536045 0.46862599702272706 
4.195658936704245 5.526368442865287 9.262930564981403 0.9539612012723246 2.090003581875804 0.24822635161252585 
5.0692240421206165 5.649371368822722 30.87433075941187 0.9543441979316905 1.1735821206028216 0.4318546605120265 
3.797044803380823 4.685208910872052 35.181501213844264 0.9551552187963397 3.0655494981489912 0.6293362355433086 
5.319918464080313 3.982562851390221 1.177114941275832 0.9559115193185881 5.1152294976201595 0.5821980145942016 
5.409628446239706 5.444679882293012 6.936516214544753 0.9579612862486866 0.7771689089744491 0.5208605839201593 
4.677618671924234 5.705248830624375 5.2658436167600655 0.9579871528696251 1.577253073094969 0.4495812586998733 
5.645357802376329 4.405141417991203 38.012908915304415 0.9594753961729738 5.675809929419657 0.5353943978877242 
5.57679749441402 4.258771029142203 31.796600816390274 0.9617172134153105 5.527075176134037 0.5443981515929531 
4.069984051629166 5.430612555755488 19.551718514148824 0.9621097344329823 2.2664957900904987 0.4933642460805151 
4.1561417327743175 5.508168509758539 35.67302600147063 0.9630613328037687 2.152691225709745 0.5410316532049328 
5.70102898146115 4.598022233650186 27.019641589952776 0.9630957195646279 5.89869319438529 0.07830520190137219 
5.623365035521761 4.337977246016445 12.35752646563062 0.9656755330193043 5.641843450043565 0.628878763906832 
5.480304664845518 5.383149748161683 8.042078228368304 0.9665523819702306 0.6903715907877466 0.3412004655756359 
5.6965462456461236 4.946115850840204 30.380063625851854 0.9666494825413965 0.197486790924577 0.13559390119170592 
4.260447029214729 3.9160046313882084 19.75161457919458 0.9670627622189785 4.04385534061999 0.3503824453371283 
4.69068453317718 3.7837659054119612 13.505198047672451 0.9680530203190187 4.502489740295967 0.4967056584597797 
4.146998169894999 5.510501178104558 11.965901011627906 0.9705530634686603 2.1751970638646068 0.6170329911635662 
5.7195389207502725 4.899426765396658 18.02426303215065 0.9809862777157021 0.15001072393709514 0.4345327595297324 
3.8245997356478085 4.4204034045270895 2.348862048174915 0.982343913815543 3.422241040182918 0.34015270141555054 
5.111394634550949 5.664707109299533 14.201970982086124 0.9835116561003869 1.1748312497178457 0.4303691285915744 
4.97117154328348 5.709330725847666 32.905848491371145 0.9844959589118725 1.3233671158712497 0.4091404625466028 
5.389423929056506 4.000316998869922 22.809733782659393 0.9853362691149958 5.339122551236244 0.36357864064280637 
4.989515502140254 5.707077613580127 12.471104033650136 0.986592739777528 1.3078033303893832 0.42619524693847927 
5.714750434067101 4.54059716681353 36.50381540577984 0.9872147418769526 5.991847391176204 0.4094749821963643 
5.727442380515228 4.894069822267554 13.923709204346046 0.9880028951958972 0.14458533572954657 0.37475721214531077 
4.4379896390589835 5.688247337609914 13.460656346630778 0.9887661664249205 1.870585483136339 0.39871626882227457 
5.639223230052753 4.317514072569398 14.794011910989802 0.9888185021989417 5.76531231236557 0.23043430889262795 
5.683304931286928 4.42138874485425 20.40195960077812 0.9894662458987482 5.882026608771371 0.5953792768600245 
5.205795567510839 3.8716312728090987 7.329974350213007 0.9895863884823246 5.136993425843048 0.3303414469067863 
4.011393437087023 4.085859200301325 16.29340266455459 0.9932888082539337 3.84795608957843 0.44672561623303275 
3.784335537012688 4.993851810436658 38.048848870675016 0.9959776907791693 2.8825999401471254 0.542163700014307 
4.800663721078717 5.747431559992423 10.11631506245304 0.9987174422740717 1.5180962137988523 0.4603910612137204 
5.703512420216072 4.440377174581068 5.127574579317688 1.0025229321699913 5.984268226132002 0.2961336576963348 
4.039886087051213 5.457693340841068 27.074402316849287 1.0025425846487677 2.3638969179158167 0.38160909467170595 
3.7550149595015636 4.623243491761992 0.6673563947489214 1.0030266413193467 3.278197475862134 0.5390910000493352 
4.2954498506082395 5.644826217010051 31.53513353022955 1.003658207240191 2.0482699598039904 0.4456794770625912 
5.59703217297724 4.210724430365669 18.786047153248518 1.0041322831494734 5.7398628902237405 0.33122726813888054 
4.988045720827863 3.770357871862611 0.24076283159112677 1.008149028877185 4.991105482046908 0.29997615796480603 
4.465331888122833 5.717809672513413 20.426270218783372 1.0088069667335935 1.8732184333546602 0.397161044918475 
4.977933204596878 3.7662628025362466 34.775994502419444 1.0097982072828415 4.988476461529812 0.24247094644312778 
5.2158602661766 5.647108954637984 1.248347975195685 1.0108562034700035 1.103688776472385 0.12097420302724698 
3.8490087816597196 4.290380525648933 18.299029616395543 1.011452043711936 3.654688353315251 0.17201274351264292 
3.758240650896955 4.550694847601459 39.00651566141858 1.0115874407612537 3.3786133121728543 0.43797490297674574 
3.913055626770472 5.322497783874491 18.046114426814512 1.0140165661476002 2.5772885856450465 0.5026904913303399 
5.763954145524497 4.770244061989832 10.85789793336145 1.0141562164046318 0.020245406641809183 0.6659041610316224 
4.798354438442802 5.765729558439032 25.659790419316195 1.0168798786503106 1.5489384982242136 0.542683209697943 
5.635177733157688 5.251001244634672 11.854325642544943 1.0171243121682214 0.5238558766635233 0.47572974966061166 
5.294216068474636 3.8900689870601344 21.223511251112413 1.017670121503906 5.369859107408882 0.3035547740083153 
3.819536628900126 4.337080269734541 29.282651660821223 1.0179709173650493 3.6232240118913808 0.14585733521130678 
4.387397579534605 3.796145246942311 35.599237482112976 1.0204505893271398 4.438057892268631 0.4689852610414127 
5.192074550527376 3.8255576213226057 38.7546155924829 1.024706601773746 5.285898233740024 0.4485798970092093 
3.7964443787383964 4.373370160008716 22.34861704030297 1.0252406347835934 3.606549392440587 0.16768564187706944 
3.863289171392532 5.265484138339387 21.08881197655309 1.025660757974705 2.682106635957318 0.4258476868513583 
4.165528445542319 3.9030662306343658 7.47191773843484 1.0290305183336672 4.227603341199284 0.3683142309915851 
5.1906556022176815 5.682751235689352 28.606899211615286 1.031601777550733 1.1651431737059035 0.2565188735590045 
3.805775765888738 4.330819123012214 20.69210217881612 1.0330885789298239 3.6771728126793874 0.20707407612334366 
5.265608901993929 3.853402930951086 19.672671075700364 1.0342818010786474 5.4137187188423015 0.4715024954477179 
3.7619987567683317 4.43826530598046 28.264592974934665 1.0360139845015515 3.571375345502842 0.163352516634466 
5.493433769776796 5.4822627852605645 23.142752350635988 1.043504938523098 0.8116677078684962 0.4410944087315926 
3.7252364153219455 4.539855522331035 26.76416609385072 1.0460884790384495 3.4979680620683986 0.19074566752476674 
4.758206849495319 3.7032430935314977 29.605969654437857 1.0467890779035418 4.941084249070975 0.44094215507737083 
4.603137889581656 3.7125643354656663 27.99216852567939 1.0477791931148102 4.790195829329571 0.6850887918865601 
3.7156970257876676 4.581531724885458 8.090939501076825 1.0479333004464282 3.4613820693820205 0.1430591821514697 
4.499654819652903 5.769040883343985 30.001302376147088 1.0493412368002657 1.901084343363312 0.27936314295818826 
3.8812648678382864 5.340129325787974 24.511074389283777 1.0502158592437079 2.672690922624497 0.3382749269849215 
5.049492439616064 5.761391269824667 37.6074149391231 1.0548023616131776 1.3532097799273952 0.5862810111571636 
5.679072904254695 4.24767286952121 24.838479232527995 1.0561765986023883 6.112652748703569 0.6949188199857128 
4.453610529211563 5.764152982167447 22.66416092402637 1.056576069023607 1.9600869294988827 0.3299869403551071 
4.556504716432293 5.788911623762614 18.73271285269567 1.0567770752396255 1.8545746435456305 0.22601207558397743 
5.2932202173750245 5.656646209146045 2.3261023522521143 1.0569274114734029 1.0896916449200322 0.30601768326471496 
4.0457686301152975 3.9604140289384606 39.79450559229624 1.058011260822341 4.2151881052149704 0.3705567959223352 
4.136792275947666 3.8876392495035805 5.596251577561951 1.0581539476060162 4.33236291693877 0.5444561425872135 
3.9407983978513244 5.431969235811662 7.5868767702767315 1.0582482088402183 2.5835141950412694 0.42234263687368967 
5.357870548993159 3.880724987856812 23.90245860304615 1.0607288301303877 5.645871958918542 0.44245107855357435 
3.724803790758564 5.04847009782719 16.370715097430505 1.067760116664779 3.0519669518476773 0.6172468783848406 
5.812581065358079 4.8952732592952675 28.61260325253871 1.0724657758286646 0.1457212298236339 0.3326162174603163 
4.634673413682744 3.683357070643954 11.023118634189743 1.0728594317322462 4.940181112932342 0.4498389795922703 
3.992100887062941 3.986860481103207 8.978201264284749 1.0755431142882226 4.227353467004702 0.34624977739481494 
5.784335307891347 5.04844781755469 35.63989625691898 1.076531759380023 0.30240938602980805 0.3674873885644451 
4.549241294585115 3.690986808912937 6.494563204924475 1.0778742954056653 4.877425001212108 0.43927543312853967 
5.221178258086171 5.7225435133883185 16.666036994283772 1.0806710120692649 1.2099639120855201 0.3801033682061964 
4.063684961758594 5.585534413412837 3.792735598517986 1.0812705894980397 2.442001591810241 0.4174950271393804 
3.9674818755468007 5.4969604438731015 39.45695796092516 1.0817968939726406 2.574069222364571 0.4137419295376929 
4.549744865570328 5.813901806313762 8.294197980994795 1.082584487392614 1.9019348483382235 0.28671247463874233 
5.319627151752972 5.675153307157387 10.98030225371712 1.0864546625416307 1.106993630679609 0.37198454707369083 
5.287410419126614 5.699489137948165 3.8922651092236364 1.0910268473632492 1.1518542504483982 0.2984170457982653 
4.189101230805884 3.812586821761725 11.97890445065162 1.0924060124414643 4.558812918786904 0.5956372606045058 
5.591379465406577 5.457517048070217 4.916783302600983 1.0993178694617196 0.7686298618186882 0.4685364318753028 
5.434764089961742 5.610374804868572 36.622086303942105 1.0996120514771417 0.988074262530894 0.42067818754698827 
4.048229250308157 3.9006277930440483 3.2936506996101613 1.1017782585766849 4.43119982323141 0.39671427818678734 
5.4529814820652796 3.89463887492464 8.37435476429387 1.1071700946182035 5.979066023249921 0.0810452213624916 
4.787814646830421 5.856580907387848 6.257158744237302 1.1072268295657524 1.7014058349621415 0.5178132838497657 
5.539040088022865 3.966417497498316 15.742716244215863 1.1120187942359308 6.117501734071457 0.5951921277887677 
3.9245220873675972 3.999925636921315 31.248514055932013 1.1153588366045448 4.326665219672211 0.354098512592921 
5.797755641396705 5.134908810533274 12.945752214595466 1.1162198154954805 0.3929766584158614 0.4005990113983022 
5.729444970835511 5.299390030972834 14.965036210232114 1.1230057243965006 0.5740673025072951 0.38773078988723736 
3.825564859790216 5.3975399017918 2.104645976651085 1.1286665817978396 2.8561480404390416 0.5612086341794328 
5.338565635981857 5.7184841606828645 24.648118609364722 1.1333009650363515 1.1613171383738372 0.3471339127991743 
4.3722147531021225 5.8228296094789584 38.4314764515858 1.1374027711186847 2.171729013849264 0.314342997953946 
3.6280038054504065 4.47794398744707 4.759867326741592 1.1545085251092653 3.9016344391866706 0.30082646725209033 
5.916228076765449 4.8283699600707894 1.0035465344897574 1.168858322328902 0.07842879752957188 0.2290231152329622 
3.733622817536368 5.346059124700242 22.087001258603195 1.1782652745333406 3.076677460677651 0.5560527973083328 
4.896605354440895 3.580395798434603 31.28277763450435 1.178756598399421 5.701745578330744 0.30506332024307176 
3.7336157333721474 5.349320752347754 5.299798880382696 1.1799247186339108 3.078200674365572 0.5666920978321446 
3.5825891996108865 4.922736658330555 31.05871086329315 1.1801211505588558 3.5341004482018707 0.12262212754224908 
3.692643019304324 4.213212568816493 6.584434962437967 1.1858096520531713 4.282381603746661 0.3944121725679535 
4.093620781591596 3.715147270926261 9.949310268220266 1.2254606681692382 5.0821681840230255 0.0 
3.8114158460012213 5.583690230565436 25.572282113373966 1.255380266962106 3.032134492924042 0.0 
5.856620455878014 5.379430456851923 38.31977600192398 1.2731031118414893 0.6583877113275935 0.0 
5.0786696630461154 3.5135122246426356 12.594563595518295 1.2794239977486166 6.361539896431118 0.0 
4.156527867631466 5.883859948633891 23.694126068151313 1.2797841829832484 2.627390559781631 0.0 
3.718905714071653 3.968296855941162 1.4435288503680965 1.293914692669329 4.9042944059893685 0.0 
4.920267115484533 3.4659775885360133 2.866684454175015 1.2952623069313853 6.274541162179387 0.0 
3.5240389399069656 5.195474849905647 13.910966344254646 1.3043881181469326 3.6432327300044776 0.0 
5.443357999787647 5.8562235973354895 18.14670834027359 1.3055558062263746 1.3198106109966457 0.0 
5.901322097476548 4.125702360797398 35.06474174992647 1.3096908468992736 7.578285364530741 0.0 
5.2234783829344344 3.5233863908299554 14.318440740517204 1.31482421840616 6.6803225516735125 0.0 
5.651667730307654 3.77719862921478 10.924594664020603 1.32640386115231 7.241974952665983 0.0 
3.4909336114602088 5.234403315843079 34.34753645627378 1.3490347449752367 3.7426501714592337 0.0 
6.126773295993097 4.691732989679678 8.446406252006831 1.378005715899377 8.599980880437807 0.0 
3.842385428226182 3.6896349049365824 24.068573807477527 1.395757266047727 5.589244992216194 0.0 
4.652407161466073 6.157407078767269 34.98028944048088 1.4107866768215964 2.31372937235842 0.0 
5.644421743002921 5.852757932255779 9.513910326138102 1.4198821470493335 1.2627543489051387 0.0 
6.169056275714141 4.677299596412389 22.917681472774838 1.4209173312777534 8.855154738436084 0.0 
3.5242342581749764 5.481775677436712 37.08270804947184 1.4275844268973428 3.716553092626514 0.0 
4.375776714984182 3.365750376252553 38.29653883395974 1.433942149423392 6.3786862339393515 0.0 
4.616574120824179 3.318294725095827 4.692184001121561 1.4379090581195584 6.64236870301599 0.0 
4.631391967567431 6.191222069784443 15.991818218463216 1.4460943675262965 2.3902611408426413 0.0 
6.014753192832236 5.454695243485586 34.20855246538459 1.4478245836324746 0.735985708199701 0.0 
3.820321234280941 5.866518616702429 29.26241925929458 1.4528993182158279 3.2910148907328995 0.0 
3.3646612721315616 5.259229298274423 23.64840303046524 1.4759667574688802 4.116971459264512 0.0 
6.221312710172656 4.905862538436406 25.636719922029663 1.479545275415202 0.15615226962854223 0.0 
5.792565618588188 5.803664924108576 31.628924032142415 1.4822796097089466 1.1720281139789712 0.0 
4.5525170628308675 3.2783651371082225 21.506851045805355 1.4848261447561617 6.799008522370016 0.0 
5.097972154976352 3.2889902147009042 17.022223742095775 1.5018768968789011 7.428591239924767 0.0 
3.5435337428984433 3.854820378101733 32.23999220581361 1.5023006972595594 5.678612907488585 0.0 
6.135609350689357 4.14440131748986 1.845912255172685 1.5121716294706102 8.878173844116311 0.0 
4.898567576558531 6.256935037597101 21.771027007433396 1.5142409096118907 2.229757085009817 0.0 
5.794102747720288 5.848910345300064 19.63531723553114 1.515834586887555 1.2292927477482216 0.0 
4.4688637367601665 3.2603870822078687 27.093474371986673 1.5159103678521504 6.86078600176873 0.0 
6.135286602859047 4.126389678976242 7.04693934183544 1.519180306793145 8.902689052566702 0.0 
6.203535058868942 4.304935796493465 31.00765983417447 1.5201468062670953 9.099682949376023 0.0 
3.68164128216093 3.6642669337812634 13.727392907250149 1.5232224529147005 5.993966237586197 0.0 
5.994983779573628 5.63356153094981 32.624114278074366 1.5266517580561083 0.9422564293814482 0.0 
6.218655425986698 5.171803883671335 6.405917892316452 1.5280272499403904 0.42735332351186983 0.0 
6.269690123895549 4.911618560534291 21.939233864669227 1.5282600013658802 0.16192133743355264 0.0 
4.234396149205132 3.3109129522064045 14.521272564972563 1.5286657129934533 6.677750120428835 0.0 
5.3310664200328635 6.165426623618469 29.49007327770625 1.5300557870018268 1.807379461596338 0.0 
6.279481888711003 4.865708699656917 9.433648862379872 1.5338524541399905 0.115818725350195 0.0 
3.2824762323510157 5.211587923466899 9.574865227593236 1.5384048295897772 4.364230975607439 0.0 
4.680717822602308 6.294649743479976 27.28369399147276 1.5462027196127028 2.4980749343950777 0.0 
5.625339802071817 6.029702404223626 27.555522859139316 1.5504380066506567 1.5052847387123371 0.0 
4.57803004435678 3.204259926486843 32.37810078966364 1.5552768372570815 7.156747109836864 0.0 
5.499014706661524 6.113875429231566 39.68335276064595 1.5560138872313583 1.662728419156247 0.0 
6.182533366021793 4.137091376381186 32.65468101916773 1.5581427488109174 9.16017104850306 0.0 
3.532777412881317 5.728273855393649 11.191690105226378 1.5616179311017957 3.8487692440556156 0.0 
4.550500481587692 6.300537358583579 0.8647621032564317 1.563318956006766 2.6557006749710705 0.0 
6.308324560618875 4.8897606289232804 39.283397525293665 1.5645793267281287 0.13994716901703264 0.0 
3.197840264439826 4.542078083840011 10.922329428600897 1.5660240636445746 5.128347382634143 0.0 
3.261753613174827 5.237594987168303 17.286064713440346 1.5660862618035565 4.424167617121103 0.0 
3.200568945507589 4.9799385699233385 19.773473711670576 1.566399801635539 4.690217619682876 0.0 
3.2075858789739886 5.04612415452743 3.876612677413938 1.570582960443359 4.636224580533213 0.0 
5.915819029330699 3.6962698523954494 26.53592077604734 1.5714583141528986 8.718835767015559 0.0 
4.969340337463189 3.1918399345385113 33.30655189454271 1.5735224730639898 7.635106910804447 0.0 
5.794265873571252 3.5716079262472515 5.656820492063659 1.5745155109394218 8.561452141915373 0.0 
5.356941800321614 3.2951696060186 24.871040058625837 1.5763596747664277 8.051456579562416 0.0 
3.1684453439831017 4.737139816470717 25.941570792570268 1.581606940516238 4.981625070433536 0.0 
5.74232016157838 3.5128888153473943 9.814271084330272 1.585920359371022 8.545613656247372 0.0 
5.227743289692542 3.236703097017891 30.360519763098935 1.5869171898437213 7.963442070189778 0.0 
3.970167760774837 3.3533766859027283 25.52635370422081 1.5995921363944565 6.723313787947799 0.0 
4.866001197457603 3.148286126016246 28.775805963096147 1.6059089675083227 7.683770034544263 0.0 
3.773032814911165 6.02768073672569 33.75249617453034 1.6083945242819984 3.576429392509443 0.0 
3.4428196858205684 5.703759120339355 32.84565510328361 1.6181399301076342 4.063563185174662 0.0 
6.273856949404685 4.154333541413676 4.355732058137924 1.6361413545698706 9.67050107415227 0.0 
3.794851858058504 3.4027584181286077 29.841058754892565 1.6514744481758177 6.763896075990431 0.0 
3.2350941728811264 5.487356581812534 15.596491135336088 1.6848247368141847 4.52984310150039 0.0 
3.172639382024947 4.12323310722797 27.49119842322211 1.6973223786345781 5.974258924995759 0.0 
5.229819182823547 3.117622747778224 36.899871739476666 1.7014352593550472 8.504242858314804 0.0 
3.9843808990683263 3.2193026104961584 34.746831533270324 1.7114926543649838 7.271447788779538 0.0 
5.121811793687711 3.061324986689746 16.02794914740472 1.7291232779948507 8.523039861384104 0.0 
4.183130758088304 3.089537877324725 23.139553117448344 1.7545584054869257 7.690936290626354 0.0 
3.1016977728969337 4.1371044127392445 36.40900471328145 1.7585622629741136 6.150721312152308 0.0 
4.137262938363241 6.426222264343302 3.2159242681000535 1.7847038371067128 3.428868111360238 0.0 
4.321694603621081 3.006167651320977 0.1960288973724147 1.7956605394301857 8.029376641871886 0.0 
6.347530179912736 5.5872856866565765 3.5905720531504315 1.8036490780670151 0.8707135473286787 0.0 
4.26861371560599 6.499038055967443 7.5285420520564905 1.8140746610944753 3.336764629124362 0.0 
6.559630351117507 4.981492443397322 16.228413705686535 1.8243768138835077 0.23211818588279165 0.0 
3.3343901519232206 3.591590686018426 16.859415973471386 1.8291701344301523 7.000965090097528 0.0 
4.738788235321264 6.584900176809398 10.896791597379547 1.8349344300335022 2.8935200970497306 0.0 
3.215018053710434 5.772508876542501 27.54452694032826 1.8443681785487187 4.710436204490412 0.0 
6.065125599402139 3.3901617222167513 18.420926085081284 1.8917493184688463 10.368816972196061 0.0 
2.916174321851365 5.215735861775906 7.663286815108918 1.8920429463364292 5.473455956223663 0.0 
6.523154213270599 5.417068221724335 30.045371320582753 1.8944803710975058 0.6816834225233386 0.0 
5.757472576927865 6.374860094687561 17.348113794088803 1.9118502348692856 1.9420081999347154 0.0 
5.579793980309214 6.5139259082757555 35.25000779662383 1.949356986199259 2.204893893586494 0.0 
3.924930265047175 2.9517759842554314 7.679191000031636 1.9784715510554212 8.472251726468235 0.0 
6.768313709568821 5.092598356595609 24.246959242920177 2.0471843747389884 0.34421800840762806 0.0 
4.24003296069735 6.764186939788681 17.412595953108806 2.0777428641654385 3.7789421476882374 0.0 
2.7022032061190515 5.400051766006636 31.112562781183136 2.1484969182005913 6.089300075010126 0.0 
3.258020802783701 3.075616846921225 9.994841176717742 2.242668247476698 8.93598789465221 0.21036539541502544 
6.981216543332258 5.0797665460104735 0.9970522493182727 2.255454109067004 0.3309528930563399 0.24611113008156058 
2.96141114860625 3.3676358627130902 6.519426396074188 2.260526639388928 8.589044425974292 0.17853286890853534 
4.337886762914485 6.988445956334779 19.62394666448408 2.2760662599345878 3.989635435112101 0.4790241910991547 
6.705383336769373 5.988584305415214 25.562162476438587 2.3146522579722886 1.306929545881232 0.5098324770495647 
2.5940767414270063 5.611741560253471 36.71387358314861 2.321767346984638 6.411182803845341 0.3196392530772487 
6.918092237989502 3.899791045225065 35.063512423394556 2.3288364517951488 13.762184022803154 0.22450883928756085 
7.0570072225436755 5.184140918473229 7.877227201108973 2.34750093971471 0.43665453948641186 0.41681805050456994 
2.66960504984731 5.853729421141976 22.327203516458106 2.3550502720144237 6.249864990283498 0.07713328401648777 
2.42294271871107 4.360641235046202 24.5032650521853 2.3594058231355985 7.803440011570835 0.5168966263247196 
4.634837649816176 7.109078945492442 11.837664096320104 2.3618881933668217 3.8252533286848696 0.349394361807709 
4.265598961874673 7.064321725042596 34.75484393393733 2.3644723328347537 4.2019595409939186 0.1932455765463034 
3.6278170798803275 6.83346991696491 30.623060391799243 2.3664617894878597 4.8863997732839515 0.1727407558441434 
4.593279616477583 7.1137993768279255 14.420928830056056 2.368988976864075 3.878034106240481 0.41596295818179735 
2.3935855619222393 4.999696341981021 29.620936643908585 2.3696069858058815 7.194179135716633 0.29904792582632983 
6.5539568540904805 6.286927210951751 19.130810868145744 2.36989569035938 1.6722929114118834 0.42561235586775104 
5.714261312894852 6.915465879999454 13.330412570880107 2.370451930959054 2.7304423834130507 0.21468210401779136 
2.7855956634230763 3.4223837299036255 24.246435216072634 2.370959585945497 8.857707763768921 0.1816317589228485 
3.2249112803502253 2.930406064879943 14.286822002949322 2.3741983260731776 9.531969610896272 0.5562121669820675 
2.4563793832611633 4.130328363921173 14.814292508114207 2.3758553133745415 8.09089120781143 0.6559494935474091 
6.3513666636110635 6.509750506705592 12.63242671254897 2.379305999062626 1.9807382483328908 0.16085968352092497 
6.8753222350354655 5.829115863500139 0.3362951062716135 2.3835867195455274 1.1198619491106552 0.4931355256660882 
6.746178880524919 3.4468521906944094 9.74225883838109 2.383888490670584 13.599677154555826 0.22843405769534156 
7.1334599562979495 4.608300815440536 29.74277237455499 2.3876683233189326 14.860380033918114 0.2808109282571474 
4.144313435138477 2.4394370804216674 37.872952785965424 2.388630825427842 10.643784948762486 0.4643899828277041 
6.7916435576540355 3.505109268353783 30.72869709388368 2.391246819182176 13.715302272985387 0.3418937859236015 
2.831005478472557 3.3172926004095524 17.703207092741934 2.3948257695484974 9.059409284909018 0.40091279857903656 
4.586542822415146 2.360492712569177 4.387880306661621 2.39509150672558 11.123018492215927 0.33157436587649436 
7.111262120343259 4.347768150300407 18.911273181970152 2.395276447903394 14.645819077233599 0.4163905021532156 
2.865392621166272 3.2682164012492763 38.311375825829536 2.3973793203999194 9.128972700857254 0.24993790297829885 
6.6096835829713 6.263790960714706 13.57179354968818 2.397912863620054 1.6383072497210982 0.5056893716689643 
2.435326220493561 4.122266783261678 2.9160408687041866 2.3982834896924223 8.16956102164269 0.3869173954597551 
6.524981343627976 6.364754711374253 34.0041516637126 2.3995815360459667 1.7712874552400226 0.34843584697093244 
5.607311362540431 6.993114191243155 20.648936185300187 2.4013629561766305 2.8953977453889177 0.5232584159711507 
2.8351509403191955 6.199307249956959 25.28207773346395 2.401486711630579 5.988597251304718 0.3878015496005544 
4.149055913643448 7.07591041760945 2.383585023192154 2.402289130323633 4.380901977401351 0.39431903032476046 
6.591507020976861 3.2049973285022535 32.84472324684525 2.403784799694484 13.425424149629546 0.40950139999352103 
6.761363686713938 6.069625650273355 37.32560895143144 2.405617537575511 1.3968002943099336 0.6706910064532914 
3.6871492292926575 2.5895715157182533 21.398283405050478 2.4077173830184297 10.2452989245046 0.3363610689474223 
3.752659283810873 6.941954143614716 36.261448258500245 2.4081842686718047 4.811073097253681 0.43006789567826 
7.139568686825552 4.450006011021143 25.931989451003247 2.4083261619806917 14.831184288494253 0.15850471404334537 
2.500924473233356 5.612784761454119 12.820370964328426 2.4088873509772317 6.685357097217551 0.48159895761906046 
5.16048251966836 2.375095259787299 19.25147253027351 2.4101179274131064 11.769906566549654 0.4500990924438455 
3.5388442816197703 2.665956411026844 37.092045791249255 2.4104223395299926 10.089883650351648 0.35289560352508365 
3.7126258328831447 6.927731362521177 23.58665141521675 2.4121896795048534 4.8614064565131265 0.45585896042045027 
7.16014255511643 4.851169712469314 20.48877531509077 2.4122650034157256 0.10119939454324012 0.5371017547218072 
5.999429240915099 2.6861050993957782 11.18233955055124 2.412620067228532 12.68254274363024 0.5538202361962381 
7.105797351340797 5.271077933379493 12.175624783535405 2.412737734035624 0.525216154546591 0.4854735863937166 
2.3471908741653573 4.969689757047 2.314430860521284 2.4128313833638706 7.360138907452638 0.3336330216100711 
3.3564131454508086 6.720224569965048 9.720175784997842 2.413269395916308 5.276422263546726 0.4298129779270583 
2.4325806974793913 4.075256839976598 4.769812550836001 2.413650876927622 8.266563792720024 0.4444987915161478 
6.988199981286172 3.845038695168313 11.604255997012089 2.414227437395261 14.241420533510704 0.5249479185714544 
6.406981876310118 6.506549003001359 21.098410711114035 2.414757407766934 1.9669606022055497 0.33177792749512813 
3.2500211635019127 2.8561761622845108 30.500731942139133 2.4158860151591566 9.766273160272977 0.764157493822917 
6.309790321715685 6.594949633975878 10.102630516023467 2.415943914834456 2.099350829177565 0.5005049773425458 
2.3600671871204693 5.109113707010563 20.496071416408036 2.4167626082511986 7.232035113678027 0.4983845266353797 
2.5594446667366206 3.7245857560340117 9.66328086151347 2.4186787797921765 8.657423420728728 0.47936136982643673 
6.471794860051451 3.0504005189722516 11.991140088897687 2.419342046096294 13.316722210537618 0.5010334206569539 
3.7687519749834637 2.5385021841971653 16.73878037367851 2.4194152756192087 10.390866105548351 0.49630778605858084 
4.050886989914346 7.066898562193968 5.730497013998999 2.4200780872458405 4.510670887832479 0.3601393535305195 
6.838154632874065 3.5233110846951714 3.098064419049088 2.421808304908784 13.930347875068737 0.3583671001551058 
3.229200492555359 2.864905411545843 35.35023611307727 2.422067866361925 9.769521893842896 0.7593596459614151 
5.904425791534054 6.879675087146461 7.63846157674859 2.422439861992719 2.601856402255766 0.4341636159633778 
2.883972864791752 3.2045937484920355 21.220577653520287 2.422877989402972 9.287574265119197 0.3094791687767712 
4.658528442561899 2.3280125599865666 10.184534596610348 2.423714134423237 11.329990493073822 0.4022359046109099 
5.117937745501955 2.353707564742514 17.452153319403727 2.424375305070837 11.793964507816622 0.4155936259618762 
3.9969790610553666 2.4444108133511193 20.341220829914597 2.4254447081063932 10.663963755742852 0.5568753196261296 
2.957987644189492 3.1154386745430998 25.195342305095174 2.4255100515266794 9.413581874311458 0.3419045552159283 
5.272451310212178 2.380710286904547 12.753147328941061 2.426208794832456 11.959815213196006 0.5510006266517323 
3.4328968617168627 2.7123232058302147 18.29495482400759 2.4262908717574114 10.041365834374055 0.33363384453446304 
2.7414775988683253 3.3863369626949353 11.873010574737222 2.427702435464409 9.074856194518961 0.47672319393798407 
7.1678116606893045 4.978361141968948 36.237651859622936 2.4285720161705195 0.22869900996956538 0.3968203073139552 
3.5008743508332323 6.833875818931061 28.08653619651397 2.429578835134167 5.128336433616322 0.44681046794435714 
4.2120764364053915 7.120517527401715 22.013794869100764 2.4307848748889858 4.3606817248992495 0.33577740262759226 
2.387129171346089 4.176402377023491 35.03235143587962 2.4314959975266075 8.217825551497043 0.45897237430850973 
3.075929046988672 6.513749020542013 6.123741642836116 2.431732749127494 5.6662161465186855 0.7359664338676307 
5.235883523474408 7.132699171876345 35.96317830308488 2.4317356233859195 3.3305853075172216 0.6620673320444115 
5.514002931319004 7.060583802916529 3.2236983472436904 2.433618291631668 3.0455745780839845 0.5872094069461498 
5.607538099760214 2.472177623057755 38.22354693167241 2.433895308643979 12.345812795350037 0.6580108157409966 
7.02575107064173 3.8843730508672873 13.620300757070325 2.434820927828533 14.413446479722628 0.5608082087130178 
4.715034978230529 2.3151473202879593 33.784933727789536 2.4351037194847036 11.440189710436174 0.526025793526355 
6.294663089024754 2.8671396768140074 21.74223129443257 2.4353946405508005 13.149753805816582 0.5104253799458002 
5.05739582815114 7.166959112671975 16.148631983594342 2.436428440872588 3.518915598299291 0.49613502725229286 
2.3447483236131728 5.138581037888962 38.692470239832524 2.436438148151623 7.264048664584212 0.46511177713344615 
5.980316560136851 2.6461625023786564 32.27230408154227 2.4371727584528364 12.774573439503637 0.5595388032200089 
6.684121031190896 6.2337777214101795 7.541335610072025 2.4377080403215037 1.595217910179496 0.5757098195833348 
7.149271881492799 4.318761211737497 17.91165550547352 2.4377186986656434 14.883118008394478 0.28744876029232524 
2.8362097635637173 3.2391662802175407 15.281757199092851 2.4382804592397815 9.28951916788853 0.2738307324310427 
2.3170110508209136 4.587638969233968 3.8181769960505534 2.438400363176433 7.822941911390821 0.5593990861585931 
3.4788217600719573 2.6691497422279564 19.356110247677556 2.4384076593007467 10.153524406059127 0.3228873086240417 
6.847441750497426 3.5053014197519916 36.141856639877375 2.438962167070477 14.018193234166876 0.3646094422604926 
7.030366820856113 5.615756914800324 17.085735263678856 2.439181804045362 0.8850501320745963 0.4889741418058701 
2.4425895350587297 3.9586901142216373 33.285687517860566 2.439326626151377 8.469260779063731 0.4533812806509217 
2.313029477647108 4.6267479050513955 37.81806483156281 2.4400853275502787 7.78905870528307 0.5375106175015741 
5.412573278510742 2.4012794074841874 8.608031349693718 2.4403876272232465 12.171051695730801 0.7294261566661596 
7.050848825951471 5.563572959790758 4.398724597836406 2.44045206484064 0.8294500212133133 0.34373479297276444 
6.931512783924763 5.84465637146196 39.3205346195331 2.4407520558240705 1.1351371037428706 0.5609624483836745 
7.074488964734513 4.005059887703565 19.961479532156957 2.4409393106099055 14.579856783366605 0.546579359569574 
6.414576983151635 6.535433146842161 24.759415026616928 2.4410219283490484 2.002649818754483 0.4027150044344701 
2.3940742268209814 4.110854796913152 23.531978095617397 2.441084357280199 8.315575485708923 0.3741915721012767 
5.579535817303259 2.4539771566327477 22.355447613964266 2.4412805183864514 12.350653691922192 0.6855348450205978 
6.754316000116756 6.144776295240861 31.35198755952436 2.44186067212891 1.484553216049104 0.7754281397472599 
4.950502688920754 7.1837673128466815 26.839317251533593 2.4420124203913063 3.6351754895485 0.5315917132776082 
5.628424569129281 2.4708011740047198 14.335272791805508 2.442616836932929 12.409114670225026 0.7837044689556495 
5.119579855452827 7.164761980223769 17.154263270232576 2.442880408593664 3.4662631572927385 0.47761158499924394 
5.193680907302106 7.152459289965103 4.307748055059001 2.443084809711698 3.3914319716662735 0.6700397819532721 
2.618882672877427 5.944846636955804 29.342638733503982 2.443219095334405 6.42712457164726 0.4655194154605329 
2.9669452347321092 6.422498211271254 15.159997735626675 2.4446951880858427 5.838365950714781 0.6760897329886405 
7.16309266179316 4.3580829295076295 39.30787287670253 2.444711677180628 14.966960992046989 0.42739758280525836 
7.125555227270395 5.329576820430427 32.603569843448994 2.4452345344755653 0.5851455464177633 0.5190573165313499 
3.3244848138388745 6.736872836744135 34.389082031303055 2.44535421061401 5.363026149629931 0.48515450649575015 
2.8218218097527785 6.255396058077784 30.470158559897335 2.4462396499568833 6.0635176853227435 0.45016159975841674 
5.31553303501764 2.369170558176412 35.462594832206236 2.447075079508244 12.10226183203159 0.7436850678971108 
7.080140338759193 5.498933095101767 29.174861473252705 2.4475405572230113 0.7611422667260879 0.4771381208314312 
4.387991509884797 7.170920406953751 27.705080123174966 2.447836956114643 4.208394541617704 0.3889404484022034 
2.362153274414691 4.208194639370754 30.236655227559297 2.448543451461515 8.238653269434671 0.4344747145244276 
6.590483636707742 6.365744520391603 30.357179854066402 2.449083578027595 1.7644794644199742 0.4763784449574797 
2.3028324588245708 4.646215310912558 36.786927369230995 2.4493673134651677 7.798730127791245 0.3977703401995119 
6.342169225757354 6.612403109331323 18.204310346253543 2.4502139059877517 2.1156719388682177 0.41246435300788087 
3.8524197107022555 2.46991915713118 27.03444925101708 2.450391606611729 10.628227228513236 0.6889304337752835 
4.140605278320338 7.1235824304324336 25.047100274385095 2.450562278512541 4.465191220875635 0.3013201041312416 
2.568630134814251 5.867367535965736 2.7797099784921464 2.4508946732103003 6.539495221779351 0.677116477306367 
3.025763470451926 6.491901322876611 10.734742804462336 2.4509614090122436 5.762450818367199 0.8360928414166079 
3.7486340699578875 2.5120977479546625 12.641416631983155 2.4517218878899576 10.521935894652936 0.6003586499801016 
4.692837421722169 2.2987078302014963 21.74050123143521 2.4519585767444823 11.497414819915003 0.5350297129084913 
5.69257468766233 2.485899410695386 27.50396000250275 2.4524678428699622 12.524455986685554 0.6351078040278323 
7.188342726175846 5.015519572770737 14.667768386254224 2.452756794673904 0.26604092308279803 0.35360758015463 
5.0612042917190045 7.183138852829229 31.235165689194368 2.4529600054488196 3.5410553267199862 0.6120530215781262 
6.252208485663026 2.8107812733973656 3.517548085910093 2.452998084794269 13.176225232165063 0.4889574263904736 
6.724956290693569 3.2924491523730346 37.63448066509634 2.454568561594518 13.861924814742817 0.5366512169091981 
6.502616274890091 3.0314116458035993 25.996896955635236 2.4546302650682654 13.519096472854129 0.4484718016031773 
5.975414362593011 6.877077925244956 19.69731462547795 2.4548117769217286 2.5729718762316853 0.51829487149819 
5.271190718327155 2.3500953355144523 24.323309760054684 2.4558465268599057 12.098088653694475 0.7670688621990592 
2.5053275659868444 3.753667098160114 12.790263018904959 2.4558569965100223 8.741214137193646 0.43313601454860023 
3.5115168565449864 2.6290251856574596 26.065435426922086 2.4560893020608154 10.27597230474459 0.5115359544625175 
2.310957465879241 5.040113643947791 15.388646679859058 2.456235821262869 7.425699949062841 0.5212716912231151 
6.866987894773959 5.9959282522855855 8.546121562517527 2.4564150619272165 1.3066877275435989 0.7649667395969014 
2.7500676596248983 6.176971225397354 1.2795365963105496 2.456822387595461 6.195755153568577 0.4841671949020545 
6.780280652955211 3.366278258547643 17.64719236204256 2.45697484470887 13.967791195053747 0.4836944078287468 
7.0434445604741365 5.632371426857651 38.19350123347112 2.457329299646918 0.9025258974374495 0.3857403638675868 
2.641120219994768 6.011576077166816 35.78398186819622 2.4574271352360637 6.395410625434041 0.4941642077308105 
7.111635626790458 5.429493938268685 9.413965113217834 2.4574447798210755 0.6884645377099439 0.48494607273290874 
5.650222810272745 7.0366708946105 25.297321311847462 2.457491584602914 2.938539955375818 0.6379077493513622 
2.6821104323582636 6.0783429107114095 9.298011457325579 2.457775854792049 6.317964624020185 0.549831737396459 
4.887835109983926 2.296054414384262 5.9527978656666996 2.457813551656685 11.720080957862262 0.5702899874799962 
5.372427799689313 7.127727872786885 23.595177775356426 2.457845846031384 3.231494938506545 0.7160289274029109 
6.126231269695363 2.713511310668924 9.238394977708545 2.4579053459115774 13.043313868819487 0.6969279055135125 
6.359005057693172 6.608494411500924 0.8189111659967452 2.458230817735059 2.1072573663018623 0.41301623476863825 
3.427167469797787 6.821987700674721 8.085075576426519 2.4582552623168543 5.258206862802405 0.5430925779673791 
7.083412511475471 5.524095573448269 34.40532438957209 2.4584625084679406 0.7874933897875795 0.4416538309153137 
3.3375897472316307 2.7376066038528286 28.54162626902999 2.4585829054522357 10.081218845061953 0.5283831575170381 
4.8198881775173845 2.292382325192026 30.47707223731645 2.458611191889693 11.655829880615293 0.5483974412306751 
6.580956667122363 3.1090968688127916 20.126933440144967 2.458651134833857 13.651595751515348 0.708164064923218 
2.767996310822271 6.205035354966093 0.2153044816159806 2.458753039269179 6.167364547512523 0.4523512741070809 
2.996866550659453 6.474839156387976 12.616183132095635 2.4593793946046376 5.81478348595526 0.7176406455715846 
6.534783250133355 3.057893581478841 33.84528676518527 2.459405493520148 13.58682807675005 0.5906672272061908 
2.345299707895025 5.267217842667573 13.811399183178814 2.4596946541437714 7.206251317806457 0.44952304651290687 
5.142621036633094 7.178342293557472 2.301171010892837 2.459877552458011 3.4696591552260845 0.5213487629062914 
2.5462822744620617 5.843203840849912 11.327430037317242 2.4599728558459946 6.595413418856323 0.6577198943459546 
5.965137668966338 2.610974172475917 1.8819925527293293 2.46007947947948 12.863773070486387 0.6337657658208881 
2.79849973185459 3.2520868783823964 27.829268579491185 2.46010101753684 9.339143921126297 0.11585780728985098 
2.505465884904277 5.758004094825651 23.83480618118481 2.4604889044687477 6.691283379751994 0.6423349802942852 
3.9746356312134754 2.414821829892815 29.937461173959555 2.460537947386478 10.806205410462644 0.6451929345214884 
6.482008375225282 3.0007861250400447 39.619829695003766 2.4616259245065955 13.521329185487323 0.5037409484674049 
4.9136988398616115 2.29350502185173 2.9253077266528464 2.4619433153181474 11.765454252727087 0.6469934961121184 
3.608286305725196 6.931301728662836 4.729065035779158 2.4620291206974176 5.054534817773158 0.5220345428410638 
7.095457113503441 4.001019949969319 6.738326532089218 2.462141382339337 14.709049833553268 0.5431246274920946 
3.429169274797249 6.828362384725301 16.741014754010777 2.462556396690371 5.262289388571521 0.5017349285277555 
3.964581961044674 2.41523106780485 32.33544758727969 2.4633366523193923 10.808826341253072 0.6345932091904698 
2.286564164535065 4.710553471585564 6.3018001786347 2.4637516400921533 7.779552266707869 0.599621914080911 
4.847208571692453 7.211880383469843 33.897782878769334 2.4637988004145357 3.772892295877762 0.580759293541242 
5.716737667876113 2.4836985265493325 5.401390089568771 2.4638798848676067 12.604197380198935 0.6885677450903879 
5.85725187040916 2.5488232960996555 25.324774945328898 2.4639775945243825 12.759598222593667 0.6448510362629982 
6.671865086038104 3.207853493061302 16.56665976664535 2.464098467552683 13.816124658180602 0.6908394209085562 
3.189667509457057 2.842637284704473 4.024560162169763 2.4642788009361816 9.922995000037755 0.6906495151596382 
7.156559969097852 4.218560580349871 22.95317470852116 2.4645402698317422 14.94951666158265 0.4400072589926728 
7.145494462991599 4.168862546431386 36.88330904614361 2.4649775784302013 14.901250735976904 0.49927039385092503 
4.574696551036003 2.290954577524853 1.0035119149291418 2.4652861272101148 11.441935657517744 0.5148146304323972 
4.388578970188344 7.18897012620174 33.0023895020639 2.4656034631089088 4.23568889320341 0.4850321630921526 
6.776591337003462 3.345071151447387 26.917243343500417 2.4659475900174486 13.99919874484115 0.49093958780353114 
3.2578084534112497 6.71339020039703 13.551978182007218 2.4660771866926674 5.476347613934495 0.5988574242449766 
6.4043256641499235 6.5789730459289 11.634010462574722 2.4661581064075198 2.060462065418294 0.49315542170634474 
6.125960464799448 6.796641132606867 29.49002460963326 2.4661725662186393 2.414142822435428 0.7122428908084236 
7.21518354854768 4.829472786733929 33.55718079212268 2.466464240945202 0.07948654480053285 0.685906230723999 
3.0751802811263573 2.9393075623655864 32.175950379641236 2.4665012050340547 9.78202841584875 0.7006024802536877 
7.198507343595342 4.450278980086933 9.721829979182814 2.466783513285682 15.198794504410827 0.7463605717561024 
5.2468115057287426 7.166363014123462 22.09890027978745 2.4669073529924628 3.3747763999404494 0.6095871182694476 
6.4743503757696095 6.514821232143266 27.11408245408427 2.4673828644619533 1.966495828758223 0.4587094422916452 
7.13658133260735 4.12368947820954 3.842041095437189 2.467394440873875 14.869857393511676 0.6091650256785803 
7.214958837562483 4.639422489541882 16.94591363311615 2.467437832387373 15.39275457767752 0.8506141369999719 
6.720326647508539 3.264617848024937 1.5410899953072033 2.4674981733100263 13.909800718245558 0.6469638968668703 
4.515728661779118 2.2934471178813585 34.807381122484756 2.4676983451299743 11.394129813082847 0.5874260891087318 
2.7596582937002427 3.290851017651107 37.269062434494984 2.467909208323118 9.314381380806784 0.3758211595104639 
2.2818803955823297 4.757373330507129 12.332006436590987 2.4681306180414357 7.74648767626444 0.5875333888668913 
7.19130368398713 5.116793995626784 25.181006330449947 2.4687044198682413 0.3681570938094012 0.5141922293455963 
7.214904789296705 4.610552379060817 27.859537779435584 2.4688461392487437 15.372695913148526 0.8669478689099266 
4.974973983309148 7.208871935155207 5.2997358502561696 2.469142459774221 3.653233472643034 0.5410867783902927 
7.209979309213689 4.962957700917762 6.388442921133645 2.469179860629764 0.21322260038027352 0.4588952971893504 
5.397820769543902 7.133818776210559 10.361315814789329 2.4702760386779565 3.224814641933996 0.724176804809261 
2.407033766961737 5.53334840351352 18.611220534757635 2.470450463062289 6.964041650166683 0.4626987486579675 
2.557303551575493 3.6112082795509544 3.842944158148754 2.4707821226277216 8.945727299508585 0.5842741148907264 
7.134148984946451 5.398587067417809 19.020886145247516 2.4707957354752805 0.6562766691228177 0.5078239701019464 
6.312241820724712 2.835563412017134 36.80644856621444 2.4709647823934557 13.335375547993484 0.603824018855599 
3.0763343735146593 2.932116148523839 8.240834999884356 2.471003506014584 9.80561473186066 0.6934888066350359 
5.008891791897695 2.2918467273821435 1.9165190018262095 2.4717488690386573 11.907209640533376 0.677585466702406 
2.407856876301187 5.540041884565465 34.346984169537095 2.471801082461407 6.961239881306225 0.46725255044666963 
3.5020902517968615 2.6161166342602433 23.879493957019136 2.471990485062848 10.340869598085419 0.6027507972026561 
3.357083507973064 2.707619840645979 33.19300042722338 2.4721515060941512 10.17003960809155 0.6158159217009218 
6.054693096246031 6.84996130938133 27.975651668894372 2.4722583959389453 2.5090123028995457 0.6429451313098727 
3.923967093799596 7.080208841378985 0.8445386015079706 2.472287120576143 4.725688954510193 0.58844751451995 
2.3301518164716795 4.240507166307005 8.809051346832774 2.4729027839585256 8.282021229644673 0.3895965602964186 
6.913716603154595 5.947486188297205 36.32027823771474 2.4729825535028382 1.2500433436814937 0.781307036590633 
7.222206211533387 4.816034332718022 26.87814120544057 2.4730879655689124 0.06604218179110966 0.5758981519696179 
3.7200482592716417 6.998545820310371 18.25556155357537 2.4732082189465183 4.947223675552838 0.5985080826431628 
5.163465315562842 7.188563595768418 29.488744851607862 2.4733673357955697 3.4697406831369797 0.5383419609699067 
5.082007027646425 2.2988811093187023 39.08416017874485 2.473502068457056 11.989116021428218 0.6812042860179879 
2.863033242537533 6.349256445225805 37.34826187142686 2.473512628098894 6.031748812342377 0.7224798078465653 
4.283936445265561 2.3206761651643113 28.46805516268082 2.4736267971447266 11.187825599434277 0.6308103427222952 
2.409008064027641 3.9501072433350757 39.724863602602774 2.4738778600514264 8.586446506366848 0.553717373551458 
5.913614623361298 6.933168953274565 1.6833251156137443 2.4739089858445107 2.674552155449234 0.7297061718041684 
6.805630475663062 3.372953786820319 24.365181262476064 2.4742418890858757 14.085746527985663 0.6039663960281643 
5.882046782573024 6.950451784589548 26.38933162339554 2.474574301619827 2.711259668071907 0.6500741104317648 
4.253011036850937 2.3257276015608923 18.77099015832512 2.4746908274218185 11.161313917827252 0.7388634066247489 
5.745295787982493 7.015829945001497 0.06291361923533145 2.474792727733211 2.8631047433461934 0.6819201010335185 
6.935570990800062 5.911484184825162 6.559306283383798 2.475028498305774 1.208993335032087 0.7585531086619787 
2.477910905065986 3.7682717694159846 25.882325854396726 2.4751119518202978 8.78527691618134 0.5256706520817254 
6.926238328716557 3.570785405032608 27.93365861080737 2.475188947203656 14.322962436192242 0.7032066633180332 
