62

2.871681931547238 2.888415304581037 9.17683185656896 0.5233240419463383 2.0432554171341506 0.0 
2.6347259220746233 3.205086249399086 3.9859649250651827 0.6169112058959243 1.9830372351339012 0.0 
3.8474445928884293 3.559196795809166 21.102776453403212 0.6727129403469769 0.3212707262538341 0.059885683973382536 
2.770756341220003 3.743458068949641 24.202850904746967 0.6878774238862231 1.6107215325743436 0.12905392179057804 
3.9339378242086473 3.443424089257194 19.044454897176763 0.7107628477123953 0.1958947792451946 0.6465995379208188 
3.1274913028187132 3.9918962825885806 34.53408844771402 0.7519431328257555 1.30420676143169 0.5091490515291627 
3.979533205103521 2.9839165161504475 15.052090976230879 0.7765430559383879 4.607577622316628 0.08177690524643952 
2.7216132802924466 3.824345165123086 30.011609787647146 0.7804260978872843 1.8063287445763674 0.5438935814965155 
3.1344470082031917 2.446108349527467 39.93691304549809 0.812154098439851 3.711239571078064 0.4755032180479386 
3.898892010064638 2.7505173110625325 7.2457209250953625 0.8188673868667193 4.607902249416006 0.325636470729072 
2.9312563276582937 4.030165416653809 31.934072035604824 0.8427666379256404 1.6506927836487275 0.4538520457499175 
2.41646173574152 3.1068482398506836 2.3377978280368907 0.8457413696969582 2.8008191393004704 1.0 
3.069294455504651 4.078435884433446 26.45680370777041 0.8479153898994798 1.5140045745318034 0.40955520362635717 
3.575879560610306 4.055506029231081 22.533425734509166 0.8689289102977233 1.0308631930720544 0.10507885878695819 
2.78261547787498 2.5115965753675744 31.300103868862674 0.873892389846099 3.624976900482052 0.17030209589921294 
2.846631470767905 2.471809276391636 10.79445077845007 0.8765198073546152 3.7113392078944702 0.5920923393216889 
3.0971306125295035 4.1208506685886075 7.626988771808865 0.8841662381061783 1.5424865252857565 0.1579057663620188 
4.132640000212766 3.174737236429518 4.850036014425683 0.8858430185737536 5.490562232462066 0.3819641143710793 
4.146073879480843 3.3024695739440637 30.405902993048514 0.8976087419793337 0.052499501127709625 0.2597432580883802 
3.9747940223785054 3.7845458225259274 33.300146551314484 0.9005918116747083 0.5722919959975732 0.5403622158687195 
2.3796281266118022 2.975712478917248 35.64370586147567 0.9125682671488202 3.145512668097437 0.5396946153155101 
3.4859809163331086 4.131744862536856 12.891201348560777 0.9127765309666718 1.1950939867749026 0.22711082884549155 
3.3099148231176025 2.3383438993937506 36.77245576900684 0.913622806086738 4.365303895581097 0.44272823997231436 
3.1456071856355807 4.157885430737814 0.848760845997127 0.913867504092857 1.5401209122472403 0.1784292292479954 
2.7073548048967417 3.9883461799033544 28.002297163990505 0.9163072023871306 2.020084997051315 0.3704953265847596 
3.631999346180457 2.412788448893707 16.845218724058896 0.9202427298208351 4.730461342954515 0.46825901391096003 
3.9999484429640955 2.7096848761698773 13.294129043988335 0.9243176402859743 5.230577641965974 0.41913051827356873 
2.6796952579330844 3.981824201772099 10.711744254442088 0.9278007119653343 2.07157698649163 0.3022029373417371 
2.7022000920719185 4.003309494766668 14.66808235987645 0.9314289742281089 2.04871451954996 0.42538371178891915 
2.632136051342287 2.544545599489492 13.949625408626826 0.9377749038284939 3.744614354219726 0.6650825721331916 
3.2448153719047896 4.1883574328599416 17.936323299364624 0.9383717558473209 1.4791755617272209 0.2192374889266285 
4.144061061851163 2.951397265388657 27.005061588692175 0.9426074344263387 5.6187402229829555 0.5816159847205856 
3.8700077621483064 2.536152506267097 22.230800182836557 0.945509317475453 5.13179967145798 0.37159793543326236 
2.7425763988781044 2.4492457692186616 29.252671402392963 0.9479905321730405 3.931857777449313 0.14938441257603574 
4.1314466412543425 2.8950804456551484 34.98666369560611 0.9502189597323919 5.606663961584475 0.0 
4.086162027357714 3.7049054749803645 28.790737086800007 0.9518959644635926 0.47428766321479987 0.0 
3.0037918830114965 4.170395782726306 37.75649008692267 0.9527574894648658 1.7456221134687784 0.0 
4.2064117949867486 3.2797431832866444 23.863584721513135 0.956874170694244 0.02974797499439319 0.0 
4.1956873626205535 3.3961014870435644 25.46967029736983 0.9569065954086416 0.14667516640014977 0.0 
3.212861568869008 2.2934636830158617 19.776462959200423 0.9572570129157854 4.473819644909165 0.0 
3.797291063907217 4.035646348803198 9.531699559495088 0.9574798661175544 0.9214283316014047 0.0 
2.290042602543961 3.290459028986241 33.19323289315744 0.960809626282481 2.978001467939851 0.0 
3.3007144047422345 2.2883107166905114 24.748769618670664 0.9630255596196172 4.588888909537014 0.0 
2.3069743066124317 3.0546823157658896 16.214639266550776 0.9630402152369751 3.2221621714506146 0.0 
4.211008989330811 3.1773168045937723 11.272109146178579 0.963753663790227 5.98269058779754 0.0 
3.682593492333762 4.111330079493392 16.450328279755325 0.9638602779706257 1.0654118095367817 0.0 
2.3982759125685478 3.712738926787903 39.61125176363351 0.9693096695461983 2.5627679706404507 0.0 
3.5543220048268482 2.3286833663890505 33.244027861516386 0.9702763637181134 4.881865901364778 0.0 
2.306931770779947 2.999828954123764 17.940743465930872 0.9756860341108998 3.3182047365007072 0.0 
3.639201596741686 4.150583943543859 2.8877955758398954 0.9810857874188615 1.1408770516527857 0.0 
4.062340113286089 2.6981094880765966 1.8118847696792386 0.9820792212468054 5.584525042051853 0.0 
2.334184731454898 2.8938512283070317 38.31555881465287 0.9826288992690708 3.4514667290119654 0.0 
2.7399669488837857 4.092703812186787 5.934553628539035 0.9850296585915883 2.083392413400153 0.0 
2.76663787160669 2.390914801575856 26.415599554329262 0.9857313656957262 4.139960830493 0.0 
4.1433407307543515 2.831507742101664 38.32883957131809 0.986505667062063 5.766212926960853 0.0 
3.1638170365551055 2.2672449571217133 5.753851938864713 0.986526724164555 4.5626047007801365 0.0 
2.5330957193225316 2.5692042671282858 23.084897588834032 0.9886529105555762 3.856895462854573 0.0 
2.348024068428723 2.842923374668789 6.920058206853341 0.9895817096252941 3.528394007222216 0.0 
3.7799065816531163 2.414235509673439 3.412124927021715 0.9895975285792233 5.222562623912141 0.0 
2.262242853917278 3.1678687386697018 12.039794667068819 0.9911658406771235 3.19606486648164 0.0 
4.127577698350945 3.726476820923642 36.249802785119314 0.9985853881969442 0.49670727969860806 0.0 
2.262721795417966 3.406582537824425 21.727392013687975 0.9996180992730482 2.983162824046156 0.0 
