453

5.858498034242329 4.646498350881155 26.266891939210133 1.1088226697910093 5.33387565192776 0.0 
4.7021653299571575 5.365403707763713 13.925566777500613 1.1161862764546502 3.899246855399272 0.0 
6.263992372742569 4.726519190073574 34.43158824191909 1.1452952141370307 5.930104156274811 0.0 
4.8012271536060975 5.070980957785091 11.856719560864349 1.1667205208381488 4.390095927295524 0.0 
5.715057889555252 4.583755094566419 24.503449376869476 1.166768241996719 5.46331847061106 0.0 
4.583651607717687 5.585238875401826 22.98497703496396 1.1779281813244769 3.8658736800098197 0.0 
6.931832939311681 5.710150972087067 11.50061844423405 1.1825045629796502 7.390038721847177 0.0 
4.617356330189796 5.357702331439414 25.242632762227984 1.1986572251979277 4.165354546061369 0.0 
6.956474304486431 5.946590645404676 35.68542393156766 1.2223862438880135 0.1974481260301495 0.0 
6.374286514639778 6.801794729050604 12.45828239646167 1.2231131609216357 1.2660901329797003 0.0 
5.399221687805635 4.558955834455768 6.624650440529081 1.2416245924525184 5.495397484979702 0.0 
6.993401593872889 5.565946302266319 13.067797081528461 1.2569499939516606 7.71293187966243 0.0 
4.493058257265806 5.817998848176147 35.775775006194344 1.2587797217865222 3.8865411632688476 0.0 
6.968663107763799 5.3560227501422375 9.454418659776401 1.2807645543307347 7.646809958897655 0.0 
6.3493764190424375 6.911179929406062 9.317695521027652 1.3067482237063128 1.4299610416811515 0.0 
7.023432159244327 6.071995310386506 29.639927452571595 1.3135107323918498 0.32531077823829335 0.0 
5.598433463280446 7.075044210123853 21.690340562935443 1.3336845855883288 2.246841547151483 0.0 
4.779288391864406 4.782947213777898 3.1516515770115703 1.370208786101271 5.378210141051456 0.0 
7.121800608051587 5.971587292474837 20.44066668913679 1.3895818926702486 0.22253731090135886 0.0 
7.1363323641706975 5.618993551785771 27.52899657272353 1.3925085685268956 8.618188900752667 0.0 
6.250733046518123 7.12666030161361 25.49885931582864 1.4648983479798847 1.790021361423463 0.0 
4.506373709815064 6.579874033913425 12.27925764780111 1.495091054686263 3.8171924541482536 0.0 
6.862385770435316 4.750155759205875 15.31565358090192 1.4956906792903926 8.30260545992388 0.0 
5.904988941389381 4.242223980290051 13.379115460318573 1.515720982755524 7.2979271690588465 0.0 
7.272891202920353 5.427241201007322 24.642343342975963 1.5567179764682466 9.456030406729374 0.0 
4.505931264393978 6.778922559996425 38.403677625560405 1.6144313715305363 3.956271673193779 0.0 
4.268786031519299 6.458309197854091 33.799818583561674 1.6418577100915441 4.425694227717063 0.0 
7.190036071277361 6.610437238138261 6.574253259024772 1.6775148665078725 0.9034881425233987 0.0 
4.642630886145608 4.487671509777374 17.671893395943442 1.67920801914069 6.703885204766905 0.0 
4.349875190012289 6.728394794952374 4.142549054903732 1.7081000726927629 4.324360184993653 0.0 
6.345656019836969 4.1278352489164 18.43198762198385 1.7280696090221999 8.751466822868881 0.0 
5.969616701595907 4.032144748119794 32.71283798760838 1.7318366441533302 8.381297534623062 0.0 
5.20397276683137 4.041917747942415 16.95481341745119 1.7932347083290292 7.895581897781344 0.0 
5.550771684175045 7.536813440221627 26.860716743065225 1.7978860342032514 3.023751098641604 0.0 
3.9958378740641116 5.294290733977894 22.16783149029871 1.812389499860978 6.154442648464817 0.0 
5.916883681643522 3.928394497461108 4.1630095231136295 1.8292339298402687 8.787177867023686 0.0 
4.476698985096782 4.423166083175367 31.350225093937944 1.838962674278564 7.259445686280529 0.0 
5.284685214484513 3.9693962882993805 1.8661277342141247 1.8403987143391904 8.202254020729997 0.0 
4.148913887347387 6.662909564987208 30.847871748172423 1.843062835058587 4.835067448816634 0.0 
7.421954278395504 4.937297574528077 14.371482203402106 1.8590095054660112 10.839393870260253 0.12116412336100103 
6.898622761558083 7.21534684647304 11.713927374847003 1.8618742247632611 1.6868139571263345 0.32446811178809454 
6.672722448579499 4.130054434145791 0.5023308872681085 1.8643069364896063 9.750616529419865 0.22295709330444588 
6.846871467538041 7.283795130846978 1.3599118920878794 1.8856443248155146 1.7913325404339524 0.3975116186466358 
4.853153838450757 4.078907838242099 19.132703240502504 1.8965447662985206 8.003092112103873 0.09699358132802507 
4.3577856237727985 7.043558630842412 22.53690025623978 1.900409114059546 4.5475093064002685 0.5257654812135781 
7.122095774128564 4.414745687970216 7.94407358612056 1.9145628459717887 10.551910652142602 0.13373371064836148 
5.421633326697886 3.8634285922065494 15.045395104032838 1.9149350769253908 8.693921378835334 0.23088397705097186 
4.248546073174777 4.560069674026483 8.745613300009445 1.9158022014420815 7.3025689183963856 0.4221661975824959 
4.297748308939751 4.489281504294539 26.49177741888662 1.923134446574445 7.416584691614901 0.32000030220946424 
5.005811207662054 7.523686845501494 24.618980327838138 1.9234817349136568 3.7855278089048348 0.10058958779140509 
4.112196263304099 6.761568859013579 14.1707023441585 1.9250123730670108 4.982519751317268 0.24712775454331998 
4.740362183151413 7.390219160657345 29.58189897837272 1.9260548840046767 4.088189514337785 0.32511509102085934 
4.95299940979962 7.50387196932712 35.48123882058775 1.9264674473167571 3.847777202575511 0.11576519453746276 
3.8240132194131524 5.682806119547417 6.671517155724992 1.927158555118278 6.121554661509849 0.4230531773381599 
7.441966872780995 6.680823905603386 36.953373244864366 1.9311097953847787 0.9712576044456487 0.17389863014503268 
7.5812176176073445 5.133935971710448 20.14464522184376 1.9320695769013776 11.51253891576767 0.058224262106026006 
7.660704506568725 5.356947331100683 31.932550745726488 1.9507132316029727 11.860930662783607 0.08460760161719827 
7.047082482186632 4.29269164438062 21.289414895209102 1.9509409547583694 10.612497519360792 0.38852987364634556 
4.0861496642954105 6.775202713637723 8.887820706977514 1.9543383902677745 5.0605118791530685 0.3751111334501542 
7.648114618533675 5.278107035747104 16.488421749734314 1.9558941880384593 11.812650277261657 0.0458200783392966 
3.852824464903809 5.231596672611739 10.668206378272899 1.9667274902270346 6.703258729289185 0.5058751888622388 
4.219128037474274 6.986263952759158 28.112867253552636 1.9677188636944738 4.845038787159517 0.28486822073512635 
7.657082765429276 5.261520024109155 18.04441913459801 1.9686486128925331 11.875747396560556 0.1406753154427287 
7.260681969084963 4.481083692784308 9.001263195721805 1.972893460488005 11.017717102442106 0.3745076860832397 
7.054185341181363 4.267061526314956 28.176521384613693 1.974843264891589 10.730783903331808 0.13592530950623755 
7.233197426717009 4.4440361327306395 31.72690068874101 1.9762125971749844 10.990203413283577 0.38405028670351804 
5.833953204906178 7.7260663243687855 30.607418066015583 1.9778488968873176 3.022819346729559 0.24452627211824007 
5.110234508237081 3.8780976849340902 35.086045998656246 1.9782108486204817 8.670621073869754 0.338672608386486 
7.665434987398136 5.240925659601283 0.016769926081657616 1.981930340602636 11.93799045036237 0.5263947618084651 
6.758679901735406 4.042345653152437 12.897919176282954 1.983309989001298 10.404302389203767 0.2756810207994511 
6.856944392694342 4.100861162257151 35.81522996952423 1.9861985788609564 10.533886012614204 0.24068087780584724 
3.766604061965711 5.618840206340251 20.612542045081973 1.9877279337182392 6.375886632633449 0.35683935825613994 
7.531252562707475 4.865702216037374 28.89159963150584 1.9886787731740774 11.578851477842147 0.17544094055693457 
4.146105818910169 6.927347126778975 13.173804951176223 1.9896288098709602 4.990734075003505 0.20541292317564694 
6.822200053319767 4.073150205011697 30.87132473826216 1.990336200065514 10.511534390211771 0.2627445274751657 
4.283093780471691 4.399852768283883 23.97496652548358 1.9936678269464871 7.746530560596192 0.18513448398413293 
7.284618415255928 7.022734029748961 28.36615176166088 1.9937165272233797 1.3804137750381766 0.10647327324945748 
7.645281196791888 5.13038721240911 1.596374539227135 1.9939936864140386 11.89858755916466 0.1271771299693033 
7.108640076798373 7.211509025277054 32.71394626211054 1.995472748310278 1.6399960811843712 0.43411459079196024 
6.6048089677238995 3.946583062843372 22.22536800470682 1.995748235756352 10.288114613345488 0.46682876926821193 
5.4204855312259586 7.720010806349061 10.54154427438418 1.997378872989176 3.4685031644140665 0.35959879861840127 
6.679883323740336 3.9810737335414306 15.948622718513707 1.9984451786169726 10.384653218326068 0.22021779919989232 
5.581214547400121 3.754119757357989 11.874372728275915 2.003004361447594 9.269949835484784 0.3113559250031838 
3.775238558755719 5.393253683881982 39.30402850416274 2.0067263599925567 6.662969449017826 0.34489145705142216 
4.555187597957756 4.135944024329213 29.868589455781866 2.0081716482095184 8.183609009594477 0.42367373169019895 
6.343003391078032 7.669838081438707 2.737683452537702 2.009336029829829 2.554290014939273 0.26071066025689416 
4.350580020117661 4.307996416911131 21.075275005930738 2.009415490568096 7.921068460597249 0.31039278420989447 
4.68040175876984 7.462749890911411 18.898573241907375 2.0192950716672655 4.299139993639898 0.2459254990394398 
4.05612519919074 6.851096327929126 21.483141455360887 2.02030318620637 5.1824517999231325 0.3190437730062202 
5.329643855243468 7.7303467042910405 8.249703748864057 2.0244684135918147 3.603464343565335 0.07117093762584804 
4.93061651746485 3.897053363364746 28.872927475673677 2.026030732656671 8.703900371424247 0.20563443918259794 
6.77968299898742 4.003905054766443 36.82845053713114 2.027090189452336 10.632503839166642 0.2069910100902781 
7.659082962482474 6.438514409813749 14.325572122704724 2.0294457002250725 0.7024572624086751 0.3015576804192457 
5.975529359936965 7.769116209340609 15.441343610779299 2.0316726505555858 2.965348808618476 0.49898541720174544 
5.043200718789134 7.659592216735584 39.571258627814444 2.0361993168983545 3.9202771733223365 0.3087294272688862 
3.746208331054465 5.378680532911465 30.163902488466647 2.03790559133009 6.775674600295805 0.350756144561108 
5.190515405757138 7.712299640128599 0.5691294676784509 2.0405006466168842 3.7719542199161253 0.3658254826248913 
6.884394436326756 4.048700093973617 4.406424150193914 2.044815910397433 10.838486875091586 0.22496207813131477 
5.649848061073184 7.796371459111128 3.500803990408855 2.0488207729168044 3.3184720120894937 0.45617424348976354 
4.1972718568207945 4.412638308659265 5.702819130150445 2.0492684011828484 7.895030599771726 0.11925100849437742 
7.237936764111227 4.339691217565685 12.036348084104759 2.0501040646282185 11.32593360283359 0.299781698806772 
4.2469790633756475 7.147860189288641 6.715015805300958 2.052580094595389 4.9106540621251575 0.2315187617331838 
6.13324895922473 7.766686052403513 17.06155762294751 2.052779188979101 2.838986965816977 0.5434508402848431 
4.297153725372363 4.290635476519379 22.14924601203748 2.059249161731823 8.091261649823345 0.2681377098752725 
7.186644846620707 4.273662791758753 23.606147430724555 2.0599805746072937 11.297267113024155 0.23205787718914647 
5.376226667670332 3.724123279522912 30.32603743964816 2.0600686858772033 9.331989915204918 0.2345183400938205 
3.6901134915014158 5.643577115084863 2.348542892006371 2.0626338158597486 6.5864254027358236 0.5098107500070952 
6.3876455712158755 7.713722210491161 5.896024589427455 2.0646541585620373 2.5949074943808057 0.26139261455148244 
7.759969799866997 5.265285821314587 5.706378877329001 2.0675895219786877 12.501780445370972 0.6002589501153771 
3.9045934342801445 6.682821161466921 25.501296018083494 2.0677719197441586 5.528329831187591 0.23494700736059332 
6.187804986568571 3.7272066149839 25.945025698722844 2.0696295042178923 10.194036980838238 0.5303622307009187 
7.36237075746125 4.450339362914816 38.323304940020776 2.07095563233615 11.607215001672682 0.33351287410346225 
5.324535532336208 7.779940470668533 14.081537305635791 2.0740487765967357 3.6864146446992567 0.2946085617233871 
7.45630284612409 4.56595449920815 26.4237913245318 2.076880629847703 11.789513517043563 0.09330530263267153 
6.807707642126414 7.538742540475996 35.68887312810728 2.078062879780382 2.1545115507046315 0.35844378769996804 
7.276275251655638 4.338037476576009 5.827067749038523 2.0792196400020675 11.511958685493372 0.324432759662816 
5.8282183421110725 3.6716545931019056 22.876793290336032 2.0798167562112315 9.879142355496349 0.6754758975961289 
7.77393469945194 5.2702859898843055 4.175994853648106 2.0800089420833965 12.58500976971509 0.6448764135626535 
5.770880174021187 3.668876256166376 38.933021592987075 2.081228487892484 9.82843871632124 0.5264606506957131 
4.065829152678521 4.525351232864667 19.60552025226191 2.082353487238331 7.85111857960041 0.04308422274261003 
3.663200966224859 5.7192984434123595 0.8014319985206484 2.087024866392772 6.587284652138177 0.3014903255245487 
3.836048469481546 6.5836721226291015 2.0204669954585732 2.087634946350258 5.700909152962883 0.33063745955916907 
4.188987347608393 7.136931995803939 36.79956095643892 2.088142921811479 5.043235862590052 0.22598040074815737 
6.75721473756661 7.58075501010898 14.827900233360104 2.0895323483044015 2.231260171177354 0.41253873217834947 
5.495747060118028 7.824840377779774 11.56231501017556 2.090360531273002 3.5384147034798428 0.11350293870299713 
7.82675549720172 5.989047296073608 7.061756846668644 2.0904681305673307 0.23957135620994308 0.563494827628524 
6.377004585245318 7.7454907629611505 36.62435146424002 2.091678305806589 2.6488045608150337 0.3755393050449137 
5.783554000845054 7.841574650845021 6.72269464541953 2.0918437778739998 3.2523050826261617 0.5240894065181518 
3.884158107872734 4.803778755931555 37.0244926849668 2.092056550178194 7.554262718612954 0.498486452668508 
4.918276939656163 7.669656115279032 2.196287266542811 2.092090545372238 4.14160297045326 0.27704493377114425 
7.575188715298291 6.78017098346983 16.897314483813446 2.0958449612591634 1.0769414157961439 0.6083585410905978 
3.7079825750977893 5.276239768095785 8.129192367532163 2.0962547366525355 7.063467408789801 0.5307115094702792 
7.37144384601182 4.420611365690708 2.9705276710893003 2.0967485034691995 11.734326544777577 0.16467416569160662 
7.841780261425081 5.6014853955602915 34.183265472874 2.0970458387501827 13.02748856884386 0.011712129373373072 
7.236738247149348 7.231300597274499 34.258695155105855 2.0987239158647104 1.6444889077472844 0.20447296884184638 
3.682920912338931 6.1162597583108935 27.83193801175311 2.0992765813974286 6.226928070279104 0.31206476717398823 
4.525233190947777 7.455014067395832 11.794503767935062 2.0993157710486656 4.605311486697392 0.30310828791887756 
3.6574272667985914 5.920607406343089 3.935258955940064 2.099516023000809 6.425028387083682 0.38799412081851026 
4.549798776848434 7.4744963502731965 7.6346463743262944 2.1010403704260634 4.5777758289828405 0.379822905171839 
3.651676280826919 5.870830228954126 18.06227921592599 2.101799794146306 6.4821019076066975 0.46812826011706365 
7.818318409064283 6.129712604599273 1.239797229372769 2.102884377079677 0.3818068778372705 0.6320539327686345 
3.7620829129481397 5.058990922954336 16.57952037518435 2.104592095763988 7.31583966482539 0.5232159299936651 
4.932132713631666 3.8101941305239375 4.310777914576917 2.105173082994668 9.080415535599261 0.5655717299126467 
4.493605557850716 4.060198982321021 32.299668817884324 2.105695721991315 8.576604866672245 0.3955844467332041 
3.6711211055701636 5.4113803081813705 13.672760567019601 2.106276513991733 6.957158407356488 0.5458818838392427 
3.8900616485918746 4.760933516685143 15.111797710992718 2.1065666805149075 7.64754279956022 0.47395346995718146 
4.953905392322465 3.7989920127295447 11.050779535281123 2.1071779210039105 9.113478150913672 0.5540702749076858 
4.3034124169838535 4.216197279659588 35.677171272877345 2.108356331425064 8.341175164953576 0.45134166499164363 
7.848360010922644 5.9847949424070315 26.121284684630588 2.1114552802319055 0.23528155008779983 0.6923001758782986 
7.8481511986530155 5.992878907547112 2.849819817309026 2.1121620714661926 0.2434173764064358 0.5326670073512887 
3.6860751293675857 6.204243769411786 38.01402756940804 2.1133204379990405 6.181375690418161 0.41992748921803863 
4.784063401348503 7.629722001724192 5.382541796889797 2.1133831447185427 4.3228827198978355 0.45551100441589604 
4.530920796737005 4.021500311549915 14.607532929028501 2.1151513602577907 8.668158978632391 0.4848653982125435 
4.844646256632867 7.6623607105500655 32.82933070324262 2.1158423589399176 4.259098454036584 0.45089021726877154 
3.9222675041461947 4.677793582275969 2.4846634085755497 2.1190169132426906 7.781294494353546 0.32398819129029593 
6.739655786823455 3.8743747725147193 9.641390735859332 2.1207047343683554 11.023218939700474 0.3100201157909378 
4.317094493378734 4.1860434537699 13.023046861214603 2.121126650957347 8.422341461701205 0.45157261122515596 
3.658582497583282 6.110150842642863 11.886370966002168 2.122200697123472 6.305187742602335 0.38312160379495647 
7.785283192839486 6.355266687929021 4.327321425630942 2.1233759531866854 0.6137783651770334 0.45098595491689353 
3.9672998902417085 6.907150763019277 10.488478004500529 2.125327638198006 5.4532726305015995 0.32684228630480855 
7.824905043430267 6.211757322536106 17.69623611832845 2.1256647817019685 0.4654682993096966 0.47344909775895627 
6.084414842210132 3.6487777902516925 24.439942911285208 2.12766728165613 10.362203115477516 0.34278406692063573 
6.347421860258965 3.706269271121969 5.791235481410638 2.129260005559587 10.639453214963462 0.29939286022461464 
4.941305597009578 3.7800880543441755 23.410095301185358 2.129445869484724 9.205262281189226 0.3246332902757207 
3.623207696425773 5.642759165046393 31.150082277614324 2.129494329465122 6.797289957092623 0.41232149665786105 
7.276118195851536 7.236112344493699 5.676081687521531 2.1301564844315335 1.6447317502944205 0.26654805374093055 
5.415946645770099 7.8554253525115065 13.077561966026238 2.131761609202696 3.6839991502861995 0.17033991460587505 
3.8031628116943885 4.879766903831209 18.094379786372848 2.13248228115434 7.595790228154346 0.27470507822571383 
5.40443229670135 3.645276494874082 6.198233678242467 2.1329036711939513 9.70397407099986 0.48579552446006435 
5.675671481584855 7.8843412387234295 31.587072675311312 2.135635093354025 3.428991292481971 0.27236847028243344 
7.56136261439869 4.6179850198404315 35.28835601775471 2.1359991657645674 12.227784385218325 0.6845215461200629 
7.8860011099065375 5.739334317836949 11.844926201766896 2.136027738185523 13.410392373811653 1.0 
4.551078152379681 7.518485004434137 17.36001537561866 2.1365750180159173 4.62902032724757 0.3976475967114098 
3.8961886191679937 6.813765880886349 18.748149593949144 2.137338177509629 5.601195684413289 0.36348609608514526 
6.990469889410329 4.007557220997645 32.65622330303958 2.1388951317517 11.402592029231476 0.2471544041305272 
4.325135660659332 4.153886680346673 9.684857705914716 2.1395831637726723 8.523279489096058 0.3043421861602643 
6.819332945385057 7.60327448350613 13.717954839577004 2.1396493309186893 2.241203285710121 0.2967039842146792 
7.859316292275906 5.389153456359155 38.33727468677892 2.139959216648326 13.08318146989139 0.011771788086608132 
5.259884036906455 3.6648866507502698 19.955229822569862 2.1419410207796448 9.599162362678666 0.3416357647609301 
3.8893334694085464 4.688684626564918 0.9848750627540461 2.1420714880584377 7.839894817135907 0.3782047886744136 
4.177766413621354 4.294343390601295 33.96491790589417 2.1426279692525227 8.331627639759112 0.2920905146505058 
3.6075949093090163 5.791762019873046 34.181159143912716 2.142812086703482 6.690078045507555 0.30490334706357264 
6.1426105186098745 7.857703870084499 28.87941693884315 2.143958633764254 2.9728837091652647 0.5279156162317632 
5.258302268774388 3.6628396893180337 7.940416708379082 2.1442958800917524 9.608644304156899 0.28122439309443054 
7.732411109910853 6.570403241636612 8.829622470369685 2.1454638863392317 0.8418395734263058 0.7010832554732139 
6.705360771370204 3.8264117407775267 16.97819166073974 2.14776767702925 11.111169904378931 0.2221272787449197 
6.411794831543607 7.793803307342151 27.404961476248523 2.1482793948089123 2.7017731743412607 0.22786572886874756 
5.8634813408714805 7.897498961669893 18.045037845179138 2.150495246472139 3.264455959172553 0.0 
4.164705390964297 7.204487401542124 24.0937409464778 2.1514396572254637 5.161733446656108 0.0 
5.404781881025631 7.874754286303906 21.114413769538608 2.1526161587322115 3.7280368443460326 0.0 
6.916825947167027 7.559008989800711 21.116747956674814 2.152671901651999 2.148233448170709 0.0 
5.2139743105781395 3.664076209009961 9.524801594830095 2.153694871967343 9.607328118248606 0.0 
3.6575131602276088 5.237875510620947 32.76942941169245 2.154245266269003 7.284836313253319 0.0 
3.593997247521564 5.7491768558678285 15.225796246187961 2.1560029096132634 6.774106046111411 0.0 
7.80747407190855 6.408938486139086 23.22804459328478 2.160416507317797 0.6696081232142159 0.0 
4.422151532210486 7.454240119356519 33.71339295153808 2.1604666018791567 4.823652599253709 0.0 
4.083590855106098 7.126520917420543 35.1491662136325 2.161418347817544 5.298012452216172 0.0 
7.609627860889092 6.852919320852151 22.24961418759835 2.1620931546313877 1.1574121285434895 0.0 
3.9918166842121687 7.009592413367278 26.467163392175166 2.1628179811826733 5.450157126482868 0.0 
6.702303079817033 3.807416254071299 7.256693039940018 2.163449275064102 11.181108339636662 0.0 
7.912786251863424 5.652254172833846 23.875110845487306 2.1649939071456608 13.505278842815276 0.0 
7.630043654159249 6.824726022151314 20.702636517531737 2.1655484673019068 1.1245967077704702 0.0 
4.4413984363216175 4.023762406302655 39.70264853943938 2.166179651449876 8.802803367661042 0.0 
7.856297790642063 6.25596445320166 10.36638937066806 2.166215688884024 0.510681708030873 0.0 
6.019582519402989 7.901054063527246 39.204135505451234 2.167881066614296 3.135017428041488 0.0 
3.6017335362413414 6.042543766797646 26.280140055779157 2.168093783673182 6.517828685799312 0.0 
6.122047888972243 7.8861196600291565 8.85706508965744 2.1682773885395252 3.0320240061277524 0.0 
5.828037221242535 3.581675887119035 0.5012201741711237 2.1697279245104166 10.302656017494531 0.0 
3.795439643154526 6.692603180433172 32.35581180668113 2.169978558491913 5.842100433660221 0.0 
3.8270155253780835 4.743035030821452 25.426036782610588 2.170679096225345 7.866494102911133 0.0 
7.527904384512821 6.998002837609396 38.46678864005332 2.172200516331542 1.329461801065996 0.0 
6.745466892613013 7.681277463878558 39.87428175150825 2.172737208401836 2.3788634259532557 0.0 
5.732441462795277 7.923903990736953 5.168860120621488 2.1739748993884023 3.4324305146133938 0.0 
7.3298711264558545 7.246103234763243 8.140889671678256 2.1758487229763768 1.6496674280625836 0.0 
4.952768959839899 3.725053318194724 38.26087250288252 2.176232155710635 9.439018154053173 0.0 
6.021695616682296 7.909669083698874 1.172499351148005 2.176692228866796 3.1467340391993286 0.0 
7.114776981942408 7.449809008682746 26.111899012123963 2.1799006574701645 1.9494622124238958 0.0 
7.601984710726557 6.9029943873331225 24.782279031515827 2.181569028471624 1.2148103151368232 0.0 
3.5682445952928665 5.7931525834790145 37.08430604997298 2.1821821169255537 6.8123719108890235 0.0 
7.675646069714328 4.723376868084906 10.644820276019047 2.182216268106667 12.642418790651384 0.0 
6.677101899854183 3.774146593893236 20.47308320613456 2.1825477349045377 11.242537940741663 0.0 
5.958536578539265 7.923481373604992 19.650052334998875 2.183462568031958 3.22092006193229 0.0 
4.666595132183837 7.647550254085899 3.878508038612935 2.1850544785861112 4.565848368852272 0.0 
5.939606182879195 3.5730162105598717 28.92619545675897 2.1852251426503218 10.487475785037809 0.0 
6.020709348839532 3.5815246758416217 35.507531581669596 2.1853074802033916 10.569425424822725 0.0 
6.8014883433235696 3.8332259112867346 34.157557599054975 2.1862412134318383 11.399356995562563 0.0 
7.5404005015761655 7.008842863998382 39.99648676420018 2.1886569654205377 1.3412266273380684 0.0 
3.56286320725963 5.57971996638134 9.737706695799588 2.1937553737843714 7.062337252099322 0.0 
7.827591379543083 6.4546661347713625 35.419322132461836 2.1938414486569773 0.7173826673188 0.0 
5.3808077349614045 7.915121516216398 36.298058316327335 2.1963729438662085 3.821007880812095 0.0 
7.8249016288739845 6.4799677206699995 30.951672742941952 2.1995612386846783 0.7440783829586479 0.0 
7.003563996708506 7.559616221033808 16.565916370438256 2.201393549838938 2.1242798663555913 0.0 
4.782638515458791 3.772479460872047 27.86337415045776 2.201448551396711 9.37252543359968 0.0 
7.850085337630601 5.079582253375098 36.7158023835575 2.2044995759402304 13.170072320603389 0.0 
3.621422210320331 6.329882290752966 35.594794637804426 2.2061520522952383 6.344054986890953 0.0 
5.4648287566084655 3.5583334422698556 33.44528174428173 2.210141384239972 10.129077401306631 0.0 
7.585982524508372 6.983617347044707 15.219952606013301 2.2119320941723664 1.3086336578603195 0.0 
7.1939715684788865 4.063365958603346 18.967200499315865 2.2203126536984352 12.035046823648047 0.0 
7.78545658084286 4.856130014156632 7.274677971460207 2.2230805302750816 13.048129089774227 0.0 
6.378527505200482 7.887658691119876 32.915219992302895 2.2281453059694942 2.8627859745980295 0.0 
7.843050069361622 6.524075442832327 32.99374400141123 2.231602873284299 0.7905041028339639 0.0 
7.168895335933234 7.474375930865091 7.170744862275981 2.233100160154026 1.9702184422307862 0.0 
6.955057448609329 7.631196862747737 23.408802948576493 2.2340691777249764 2.2364633028863476 0.0 
3.960462366821579 7.088109484856947 20.337474189471003 2.2344981391860563 5.585215901515795 0.0 
7.926641659532082 5.2150801196934395 13.334164559752452 2.2414076363655435 13.543047141150176 0.0 
7.890735652727331 5.075711309100781 30.380276653643065 2.244418493403693 13.417229753903076 0.0 
5.465632637723342 7.977163947098674 37.79976540498134 2.2452447626003544 3.811955386318383 0.0 
6.974926052740077 7.642390372886513 4.2559912593047144 2.254237156573138 2.245960288133155 0.0 
7.9168083414267745 5.111566900101711 22.454097361987934 2.2589057553431453 13.545869857604664 0.0 
7.974739565743413 6.145529506235917 39.68169441688786 2.2596260145624587 0.3975776921578422 0.0 
7.944843868506764 6.321535023186323 19.194258810051394 2.2680370124515883 0.5777636138064182 0.0 
7.57891732030355 7.100306419720399 10.950579598184444 2.2733820602011527 1.4458184586443217 0.0 
4.870249795384666 7.853746941429105 9.702155525030342 2.280287616966998 4.485048388066568 0.0 
3.735547965069909 6.831232409843691 39.7583603336449 2.2862809374900492 6.056332126280179 0.0 
4.452708065879271 3.8634007644490715 1.2186823431053284 2.289590146274229 9.410238104498621 0.0 
5.8016140114780175 3.442980198397324 31.80404296739782 2.3075970989684707 10.925913456391125 0.0 
3.5792290580283392 6.572398843030819 5.46003203175254 2.3213328799478465 6.45202868580359 0.0 
4.812269752383154 3.613354606617367 25.290938133299377 2.3333648566734637 10.030718077028776 0.0 
4.846257518582437 7.906779003499786 25.571081450512455 2.3384708983984193 4.601162488075474 0.0 
7.125539130458666 3.8564065965797267 11.099967696675819 2.340470866492415 12.499578592792798 0.0 
6.379504665668771 8.008489793802497 10.343234144563525 2.344579338134837 3.0455321400843527 0.0 
8.094949223318318 5.574483287699625 15.630079338745425 2.3515086596136365 14.599284566303478 0.0 
3.83873355566263 7.123258505445795 15.821833719315379 2.3534609289361987 5.92731727020972 0.0 
7.82965924576901 6.868193441695901 12.882957406728458 2.3612156088685006 1.1648729992150706 0.0 
6.997551392022542 7.757491082962545 38.00318551103403 2.3635576836437733 2.398432711814568 0.0 
3.620729273024372 4.723455780156415 27.20146671801828 2.363807704541466 8.488023775121711 0.0 
6.401456237233587 8.025335538726193 24.183536325163374 2.3667587631233036 3.057719787336328 0.0 
8.11864637518441 5.627589701489555 21.547028318142125 2.3718073133911335 14.780040156183098 0.0 
4.821783357620355 7.9419786715872505 22.750246723518686 2.3804110216271366 4.692652740371599 0.0 
4.099434612475893 7.465449045527739 14.895496038186053 2.3805737808970866 5.563212310824909 0.0 
8.117674334452772 5.44156002318784 27.629691438023116 2.38768024938899 14.692933133665747 0.0 
5.142095931272797 3.439397524622308 36.742574404148996 2.3892323361273595 10.644330293002223 0.0 
7.10627053224322 3.775169376784138 29.950591502163462 2.3957098628637103 12.731247804077128 0.0 
6.382391124500788 8.063175866784306 22.518596042892867 2.398061951872947 3.126906752078284 0.0 
4.0086446042653225 4.098898747181676 7.210212261564891 2.3996778869907764 9.35968618391567 0.0 
7.34540846621867 7.546265518471453 29.83321790477614 2.4024774685585966 2.029011632306503 0.0 
3.5994005267315714 4.67545055914695 38.49433735216691 2.404107858491388 8.666715362086936 0.0 
5.459062951568823 3.3555539406520207 21.434825226788746 2.4120564457070466 11.074901049852205 0.0 
4.255385557145911 7.647758525474061 31.103307130235414 2.415648930162974 5.4060069712117915 0.0 
3.363851660552311 5.335712959703158 12.518473887696175 2.421845917808745 8.024787967099988 0.0 
8.055924028113987 5.008414741002015 33.405333437932775 2.422237461479891 14.465678717474205 0.0 
3.441981037412919 5.011129780917625 5.37609607142041 2.423402717731492 8.364168813017827 0.0 
4.493205283043576 7.823238573357405 38.11617641889158 2.424428003184796 5.129510942735038 0.0 
3.356743481502506 6.150896451555998 7.649343814758872 2.426601477004605 7.2206504726863265 0.0 
8.175496254100915 5.665424596821947 8.494971392739174 2.4269703495264037 15.164511910604162 0.0 
3.422925224099602 6.44271391821619 17.192074137610703 2.427988794274454 6.92527834941783 0.0 
4.380858237919362 3.741250427822453 16.18780166769912 2.430971823859081 10.001325610949257 0.0 
4.559334222768047 7.874291894284339 20.50023367525762 2.4352209438146497 5.069314844083351 0.0 
3.5540508278147396 4.691126915501986 28.83886634789262 2.4379099605800607 8.754276500529025 0.0 
7.38131430188119 3.9364797738851234 39.182624888807254 2.4392707848965585 13.281692535355267 0.0 
5.275807698666659 8.14440966270648 28.359614964893836 2.440912938124988 4.311403888739969 0.0 
7.8522148513581795 6.990790240426595 27.464635076267058 2.4410792084667747 1.301594888605889 0.0 
5.020792853933093 8.083746984191048 16.012685476719156 2.4450190281664175 4.581101429978215 0.0 
3.300426005521116 5.906903891055828 24.228106221861026 2.454593975682271 7.554323459591854 0.0 
5.520999481955201 3.2995925289232986 13.44285997722838 2.4610847225508725 11.368256264715917 0.0 
5.807460010920872 8.211759365152748 34.29185094773649 2.462429861899071 3.8105105552966627 0.0 
5.773580200522175 3.2856933726675797 18.17518196532401 2.4644194406332605 11.636883575423656 0.0 
3.2826755125323075 5.829307374138742 19.72912084887487 2.468598749503551 7.676010673295583 0.0 
3.4567868928129295 6.6704774727597185 22.88075413346721 2.471053445968478 6.819827846355064 0.0 
3.489882438652513 4.737413159538307 35.26146130680523 2.476583029213336 8.823575207930014 0.0 
8.040529084775244 6.695377106029416 5.294684673833817 2.477955076430135 0.9699577088415747 0.0 
7.808421547628329 7.130673299116978 2.6694539725418096 2.478579840681991 1.464394197189538 0.0 
7.177640898695163 7.78508134314255 31.328430728405422 2.485903177686937 2.3841154870314405 0.0 
7.9538650433710965 4.598868330086809 19.385112926687974 2.486387992826184 14.425621302973196 0.0 
6.428595643283571 3.356080411877339 10.540650051462343 2.4882409532601186 12.412861526207626 0.0 
6.9724457878963975 7.922459259522164 19.631476643709227 2.4927801625151838 2.6379943660732046 0.0 
3.6675559302618534 7.135477589238449 2.845274573760065 2.501223991143048 6.389445795240849 0.0 
6.854092975659793 3.5055672080783182 14.469289361888876 2.5012996334615036 12.930608230432108 0.0 
8.190273549861079 6.304611874741588 37.98382129808165 2.5025046113356035 0.5592553689734814 0.0 
6.391659006026563 3.3266035755193393 37.58254238016015 2.5069057641245007 12.462395338283331 0.0 
7.4819980580481715 3.9343554011779274 25.045417026524014 2.5092593692789924 13.736221386088175 0.0 
3.717500449578358 7.222165198699075 1.2219398284246523 2.509646348536951 6.311095823396117 0.0 
6.358227682948057 3.3142796229929443 2.836712477119363 2.5105128299357 12.44485363267718 0.0 
5.1173967395268924 3.312152468044525 27.00616764035179 2.5185883892018976 11.22911702371698 0.0 
3.4130525023791325 6.692368873577274 29.506642623726364 2.5197981467815493 6.950333051798747 0.0 
6.705135332309586 3.41347780156456 1.8877648087061374 2.5242067044534453 12.874579120648601 0.0 
6.673549050508419 3.37896770827152 27.552062466499258 2.54455044695801 12.936043321323385 0.0 
3.5252257684941117 4.471833347814789 11.29335505478986 2.5658001426321113 9.398686362968284 0.0 
7.425555907505996 7.693977459848138 18.20231938986666 2.5664247434078127 2.2056414281006838 0.0 
3.434984091950593 4.630006880389494 23.415094339268542 2.5717082343253272 9.23807082995921 0.0 
3.5432673653221123 4.4009973574412165 4.007544733471832 2.586402337337134 9.544570734078814 0.0 
8.363511503446011 6.167415907617193 28.97202911285437 2.6466353013924118 0.41916605315680755 0.0 
8.002248149989626 4.323957655029705 17.706124327427574 2.6657491440081262 15.244717760771838 0.0 
7.596387892088639 3.8262506094604403 0.7466253632514466 2.6664508181575113 14.60487234953782 0.0 
6.122633661057794 3.104908089526578 8.457229612124802 2.6712107854314424 12.961637227711199 0.0 
6.972338882019331 8.243738165320867 12.863114033358947 2.7772004572364133 3.0967146319768677 0.0 
4.702096288448534 3.0946117056808102 2.9546247902488645 2.8546784726639034 12.379364345196297 0.0 
7.643179321842592 7.990385420695622 9.467659200137803 2.9331646353244265 2.5495014891316625 0.0 
5.648831106207557 2.7966275261377707 16.179423620479344 2.955104755239363 13.824414417653383 0.0 
6.104581443093046 8.698968818182193 25.855312590019714 2.970209603781663 4.310165230630513 0.0 
4.228528811320192 8.365682281611885 27.230721548877128 3.025998740303952 6.347428518344572 0.0 
3.3490832086270874 3.703685696507703 7.880607753911413 3.154647946724573 12.13726692620046 0.0 
2.8013257359745154 6.972182977855546 33.69515473984355 3.191929063542309 8.773532234756516 0.0 
3.589537828071572 3.336074188859877 37.163280880785905 3.239542347002458 12.900970461037652 0.0 
2.511153831012418 5.443023783621992 21.866350130990185 3.253361170203409 10.528169113349456 0.6500232481822592 
8.546669747121271 4.0817016903745795 0.5232389875393295 3.2564675530952836 18.709451240022666 0.2426933532233382 
2.5584579923414417 6.492603956505999 13.465791864757769 3.2767973728730273 9.54525048553944 0.33707533695730724 
8.66018825993703 4.233794007124743 24.04903769997229 3.281474717426017 19.042003183808696 0.39568711612743596 
2.7943288711717003 7.225316786764948 4.247865177177211 3.303415118192021 8.84861700937483 0.22426933113611472 
4.164338583558218 8.652548298321449 38.66142304585435 3.3074323502803367 6.849011788967353 0.058133332321693036 
6.8235191497352385 2.6202678683256284 39.83251821411778 3.3087258243745854 16.685309330210508 0.09879858943438066 
6.511902683552469 2.5257865558456984 30.64564396219287 3.3130119276377186 16.38098449068726 0.34078245664199347 
6.320278787220223 2.4840057593400857 32.83800481264365 3.315408915228572 16.1966254741221 0.5834225400317873 
2.433942539446747 5.675585939984117 16.24079963738268 3.3168923006360855 10.494744788248656 0.5754581322388075 
6.980885858624864 2.66005405402424 21.441783522245338 3.3260856792955136 16.93467802722894 0.4487490133068849 
3.135175179281969 3.6915476606620032 14.022938108625578 3.3278423755294004 12.674069503914424 0.2633219324490503 
8.079209170502232 3.3663152453647456 22.373062730200374 3.3327418696071023 18.28418449162715 0.5608072980657139 
6.656448895745715 8.959095626452665 32.750805099294524 3.334658054481187 4.320068488234604 0.3338787521447574 
4.225600544052991 8.717455576148705 8.552653916527959 3.336103460282306 6.823494020554946 0.1566509185552231 
9.009556245947755 5.0231334703303805 9.905427309448328 3.339617024817515 20.25070141525285 0.46536656395151543 
9.083480789075907 5.54128695564965 25.39464521997155 3.340008279334068 20.777041830873436 0.19828009787761053 
4.250995417558192 8.734936959473707 12.67692326934089 3.340189124916982 6.801273580565276 0.2757360950458749 
2.7950121147113 4.186481625632712 9.261342862004511 3.3431337258905915 12.129749696936269 0.16085965651692127 
5.035322964702713 2.4830861659933268 24.249791401144044 3.3441724332942946 15.03880932197433 0.175387957565915 
6.8612277199818354 2.5957110263502745 23.466345093207387 3.344303511187984 16.892422665686603 0.5160510278269418 
9.04297006474377 5.139592177194963 15.213252180743169 3.3490669681928087 20.428969432719665 0.37301911938678084 
7.292209867837109 8.730336461890245 34.67713313706223 3.355714037656759 3.668725546165817 0.3377813384369346 
3.2530016743512036 7.995333270176971 30.88982425849906 3.3580533248381443 8.090264205357379 0.2393472936461396 
8.310306688339438 3.576970497455429 6.677369758394363 3.3581583579820578 18.736590589315078 0.21213868504014935 
8.923005315955692 4.645414900022491 2.782197775404434 3.3597724592858085 19.98455394523734 0.41133773738547846 
9.095272773799596 5.367406861215603 35.500633758726536 3.3670799576145694 20.7725660674434 0.3660967019993273 
9.108636525572646 5.504852438456334 0.5041139709204785 3.367571326318347 20.9137100789596 0.20990834646742704 
2.761384906823416 7.3083649131248745 31.436939203262988 3.370507584566691 8.968736673757835 0.342346739137452 
8.046000775582243 8.218056389800378 33.44654012499382 3.3708933392661264 2.7691815578729724 0.37056787463640267 
5.607502044069591 9.119542417636811 29.759785728917933 3.372554191069146 5.440136124390545 0.24122591592992165 
5.382546167526554 2.3973692592996017 21.77684391438448 3.372707399477267 15.525324498286288 0.3459149417659939 
9.06149489328621 5.107294636544854 27.82383161475076 3.3732875081253693 20.548331756061266 0.19154510725959464 
3.3981411456959822 8.174857727492844 8.858805966226392 3.3780430827847603 7.907706492096583 0.5341935808075441 
2.657164544380713 7.109448747957671 6.655812864205114 3.3784215328847633 9.214525708579941 0.20834116670084385 
3.5432383516944164 8.308216911850838 32.34281603405798 3.378501256550306 7.71166498588293 0.5122176068778287 
3.1346838639055754 7.892487207196329 16.2861096705944 3.3808475157445046 8.300822203204714 0.3631766741085545 
2.6071042723622497 4.5037558612054625 27.20182119907132 3.3809640649204447 11.897956704748086 0.28092478613694205 
4.298210438846915 8.8066401519967 10.082961639921685 3.383894494317378 6.815887990808889 0.15606455910681247 
2.4047563747743137 5.239869414058372 36.253351338809274 3.383916093348983 11.14296876388076 0.5629139853601286 
5.599120875034069 2.3689990558148972 1.8184193921096394 3.384365803947773 15.797518972079843 0.27903164674964975 
4.8026340068220215 9.001504693987947 7.168735218022462 3.386707117548806 6.28000466887184 0.4786739940980034 
8.109359282000499 3.320260558708812 7.648601799203227 3.386769843689992 18.56997162656979 0.15245872019807355 
4.651529497257675 8.953964469488447 4.642196644341659 3.3870379045914705 6.439046466924669 0.31393915285587604 
3.0490235030934016 3.7051758932329726 31.568111338138728 3.387710091559989 12.838073775337964 0.3915043801009092 
3.865132631393408 8.565198649564465 10.96959364552653 3.3879298153514803 7.320572471359714 0.44730609793494625 
8.474165086555 3.734393828343439 15.37077552281744 3.3887672770530073 19.133591533850026 0.17662635566059856 
2.5116593216030463 6.7486513230396525 5.08563772925455 3.3888279410984095 9.632615639782877 0.20196343642337902 
8.01597652334524 3.2262419032016165 13.149134488462025 3.391755376719727 18.46478214953183 0.08324262937127264 
9.141185508803147 5.680883405372931 30.987503502299084 3.3918897769192484 21.24275063125954 0.1964172772977905 
3.1620456780843504 7.9428973663976805 11.327352429000094 3.392094696773039 8.2720990071094 0.18697048599014005 
3.8070848419488144 2.9681049058586897 31.476086977058223 3.393207866634839 13.921409178967586 0.5347627745661393 
3.4093318670334405 8.206771208135795 23.18084982301366 3.393295165147021 7.913158088590258 0.6203530648655025 
2.639227604974387 4.392255252181563 20.19700415559803 3.3941678941799447 12.059934846493618 0.2623233410828587 
8.559944713257787 7.657925201294731 1.352920569795188 3.3964640238490595 2.0259428759593057 0.3751047839176775 
2.9215935042534724 3.8668677195909265 18.81635788221891 3.397950925293041 12.670924784828976 0.4332530233257868 
3.359813621853954 8.165440616199602 29.84536991873702 3.398138356903912 7.988817348274839 0.6039693913917844 
4.565823025101382 2.5648460474204366 25.781337906943193 3.398158443850619 14.803887599413152 0.39615111320560514 
3.92746744206282 2.8818914062565533 21.58227201511165 3.3981865502420643 14.089941931851737 0.6415271460219247 
9.134388269163207 5.429410820801339 2.1866330204428692 3.399538406647113 21.03886349986839 0.4579151689778733 
8.187736933659709 3.3804644773513903 3.6792865238878747 3.399597027711119 18.738488130791964 0.2862299151483564 
6.70468570039243 9.013017056277297 3.422174934227172 3.399809567621449 4.372708955946727 0.2763402731534109 
2.360899053214114 6.029776848561781 33.31480594040549 3.4006293994635963 10.403298904442998 0.5701627823046334 
2.6990480172678275 4.245323989882836 13.306287746198826 3.4018168522657826 12.245762920208744 0.17192019084890348 
2.3478538486736884 5.811867229098848 14.309868611542157 3.4027086253484597 10.628053781454653 0.4460145345136757 
7.15258765927803 2.6475477055984804 31.446253053868617 3.4047705327960456 17.49023674450229 0.2796689254201339 
8.527096405295396 7.720492099469533 27.33402189587953 3.4051583749330128 2.10134859182703 0.4373988555103331 
4.295471984782456 8.828960260030875 22.842041307030442 3.405238322041803 6.851776666015365 0.21683035851432428 
4.385916640214724 2.62985606027868 20.651955013149312 3.4052931763686325 14.643585057081808 0.3193908019509545 
5.245274661699279 9.117834136717626 8.952896577857196 3.4054448225691947 5.855851913637185 0.2981154745518596 
9.151461935248097 5.579559801099487 29.34493663187844 3.4057294605330832 21.228317882419184 0.3425651677489347 
9.13725406458597 6.1044653286615755 34.754458521889106 3.405750397089801 0.3551084159639153 0.5204390199298274 
4.4182738927617144 8.885940302982487 16.088517541371104 3.4069951582838987 6.719901843331435 0.3941428096664273 
7.609060887031307 8.605821102163688 3.236352712364088 3.4076122944450487 3.386273086192375 0.28274630777539117 
5.277326188322338 2.372403076814342 7.002805550324744 3.4105104468039835 15.59745161031508 0.37393166468859634 
7.871371146116115 3.079337523494102 28.752721912091076 3.410667618368966 18.361872497715108 0.49167893646475375 
8.921199644365604 4.494156894286203 12.462549266984261 3.4108135525990586 20.144670244164338 0.4025097641711862 
2.4304877357368344 6.538130745648505 7.54906059784291 3.4117901085544546 9.923140762036493 0.18429806965097226 
5.552910263780966 2.342658246785218 25.781062438011347 3.4130370914075425 15.886358941804716 0.30424446473264194 
2.3372859298848176 5.674789672344444 3.1523305470862653 3.4135427224143835 10.799177153576228 0.35081663685615877 
7.404992022006798 2.764276519296514 17.951435001109864 3.4137286500438644 17.814641779930284 0.2736368994765436 
3.661537952700927 3.048948876032444 8.781055532872031 3.414286293985176 13.842207326019832 0.4714692512925802 
8.63102284675875 3.9144703826303413 23.09114196673812 3.4160593700618116 19.525938299638064 0.3096533277140935 
7.413391234767154 8.735953085845331 30.115965447519436 3.418009103377207 3.6317702973928405 0.33132623701752223 
3.181368039285239 8.005267001457941 22.22751014275103 3.418201193240451 8.275684788351757 0.3537991778159522 
3.5601828050551187 8.375578491184458 35.92215779790429 3.418912365160407 7.747074045340703 0.6194871516030699 
9.044346548788441 4.83372008169953 32.23290955250276 3.4193987881197807 20.55710042064004 0.317667274471698 
3.0580470830744098 7.860401269289087 7.967577086120514 3.4205853335885634 8.471780458246258 0.49660827008930325 
9.062784254001887 6.602264891709217 25.206208983464073 3.4206570946534467 0.8613383765845555 0.42815389365375994 
5.68844381948707 2.3297004265730283 28.062355757458704 3.4208534513106614 16.05883260450713 0.34265274861837364 
2.8888793324825244 7.625293412980653 35.96057173229533 3.4209263159068874 8.762369433554394 0.5053624465589597 
6.374280114578514 9.113657688518185 20.598253936358432 3.42109904957247 4.74605211500532 0.6428532380924257 
4.235033160916085 2.682559085384206 33.25082233793867 3.4211574486104683 14.55238700320296 0.29686159085553315 
2.3294032688443522 5.667794506723478 6.315479917714484 3.4215843903544942 10.831437788254718 0.5530411265939382 
6.126970522219414 9.150759132842516 16.331941693882477 3.4215887324800103 4.99688166202364 0.6989255306542747 
2.4745421547852846 6.746653949625166 9.053610178476639 3.423732348049722 9.744676838635204 0.2898312539591535 
6.396462323607285 9.112236465434844 10.002580694988943 3.4238206123194463 4.727758448981017 0.6244494905613355 
4.018861963386154 2.793730174786848 16.116068096947487 3.4258386099285283 14.329044474965961 0.5451502327599644 
5.9513875464487285 9.170105719983221 12.250694536506515 3.4260297838353067 5.18009129780933 0.7275138300139541 
5.63993816955165 9.175194668998884 23.421169347578598 3.4269625219806596 5.493140901659206 0.4162949190216011 
2.671606270388885 7.257031099915096 37.45020768376853 3.427484601077054 9.207385675449967 0.4814860208597857 
2.5676473339018404 7.0253130866044025 28.28118387871718 3.4283803698374125 9.46385162411757 0.5450544741713768 
7.941135827946084 3.1127780734970756 37.77161340255906 3.4287046688416845 18.534411301572376 0.14331980350590792 
3.609269761559572 3.0712252518044867 17.568304621967386 3.4290756925654393 13.847188588955802 0.504174882011845 
3.5848344504898755 8.40918743767018 14.9027659203459 3.4291718658370534 7.729862613616966 0.6201770710436942 
8.545823501530716 7.736222675837816 23.08610093974969 3.429534891165828 2.118383714415124 0.2562019682519492 
2.322332518378115 5.632716367224917 11.373130806674624 3.4296734268855746 10.891943345834484 0.5239136063704538 
3.2410935711999826 8.088611210780996 17.829238715080947 3.429827089470345 8.20178134583752 0.5356051434363697 
6.038117154399654 2.3302741362092476 2.7425670969425227 3.4318415578430703 16.460629027572324 0.325569350275733 
7.635565836354015 2.882371673410228 12.281756961912897 3.4320038960766754 18.169176034094214 0.5880723447697515 
4.847630499346398 2.438735622875633 32.490790913894955 3.432017262620143 15.25989654515346 0.3987376076608651 
7.0452887813202825 8.928312019417575 15.892384354012236 3.4321189256475964 4.062966516592969 0.36654975244428467 
3.9317982929854587 2.8385081742527687 6.3275731396982025 3.432585337436424 14.2594931166296 0.5626715877308341 
9.16210463622277 6.128098322406435 13.900222858307892 3.4329894246763253 0.3788669206811264 0.5651542152500924 
3.9370000590849816 8.66560904245962 18.32714234227315 3.43332854155121 7.30306600066222 0.5994572373166892 
4.803523045623569 9.050416017473475 31.043394261436397 3.4334479045940345 6.352140985049779 0.5435978766226023 
4.153678657002196 2.71000467397519 2.1391559771758537 3.4336297721744837 14.520334394227422 0.39817802122258994 
6.877406537176753 2.5060547961186863 11.723470358411745 3.4342722643747194 17.332333167827205 0.5923660706765485 
9.180659932818244 5.92070737671073 21.521102172824037 3.4349044503607296 0.17077772595396823 0.5031672537401297 
