301

3.9577717636365453 4.578074789694524 13.500421766825582 0.43935226158653373 1.009837954828277 0.0 
4.504164634379955 3.8136973486715693 19.184787865128413 0.504935307663978 2.645796797879431 0.0 
4.3336964464383145 4.767683389847418 15.247033713996174 0.5244055561016845 0.7396784061159893 0.0 
4.770296437652106 4.351373194504841 39.85852597930756 0.5300800954550056 0.10200151545476466 0.0 
3.8207843959750543 4.573707101999844 4.411807911347584 0.5375986631527612 1.34153435402213 0.0 
4.6978849123144935 4.556955424132379 21.26636520409759 0.5429756229180576 0.32623177284170524 0.0 
3.7993041986130534 4.586977099002695 10.274799701172569 0.5627435211889114 1.4066206341083305 0.0 
3.682349753917924 4.257588697160063 33.54747345586101 0.567700968998317 1.7758962704612724 0.0 
4.543809956674932 3.762156408921264 22.71823088782179 0.5694871903721117 2.9923536460770626 0.0 
4.234518482117976 3.6720287808798755 31.32941360813625 0.5781785256537424 2.709118744533349 0.0 
4.234092713529114 3.671571825943335 17.699076226567726 0.5786468649404364 2.7108998191323117 0.0 
4.323199513292749 4.825955074392937 32.290296624845084 0.5805879920091939 0.8385906449645804 0.0 
4.831346765779623 4.241186972725668 2.6817376979392407 0.5814135632509492 3.644315793219606 0.0 
3.7801981323020577 3.900105738017187 35.76753604816132 0.5857813495332302 2.2152716175168 0.0 
4.773227960286432 4.525276885149667 38.30320889349052 0.5912231912934423 0.28634056312390754 0.0 
3.746180564205778 3.9386789600951744 30.46187008570547 0.5922455688069186 2.188398231111485 0.0 
4.026343924154618 4.8026097592669075 7.019195581332184 0.5961539954572015 1.1657022509144621 0.0 
3.6540846527468567 4.190865969029355 27.909827281292714 0.5988421617677484 1.940548694093275 0.0 
4.752547756969284 4.579280752076096 5.718596979777217 0.6008161630005127 0.3484962247877075 0.26224463201047643 
4.827146097066403 4.446419127586285 4.197635865488422 0.6096540748988228 0.19998648659884566 0.21164752349282467 
4.105734751727964 4.8510263077923526 25.13251061492798 0.6180979570565648 1.116514283494328 0.27894492995762177 
4.292058113678702 4.867625977983527 36.91907742084373 0.6190563250676953 0.9303208656976292 0.5595100409037898 
3.7031403727726575 3.94945660036144 26.368594229943355 0.624004636967973 2.273943878744724 0.20617095085029322 
4.8512214115436985 4.075808221745136 12.232508824581437 0.6259472512202509 3.756420318066893 0.09554943695379028 
4.010926104944863 3.6678815453507774 14.741247815915123 0.6292997874940323 2.720271548000821 0.18673801325485184 
4.116309323193169 4.881960628542373 29.310431623130604 0.6459469274582399 1.1493150809353914 0.29456771063247145 
3.614545348371636 4.367441452339305 23.763018214195853 0.6462159925316695 1.912049676924049 0.5009554068235739 
4.028976697164088 4.8655421887854615 1.0947765537275984 0.6540210138606346 1.2527963377986158 0.14485402849373966 
3.9478669865808014 4.833041522163603 39.52942640781568 0.6566747858450304 1.3454602534578601 0.14823025429394945 
4.456304834851739 4.880373479129009 10.992576447349741 0.6632740067818248 0.8320832580690727 0.31593019078770873 
4.004865438191577 4.8696525828869905 16.807666701429063 0.6663784786977489 1.2977746561263377 0.0834305413058775 
3.9295552828888614 3.6426978834949573 9.100802788867995 0.6866590692883494 2.9024148923974007 0.39706868744531565 
4.927240629398772 4.386289944373141 13.773107642202703 0.6908182243149619 0.13718992128664542 0.1919855752234375 
3.706975471614556 3.8222841402607557 16.270408483258386 0.6912427179368439 2.632777997878489 0.39347096639923484 
4.907044369344668 4.014105655147482 7.991946389096228 0.6981070442424495 4.14570483812986 0.07864604260248317 
4.704118854077971 3.7083122482673225 20.72805595133711 0.7068589350119949 3.8241599360998233 0.2668040535212358 
4.6536505383846505 4.837273796833946 22.74509902130213 0.7126178987269245 0.6902594011743766 0.3232352773106978 
4.173856079079887 5.009753423911155 2.9390469881782053 0.7635595339184835 1.2756672029179832 0.15722379262418845 
3.7330276005502316 3.608808107522817 13.220692941546417 0.823642825969682 3.3224416105180783 0.6027415946437272 
3.469903962662066 4.5537636027878925 7.872358513306509 0.8371512132518393 2.319129804302417 0.4909112267649012 
4.060479939696844 3.38080946418542 37.32277997296612 0.8896122980304111 4.001215486356015 0.18984559335672058 
3.9827472214218425 3.392284973004971 38.927250410043925 0.8983869518146559 3.9621884758513195 0.15155652503493025 
4.569870949942579 3.4006077939524078 34.447226881445 0.9076257732741855 4.603978188572606 0.4309808814305352 
3.9876915071595054 3.379659865051238 11.204321779508497 0.9090091836273615 4.017512385093527 0.14542456465636758 
5.16295813641689 4.336191883074985 36.77084339722239 0.9170177749410389 0.0863192992470978 0.365117279155283 
4.742424302546995 5.026426177594306 30.794367545839602 0.9194124770703298 0.9245565951919694 0.26916515415586506 
4.476246728996683 3.3569891854028837 6.647566644122669 0.9212252153350473 4.569756710937691 0.4608744146566199 
4.891825824214939 3.5860679769061115 27.308511203336117 0.9234425374211064 5.061258320531648 0.6847776235825674 
5.152393090238869 4.008636158308717 24.309797735781935 0.9341144434098156 5.625080506352383 0.5695495228898657 
3.3161613384211055 4.345195746632557 20.341605647457925 0.9386782601277124 2.853585039227017 0.21394443189697004 
3.9219586542973692 3.3693384994528115 24.918680007597573 0.9397743362299371 4.093484972766802 0.26202283890300276 
3.376942588108964 4.5980854525350905 12.01384447303193 0.9398897417912564 2.596172821267116 0.11664900555980025 
3.7814660968121725 5.069535484803887 34.81868670380314 0.9440139984603859 1.9731328032403006 0.43468144707796974 
3.3786171732670667 4.61823215068762 18.589407109414516 0.9459931012037592 2.5936959217741444 0.1206590924759961 
4.954410032546372 3.6177952834520157 1.2061645863246184 0.9465074207725461 5.254777991193546 0.6711757238481234 
3.5070125879121363 3.64638729758075 1.9581209359891645 0.9572766523021905 3.6604888921813963 0.3474282628780192 
4.849346045694412 3.498481746241019 32.96993558635225 0.9612467780036904 5.1769021821099255 0.215156410109784 
3.326704090624647 4.524196252669169 21.954708853815248 0.9631505184793672 2.7477845830737238 0.38940469357107477 
3.3064232839978844 4.026117622928757 5.93103876698197 0.9697733434903264 3.2725531487679937 0.696194372426003 
4.586296734652594 5.160952128362874 26.564105280175916 0.9710454540889661 1.181904227191823 0.4442497310374745 
4.4238239466797555 5.207816606353626 19.738738299844883 0.9734615636203126 1.354348671835723 0.2826415276413092 
3.6333411667453364 3.4963440178051277 0.4602885062094444 0.9737892257203917 3.921093450686655 0.5494285641506315 
4.285557106537877 5.223739574868863 8.940896401736538 0.9743885608375842 1.4950009693900324 0.537945206243294 
3.8631706142670863 3.3414325287849627 3.455069829303895 0.9874876320322152 4.255950160016377 0.4088382201221597 
5.058832666694875 3.682518485788413 10.134355405709336 0.9880513912163764 5.603617451550662 0.8427287896200826 
5.21607675198795 4.039990484482064 16.233299312679563 0.9886396144903684 6.000184034243775 0.9764802587746789 
4.968518372585427 4.931123954316994 28.042511369514408 0.9900497426327781 0.7511382583149064 0.22363597981395572 
5.166519656692997 4.65173446108857 35.24678722116995 1.0006991847357367 0.4133924257959958 0.0 
5.18370106719152 3.8865162962620294 29.923354635783113 1.0019571277044017 5.923513083706627 0.0 
4.067903716147959 3.264555785738497 29.077875363829023 1.0021274150596793 4.53930062654507 0.0 
4.285078702170222 3.244046103938464 5.059642194380132 1.0065653264181755 4.7784131589093155 0.0 
3.251111672328398 4.419161482509838 38.10823303553549 1.0131108025894766 3.0128239135715367 0.0 
5.147345789007293 3.7666916521625096 25.827118731377908 1.0192234417136041 5.900425578820315 0.0 
4.912419282183986 5.050197760218102 18.219231537880773 1.038804967675461 0.9134429950967569 0.0 
5.098486937134909 4.852524221127423 33.673092097025574 1.0406562926988838 0.6425876381688163 0.0 
4.1439690595469365 2.551784516209323 19.921604224944055 1.7015223741460948 7.912135601911338 0.1436230492342277 
3.4457385876262103 2.6965139018260658 7.965350062028179 1.7493300079325103 7.407836792361008 0.25021166292626645 
5.277418472638448 5.736220242530676 39.399992250619746 1.8067759482643835 1.7452294362042942 0.3787805064002629 
2.745472372784308 5.273854403172928 27.391123095242733 1.8198574724279575 4.629833084380595 0.4255910503741377 
4.443446035362852 2.437877534368086 8.345899316376745 1.8224185027170599 8.781756031650307 0.5023261400848702 
2.9217596513773927 5.506928571282739 23.06728507907091 1.8286858278599887 4.359170905544242 0.3639008995827349 
5.747507646207861 5.311106989879111 20.498908956675326 1.8353411656750147 1.1314190328339837 0.11434388179319013 
6.077819943099382 4.470378083823391 27.045468744060095 1.8410573712466145 0.2209077894072493 0.11069050068766478 
3.111629269526036 2.7879018486587643 32.311225391933235 1.8530026778597173 7.506220613426244 0.36401915734426715 
5.206186177853496 2.6609716077332912 15.616869804595595 1.8545358551798872 9.743896188515428 0.4332658009342073 
5.066074110839464 2.5682965665041664 34.70551536404564 1.8692520944522433 9.653154951995418 0.2677503137760444 
2.3932773795916624 4.02254990427737 36.87767104862603 1.8706021584453052 6.104684315937954 0.768655059759528 
5.112424070661302 5.914578127829609 31.105778383105687 1.8747254789181107 2.0486454120924353 0.35056384691445897 
2.538608886031369 5.022925042846717 35.761176212357014 1.8778372311865565 5.102796297308016 0.5185578274283 
3.9012481960616796 6.096924503519158 13.993394031462973 1.8795632318306619 3.3031956502393056 0.2969614828859845 
4.9098661511441355 6.017129703973406 7.639523632095894 1.8863114080371024 2.2888865563721374 0.5102644287111735 
5.272117945052191 5.83616931999277 13.367918182507971 1.8869706424012107 1.8838989883211656 0.4887570159112779 
5.952816945519356 5.063389886643538 25.639444983655878 1.887111193767303 0.8409478952050939 0.2827173790829182 
2.4710037294392935 3.5941738473667844 31.21081536808518 1.896031559111448 6.626221144549621 0.2471728210362819 
6.088789405728236 3.785939341024285 34.31611086214476 1.8964437175480264 11.446886021766245 0.26023546211135407 
2.4896631151060804 4.957383244200832 25.90313659909917 1.897149704818815 5.235177865656411 0.4007761016924596 
5.914788832201448 5.163037622185497 11.738172682588676 1.898725771497507 0.9524865001971072 0.41617059450522814 
4.8436339753643205 2.4459183861450366 14.168600202055423 1.8992397863767434 9.553708015553237 0.4571821451249614 
3.197331324969454 5.83208556203144 14.699320794958041 1.9002910474395505 4.100636389516579 0.37219506593664214 
4.9566355155113 2.4857276336123277 30.497618736303394 1.9005238053181748 9.680029162625308 0.25328382289987034 
3.596356498471417 6.036056593976352 11.472522294983534 1.90190640778587 3.6547548213646284 0.09837359710169741 
2.878072356118662 5.567255921356522 37.12095179059067 1.9019328648494984 4.519985145066439 0.13760284952156995 
4.652752118295664 2.3827860482171364 36.309290305309275 1.9101563314357868 9.407197270592153 0.5536394548082931 
2.3712969029518796 4.596896677495322 14.380608221839353 1.9104613661928618 5.6530596474051915 0.32141862321626796 
2.5799937383659888 5.17795257939581 6.650446004915011 1.9105017412983794 5.033055896293996 0.5005495832157424 
6.163236464240638 4.239708696472397 1.8738130588509279 1.9132641425136019 12.011101795840682 0.35276314262567904 
5.338546127899265 5.825551332251039 29.61675197028356 1.9150181913293955 1.85029990836993 0.5158557908800808 
4.64295877044689 6.131224881859869 5.013029153022536 1.9218282054855524 2.623050909203748 0.8451086575911142 
5.897183867149362 3.254874551152686 35.763501051481 1.924445206063474 11.045794193143628 0.4969041749621485 
2.7875114743581992 5.501922834773488 28.958479402493793 1.9251450521613214 4.685057429745637 0.5562945347277393 
2.342331835627478 3.9862317383483976 22.956840769428666 1.9258171048194417 6.314732852283443 0.4195969556770945 
5.006571887375776 6.0211230740615065 19.37530192858808 1.92594858816128 2.2477524731573055 0.4913253262140921 
2.536924921761411 5.131326623578361 31.47904408127141 1.9264897718675218 5.136861217338215 0.470203850602971 
6.076390625322626 3.6301711084538084 4.486957412044831 1.928701783859225 11.487363900950388 0.514673193700939 
5.236843845767144 5.907653244943163 11.835183809393051 1.9291643414699224 1.9944101871070714 0.2688136227839369 
2.867215722359152 5.595316981892175 32.95582987727494 1.9292408196640964 4.572160801212743 0.3611897859800704 
5.279775594905849 5.883549833530558 26.794639643061295 1.9310419038672892 1.9471265476914859 0.5021833883675962 
4.783117721601 2.392424197316342 0.2432792891920883 1.9325636775539576 9.647113727564857 0.29654968167507134 
2.3935508389276023 3.7112968424003547 3.5378413799568094 1.9330298962132582 6.618724283946559 0.2717721612360416 
5.55386076794459 2.822755810014378 33.25878054410438 1.933152575466502 10.54078647772026 0.30830270738110294 
2.6742645516971635 3.126833108060999 29.718796799596397 1.935057123235916 7.277460296325721 0.44164552447619826 
6.184133300720569 4.317354316269597 21.696128428372248 1.9353057197446566 0.06736792077343878 0.22939812642195578 
2.3431137362599515 4.581222603698523 30.081474706316484 1.9354388742714945 5.74749948258666 0.4645739994931938 
2.4451982227245157 4.951129821751211 11.757344133098847 1.9362056921219988 5.365335140736372 0.2992339460695926 
4.873159973319595 6.083190841275142 0.8562787119116138 1.9362120268407434 2.4069417651233316 0.5469114058664495 
3.44190499972278 6.010690987711394 21.693614871410645 1.937279092872571 3.876650905861757 0.3625770233642465 
4.7163921684992705 2.3665106015276702 26.404587887470576 1.940374698091871 9.614804326862703 0.24795792498410155 
4.122413877914423 2.313378378902347 37.783795785341084 1.9408198066414448 9.018219674165472 0.5452906973675409 
6.191202981207775 4.296475000006719 17.40928022195574 1.941759238390688 0.04647943842434632 0.5183177293794196 
3.752675480821412 6.127354171026312 24.18153588882118 1.9421097705449357 3.553585618611221 0.18956531204945695 
6.190099869719326 4.347987224258016 37.03660093827553 1.9425727787145417 0.09802882492029674 0.4247602246797046 
2.3677437653109603 3.765280231189161 7.17218503113471 1.9436670978595574 6.596100413148074 0.4421660644996394 
5.901652657908711 5.274668016126654 14.997177857073467 1.943682341754906 1.0792821953693492 0.4826175055085277 
4.417245100773686 2.312462281054305 27.948699521190107 1.944742485798591 9.331835000334568 0.49274670963273626 
5.295978331829974 5.891250100382515 3.5858715766095557 1.9462200704605386 1.9528308799432672 0.3662525202823701 
3.9554379816520404 6.174315222988411 30.111237028812177 1.9467295292562254 3.3536133566009134 0.3659552886852655 
6.161677203103017 4.618489207392206 31.331808334197355 1.9468677471334064 0.37072559010400674 0.2808149989329371 
6.134733445697472 4.740700729942893 35.482211845168386 1.9475644707421491 0.4960466673870645 0.29459163362107926 
2.389258598420705 4.8277509624761565 21.691101907840647 1.9483723304834233 5.534420607832692 0.5496199019199822 
4.320438874120306 6.197193383559802 33.32857967053563 1.9484670148520373 2.990190604028898 0.69166122297054 
6.000534606873721 3.3935052083305335 22.897640459720748 1.948834199725429 11.35810494550817 0.6473990955779206 
2.476845132957915 3.4394377170080572 39.444793443973865 1.9496382734046194 6.960910594803764 0.5892220342197589 
2.534726691257685 5.176950306020044 3.9027685709235413 1.9497177727851962 5.159230581359179 0.48319960578474436 
5.988355211918481 3.366062389902674 0.027559115870893436 1.950185770984066 11.335977762820832 0.7208784572697798 
6.140607876307416 3.7712753799614234 38.45519053628502 1.9502757250672818 11.770276495089648 0.6570571144550603 
2.4328077703638193 3.541348468306281 8.80715679068716 1.9504806056000574 6.852863816008973 0.3753594992261674 
4.017587339771976 2.312866780627535 21.410275411265303 1.9510255647301487 8.961025501331015 0.6930125677096357 
2.4538506042225157 5.013061747308957 1.2264248564731837 1.9515163033287788 5.346889867668038 0.3374509668382486 
6.191969455527581 4.048400487076537 28.69460869038975 1.9524056263525429 12.065366859948083 0.4830441125235481 
2.758502930621354 2.9876985478718336 37.99711624144787 1.9539622473348774 7.51093963013874 0.4832921886080205 
3.395667702214671 2.4910017922929057 11.412842232984843 1.9554944054524754 8.33090035475607 0.5752952328626921 
3.102478570568308 5.8354813137590025 5.209610256077269 1.957180734445322 4.300507033803367 0.5257336144968003 
4.871984951173083 2.394120489787224 18.282460668904562 1.9573333992739703 9.856675552745703 0.6396445556709279 
3.579110994581038 2.4110288630726373 3.701046854579353 1.9575257086546676 8.539852926043316 0.6571401068208885 
5.707329395053162 2.9427865872920282 37.27630109691428 1.9577067890901425 10.869255324651022 0.5587266493821226 
3.456675426326383 2.459643585002384 30.854454292126846 1.958249210881379 8.411227990135819 0.5502173669304538 
2.2974159600196495 4.095193755024667 17.041901064700166 1.9587111595815627 6.30844045512135 0.6387716425952955 
2.4977027656881905 3.374239071879412 25.636646580150284 1.9589545172360308 7.062154938506417 0.5112359539003002 
5.207637517203896 5.959186530803505 16.426579500002234 1.959180494859154 2.0769045639207526 0.3523594008058377 
2.305147863538944 4.011383711113609 12.939921172565974 1.9594355222918274 6.3949582777888345 0.46688622068193697 
3.942354438315287 6.18636809445807 27.49020199354934 1.96065478574365 3.388711496485552 0.41461545894202917 
3.746119944527944 6.144886726443676 35.90401927340249 1.9607373144699811 3.5895167835238126 0.36955694339829104 
3.0648370547670236 2.68657588999333 0.746291927182078 1.9618629295910175 7.972524345459053 0.5743091906149355 
6.130727667565749 3.6910408395273304 24.55303580651107 1.9620325946893984 11.761003988319912 0.7016081922841575 
5.188387421362313 5.9732349089508165 36.42970353696226 1.9621695910388945 2.103734378519505 0.3138693967563702 
3.0883875857895013 5.832104650226441 38.58568142810004 1.9627527926654618 4.326145272011562 0.568640822775611 
6.037360728975601 3.438367170295635 14.425523193803706 1.9630094818258295 11.49721033187102 0.8613255527413747 
4.320268915012238 6.211761165759778 28.516877737623545 1.963019254082894 3.0132195032247484 0.4596689209286928 
4.299989214396441 6.213370762072275 37.63197928649943 1.9640070445179756 3.0350604378706105 0.43768390180746614 
2.3504718621465015 4.749914828271317 34.14915307399003 1.9642102692997816 5.665272950312874 0.6607359891971859 
4.228300023035154 2.285707048178553 1.6715214824193154 1.9644128103776173 9.235376862233357 0.41432474532717406 
2.454994567548658 5.048702938392033 18.814638219135162 1.964680861189902 5.349706408002309 0.32888400355239167 
5.782996028248878 5.479346426885234 8.943006113876706 1.9650367579061532 1.3281940080481451 0.6634455891665728 
5.687924171509295 2.909206735490182 17.11513358613424 1.9660499742289335 10.877620172725397 0.5945291679860547 
3.923832450346283 2.31117792460606 29.413953700674377 1.9660662019581068 8.937186167329806 0.6392423219430327 
2.6755019565424965 5.42788373453468 30.515311778426728 1.9663301302001326 4.914464511568164 0.3239284880078242 
5.517136786405414 5.753838906531994 6.281487885282921 1.9665114015080576 1.7120708560726356 0.5333167509064225 
3.6574799061879153 2.3747257787154847 25.248182122330654 1.9666554010769974 8.665773907033985 0.8141086675016079 
2.483003703802903 3.3860545214397924 21.226273659358014 1.9668954473227305 7.0736419892639475 0.458268826096557 
6.210232779196204 4.412187742890453 14.577342896545957 1.966930962840124 0.1623720986660473 0.5274382911693672 
5.997371437916487 3.346369357019384 18.609663665906332 1.9671947745406113 11.421379768270139 0.6657735312702285 
2.8760783167877415 5.658038443798514 2.5220084157124774 1.9672907895924663 4.611194921637754 0.47424485006984757 
5.642806809062785 2.860634355535966 1.4441531435634545 1.9672945131292905 10.818199753758723 0.6033275857134027 
5.884271662408912 3.1546387795066053 31.80633885771752 1.9673993163345274 11.199833738474116 0.7819871256356368 
2.3487659365817226 3.7439496154589698 27.084983823840652 1.9674292758816259 6.6926646890491215 0.6797525094249859 
4.915466818713488 6.1016299545001615 25.32158877871874 1.9675821647928504 2.4118156007592457 0.4910705074519744 
3.0470393584948647 2.692780130689693 22.565971786648035 1.9677520236008537 7.978524802823184 0.49458712764355184 
4.521642584077099 2.3005724147383635 31.999487456508056 1.9682625850386677 9.547731311916118 0.5805357951275065 
5.956636158695125 3.268483040101141 7.143038777429915 1.9687515132018936 11.34249415884231 0.5770390136900888 
6.077363681870081 3.5154423415675033 30.2969950934661 1.9694753056028933 11.621826557837775 0.6871825957846287 
2.9195499465102346 2.7977680930368614 12.245903725017367 1.9695367111157678 7.8204928124764 0.6619395457614858 
4.147536043104906 6.217873009975612 17.60145113943689 1.9705387704516426 3.1978252490288908 0.4482281911329435 
2.7255215910028223 5.4993391722742935 13.224692557591005 1.9710106003970604 4.8389544546310646 0.33169960630476497 
5.4282446225535805 2.669916765750248 8.453412197771868 1.971020907482612 10.55111709448072 0.5472676279714154 
2.6448805055374374 3.105041422138834 33.70413164561239 1.9716335198311108 7.415708420893797 0.4892678331255126 
6.126813831973684 4.856441912917418 19.097578806154914 1.972359488944821 0.6164281703346042 0.5056992196908344 
2.30974176032362 4.607531183757738 4.862825646372535 1.9729243736117439 5.838607132221291 0.6606645533725855 
4.16627353779488 2.2787637696741037 5.333449422048897 1.9730135316877173 9.213855613189711 0.5575719590224151 
6.198410505811064 4.563761792175494 39.09559256982956 1.9735120879751669 0.3150988682458582 0.6594688894156198 
5.2971888948200645 5.923105220200395 10.317544473780927 1.9737998022333179 1.9966038473757024 0.4087880722779866 
3.72172069985261 6.1525050342844585 16.075617955334707 1.9744883956209838 3.636313299693967 0.48314981937432955 
3.1177028697160605 2.6321691338428996 20.06721120566118 1.974708460188459 8.09973978717763 0.5786653608476813 
4.2638902803840155 2.274932400294638 12.662553900758958 1.9751164429711603 9.321407355718064 0.5263350659339883 
4.8673439065261395 6.126273048834567 34.76897416775649 1.9752250638111892 2.4748123161280535 0.5755669632883644 
6.156539820352846 3.730976025050179 20.18582207589875 1.9759250930042314 11.889917665686529 0.4399592037199575 
2.276920360075721 4.141382335639996 28.5759953793546 1.9760670693310851 6.316670221760031 0.5240949000205651 
4.076513809527877 2.2812856676303834 23.782492462516387 1.9763434875451371 9.139589503796266 0.630425340513139 
2.993485584879669 2.7238848516269982 9.970908242847123 1.9768297654322022 7.953925565966166 0.482135961802167 
6.226249757006539 4.195198254525986 5.873741530311193 1.9770094419034534 12.36710791160403 0.7505636990145029 
2.4524649043247493 5.075115384615735 39.72317470302037 1.9778644589844387 5.362501010349497 0.33103640752273195 
3.219679431810844 2.5613019145424136 26.681444603508723 1.9781965769512744 8.23831100911798 0.7115763019554371 
5.81412481175172 3.037217298071729 27.640223296103002 1.979224168413924 11.13044663112821 0.681351387416311 
2.3718371765111623 3.62551037194555 15.607387001828727 1.97926321824136 6.853383469627728 0.511598953105294 
2.4718130921926953 5.119261759963532 10.75767945857502 1.9792838822241245 5.3181517079853915 0.21756153737955627 
5.674814720513316 2.874925493354308 12.89357515739512 1.980133047706222 10.921523504873745 0.660285886025782 
3.569952591684153 6.109815839133304 18.44708418703965 1.9802473161320577 3.804742976331889 0.5061467341394132 
2.2761136986518586 4.091151634637346 32.63003724684328 1.9802676419686898 6.3802134894516875 0.686837309903665 
5.194937854145762 2.5096534359279783 24.967894936642928 1.9803317174844435 10.31715361009634 0.8461124251081106 
6.088703339422145 4.987206079258462 0.5512721433589576 1.9809853037561322 0.7553789253473457 0.5742364294567733 
4.411295266220251 6.224413406642817 9.095444516299438 1.980990778180443 2.950259020958889 0.5966313306619208 
3.5919066571581437 2.3813565763789963 39.203615769333304 1.9811398467889125 8.665061927856058 0.8009241209907249 
6.2311379408371845 4.300075029833593 12.945184332866393 1.9817706853310337 0.05008035987282433 0.44733445724162124 
5.101191037002829 6.040152855222544 14.909077982045105 1.9822142736181116 2.2338608438553127 0.3912742762924746 
3.1606973424402804 2.593719430385846 17.10144234597383 1.9823838188020129 8.18850145661341 0.7498563481346967 
3.4027950420380293 2.4572411784307118 18.59923436452653 1.9828616777551198 8.468653019277902 0.5474290860113474 
5.575910213150939 5.725391816812737 21.961685662194526 1.9836377961855738 1.6636950214356716 0.4477412151303612 
6.1883737575728075 4.6714743460033885 10.276999290496995 1.9836666676601453 0.4247117638546385 0.6127838655279121 
2.398038462397972 4.96076147043377 8.166242782696798 1.9836691772093566 5.5049584497701485 0.4927013222132174 
2.4773338224633106 5.140500451769055 15.847715129413476 1.9837682403908556 5.308694923991862 0.17960909507848843 
5.931283646614693 5.303590645259236 34.01306613069019 1.9841290149967 1.110697639635129 0.490620106702942 
5.9035547027964075 3.152412958494125 2.8956706121946567 1.984676414134489 11.307074285915693 0.5725016571300459 
3.3942990659553818 2.4592436989479527 15.565682994258161 1.9846995284632998 8.46796526901875 0.5777095618188021 
5.670210061915651 5.636785296362751 2.1482462773152164 1.9849861657387886 1.5353690520605827 0.5025592230846067 
5.088969713582318 2.4506077081089934 4.0652345750523295 1.9853671701791495 10.222010966204417 0.8364518920104176 
4.4393418323754 2.273132548839489 9.996646469713546 1.9859142098653524 9.548030109098796 0.6000044526351044 
6.178302112099705 3.7740691157329085 15.934487704238407 1.9861669723684954 11.998847797761101 0.49576338865875524 
5.892333548252922 5.367187136733416 16.000152642253127 1.9862946866463795 1.1864998614203017 0.3741983895282453 
4.091268076437007 2.2698617601041864 33.46694178282221 1.9864901894184377 9.202213152309906 0.4736551667814688 
5.817809030753171 5.470587783868171 28.19784660371839 1.9869221663264542 1.314373360606254 0.673783045685319 
4.1977442902373445 6.236382093566528 2.042547774493549 1.987069319587151 3.173542923086215 0.4374384382167259 
4.653285477103065 2.3041400080264065 2.6160699764851714 1.987211685856772 9.770620729753439 0.5037659862711102 
2.3825523052616324 3.5693946855409298 35.30768576717903 1.9876077295718022 6.938914887307032 0.395808084844051 
4.488434897120162 2.276591366402423 22.334822304169446 1.9877607590759399 9.606112309343162 0.5561405478707594 
5.937854833488356 3.1998142710596813 26.092486951487317 1.9878993948889652 11.383906587467514 0.6052783963219432 
2.62466849683054 3.103935486505458 4.918509649004832 1.9887600067093527 7.469287431525036 0.534646198751185 
2.261519419444892 4.190982772945443 2.6615171892732192 1.9893561904128654 6.308772680512453 0.580715796457098 
3.450165606189768 6.071512461541198 0.34243083902223503 1.989382493406347 3.9480344722620497 0.5011854982054005 
3.8090071765300175 6.190363999999249 10.495112912614836 1.9898460048066822 3.5703277974749863 0.44842931851661494 
5.9608397828111555 5.2662649402320785 24.62670113335345 1.989916377940097 1.0666097764859952 0.5749399613043449 
3.178239025740151 2.5726609603471626 6.456874927574354 1.9905119542192962 8.248304078453797 0.5756243185669744 
5.234296451278624 2.519860124861774 19.938241839734786 1.990533469083855 10.409764581056505 0.6016978663869305 
2.3642871364479294 3.610716150663391 17.979994676878313 1.991129539680525 6.906128155993025 0.46692665178339293 
4.2712641744528765 2.258737704041936 16.907930099897335 1.9913758300279103 9.405402095800635 0.5687161640212555 
2.2787546155288005 4.532458676107185 20.215477142843845 1.991379237992409 5.972687908447893 0.9066364103056159 
3.4189317178771503 2.4403037764563615 34.84248076894738 1.991400238791472 8.526947350864555 0.5791365765912457 
6.152547523234226 3.6609529083839245 11.436701918545829 1.9916484514858637 11.915904808807086 0.5208792467488128 
5.6452793811875255 2.828713491984817 21.513952781322864 1.991697740479974 10.931540154864933 0.6036744914509865 
5.1526133490106085 6.025978369865912 23.614003646264457 1.9921872472344881 2.19256721240264 0.27536617588112833 
2.271953311362701 4.010773407211444 1.0051501220819645 1.9924603045296045 6.499303783867127 0.5981713399321308 
4.639274465136633 2.295828941099275 6.812082662791184 1.9925659679550358 9.781540127295377 0.5401349191112413 
2.3717968399369633 3.584505740306051 11.041735342086263 1.992618809545964 6.938528316677159 0.32578975790195003 
6.123646661003278 4.928455919603621 7.500097470508173 1.9927002396582196 0.6922987239006329 0.5592163740788026 
5.446790471967918 2.6567168582057565 29.068582052700933 1.9927013332958166 10.674151814319881 0.7007357047486823 
2.917887906564653 2.767661225809473 28.136664645749278 1.9929502931446568 7.932574167133809 0.40066323412028526 
3.8552067647116193 2.296523635598584 14.10968510708581 1.9929705479269988 8.994230525740253 0.7468039128663994 
2.723859971641609 5.531744774682641 17.29266000264542 1.992980946618408 4.868881561424116 0.23150094111763095 
3.012344004771835 2.68775113445127 36.446818869197244 1.9930915383977015 8.0568843415192 0.34483926042394913 
3.6477146360454107 6.150001425242936 31.629928808280717 1.9931766292928237 3.742724000524433 0.5674050516031054 
3.0368087381944564 5.8314899079122675 19.985029055774973 1.9932243643277285 4.435251089443739 0.4572699233398136 
4.204996595274006 6.243016332560153 20.89727689658698 1.9935243686216761 3.1764279836594955 0.5328120957204934 
2.2775693353619744 4.541830621850188 38.31429095314334 1.993902665290829 5.971147251876911 0.903037288663324 
2.9246560064261695 5.739880748084692 24.594832302675407 1.994061519817187 4.581985599035157 0.42854876719446816 
2.868956850720193 2.8112735273128155 2.299265880189658 1.9942953751597559 7.872370737937178 0.5992820801822738 
6.197536964773051 4.681377614251887 3.352882619852366 1.9947398013864062 0.43481280925185395 0.5529836342092884 
4.1669393163677375 6.243768651250208 22.446529103204277 1.99549806110493 3.2176057114696412 0.5566652308260932 
3.8059268788933682 6.195478857298889 12.444089533466972 1.9955172064120061 3.582373620370136 0.3395797584410795 
2.254461199408067 4.252679689953609 9.487061880134405 1.9955405997889728 6.2664959974782555 0.4737513741147683 
5.673635811871484 5.648465423218591 37.84624598840542 1.9956062900233915 1.5495471265866883 0.4458177565350577 
6.2442700694985165 4.323286540353717 32.810525902624896 1.9956162023532058 0.0733030231566758 0.21529669064821785 
6.230744530187343 4.0063535701427355 8.768731457275393 1.9956734393806195 12.294930235090092 0.524062662543642 
2.2579154331533546 4.370874849752268 24.483858794366213 1.9957483936536737 6.148879619810458 0.8487982441274566 
5.5050926163995895 2.698224480503505 23.43463646055875 1.9958117994062932 10.762373710556492 0.6623984023707591 
3.684275494848851 6.164614490890171 3.8442643021490674 1.9964450567083336 3.7095913900370583 0.49154915862071363 
3.568837464451816 6.126658652228375 25.98477608690206 1.9964543813516133 3.831145602019154 0.5126675766614138 
4.048197089225543 6.236588492571903 6.405468015593222 1.9968120226040686 3.3387330133953164 0.520731212863214 
5.626790772404461 2.803702465550592 5.747568726458056 1.9968298347962716 10.928991727403664 0.5612841094923123 
5.960479269227817 5.280398983944517 4.854540778155311 1.9968628887762967 1.0826691619222473 0.46548416000089965 
2.386137907282701 3.532686399181218 19.01454396199925 1.9971281137143193 7.007870196055695 0.3140588155175416 
5.299136976989948 2.5505174752021276 38.702521582223824 1.9972303944665373 10.516320417074926 0.795416812874011 
3.2247000392155742 5.96426536992685 34.47510075545972 1.9974848605471305 4.214326857601149 0.474763311764787 
2.594718045705739 3.1314159542310485 14.130696160881556 1.9977959394445328 7.463503302357367 0.4975223631995893 
5.61244477659256 5.711581865606251 32.552745210035766 1.9981184447207818 1.6394334529746288 0.37641158894741666 
6.033252215457979 5.151437448975097 29.886111901590567 1.9981436230537892 0.9352100718708449 0.6437826984238854 
2.724624327480428 2.959267004699627 24.047262129746457 1.9981898326914815 7.680764445040232 0.6951048828411308 
3.4235099467780756 6.069257403347784 7.916232201648235 1.9981950124325962 3.9908370831414555 0.4817286956812069 
5.79821998375538 2.986508727097002 10.059427495370002 1.9983481465454282 11.188168524709688 0.6123846507264865 
4.423649388607942 6.240938392564937 39.1797448908372 1.9984968834483996 2.9653629242137374 0.6413397915675894 
5.18406057622046 2.482312859254094 11.374998205386845 1.99929662321721 10.393351709317965 0.46846444983951285 
6.139649187431018 4.903364198550309 23.139881762044112 1.9994146212094168 0.6655893853354087 0.4379678221069213 
5.625433293404839 5.701192250699638 17.931303947520078 1.9994438459474595 1.6239356078894893 0.37215392134156955 
2.858247203994594 5.686081802881482 9.412728501079599 1.9998266899299533 4.680634003183222 0.0 
