226

3.747814115268838 3.7472109211842475 22.54747186367943 0.0035435931903087248 0.014343217199281 0.0 
3.735417478798361 3.7469095889919757 8.697518621074579 0.014906393420099251 0.049942805270258184 0.0 
3.762793525424217 3.773018659308492 28.668748915292255 0.026335014128350487 0.028007793022794658 0.0 
3.7510196057477656 3.782253918611345 7.125573260468862 0.03227003039459686 0.04966986973811771 0.0 
3.7519076106884337 3.713931257564095 24.06239812059397 0.03611915225259699 0.17211599369456643 0.0 
3.7307989790141742 3.78455911736782 36.35962312078789 0.03953494403867008 0.08215077701549856 0.0 
3.7064273916412316 3.754327057873457 0.9429894077454151 0.04378693445568915 0.1332265799285146 0.0 
3.736436192637837 3.699226247484514 30.18674565695528 0.05255426542785657 0.23393704907134438 0.0 
3.8011701762119032 3.7315412546921243 10.327078682800689 0.054397722488154 0.3229582678812619 0.0 
3.694412802686068 3.7443202551814316 33.2701773615601 0.05587661412811329 0.18123113184418393 0.0 
3.803905943948054 3.706197304869045 16.39473069125657 0.06945881436985624 0.3890265087447089 0.0 
3.699604812974804 3.6906498370402323 31.727677619938156 0.07785959618862365 0.3120930445920137 0.0 
3.6922469918686076 3.6965932931196273 14.867049893081756 0.0786618477283032 0.30583027218035674 0.0 
3.6667363402049333 3.7680479441850707 5.557596140822305 0.08519721434281835 0.249469213909836 0.0 
3.765425351412922 3.849710358139845 11.822327883128494 0.10089646667048435 0.1430017168849158 0.0 
3.7196109138928843 3.652654980324816 27.170098591883388 0.10197818104863465 0.4497030195050602 0.0 
3.6539135178405306 3.714657926174798 13.320165640134135 0.10238004803695078 0.3577209595612869 0.0 
3.749057665686112 3.8525954006331773 4.044670849286092 0.1025997281918507 0.16210562373694692 0.0 
3.832887579018589 3.835252913215162 17.896552167605797 0.1189050460124994 0.09506040376645597 0.0 
3.743654124923105 3.8716128473920834 2.5145585488022277 0.12177830176719473 0.19763765968492653 0.0 
3.6258887566027873 3.8430793343106977 37.89063707188444 0.15513659533883373 0.38754869569422734 0.0 
3.6069911031484567 3.6886437579515476 34.78760118534841 0.15561533670240646 0.5519486908236431 0.0 
3.7551651760983207 3.593887679970929 25.59920970563777 0.15619774489084626 0.7412306497039962 0.0 
3.905800052302646 3.7091145782159707 19.41394968155751 0.16107536748977203 0.970728689402093 0.0 
3.9074188335915396 3.6858283102942906 20.971706641883948 0.16999616151256758 1.0023147216643986 0.0 
3.59124288515566 3.8651992201095693 39.435436805638105 0.19614964141581348 0.49309478198250734 0.0 
4.899675848824391 3.139502175257232 39.010603102936884 1.3017150807245543 7.543481607737057 0.468298420138255 
4.380701619819786 4.919072574367054 15.498247235217562 1.328350562683101 1.429383440807162 0.19687769065947486 
2.435778834376877 3.4950505352170103 21.529349828359756 1.3387219658184937 4.4622353645196675 0.4180733576061487 
3.452130854750229 2.4442326203605678 29.39420307772177 1.3393111951381047 6.010974220846315 0.35271644907609684 
4.5602400461592145 4.8225785074112375 38.70861812087195 1.344214858927173 1.2418390689254206 0.2793971197726017 
2.485393988843427 3.2556935399565043 7.785179533311705 1.3577802620063646 4.77152557812877 0.5740070856166849 
4.233452848970212 5.024109787778376 0.17661167112277099 1.3627481089658777 1.6463844632528373 0.3414671744296625 
2.585735458830534 3.0303349413394898 18.373612200068536 1.3687328879227612 5.057790188220486 0.48730087685270607 
2.381322811921798 3.6017644511355114 32.531710546980804 1.3766811624747433 4.473494923694109 0.5080643199045045 
3.4385968603948314 5.0920128631592965 29.560596023596602 1.377668479802368 2.478154339388232 0.19654537009403586 
4.9379327792958625 4.448135873954375 23.14626860943541 1.3778889601951347 0.7320980906136176 0.44677776143802594 
3.619949441363084 2.377777823343508 38.43552609486755 1.378371085705753 6.365176425743235 0.212737785298592 
5.142275293742245 3.7349535707705046 35.042212347044554 1.3923565953438843 8.733387780122442 0.2849766117100898 
3.215632667388973 5.037574146285716 14.291550909903265 1.3940572543282506 2.7381827658428968 0.19349239344002445 
2.3961398944943078 3.406352302777943 4.649966649071878 1.3967930859958841 4.735367340531538 0.30780712073025646 
3.849403501864014 2.3540260567535674 27.91147631900759 1.3995085946166328 6.6945161514615315 0.5299580303088653 
3.5355697347281128 2.3634800199952783 17.177468799477936 1.4030032051342098 6.396222864960908 0.10992751409324371 
4.0694178472054565 5.118352133813882 37.18137900078891 1.4051388981970356 1.8849521804129914 0.6859948284353343 
4.925965739100573 4.525365493763687 9.580128811136305 1.4085762558192434 0.821081135886061 0.5106604477453053 
5.123907212415588 3.437356006824583 0.49545481760087284 1.4090306223770441 8.53793253222215 0.5945974983927896 
4.7248633720064985 4.768784253277804 12.57109952127081 1.4100638101897007 1.138520791284611 0.452840814601486 
2.4337213715411883 4.255930806258589 3.3582470717673516 1.4101614831142126 3.9126867527653815 0.35053839791829544 
2.4136635950428165 3.29797908661482 26.4469465618537 1.4107153835382467 4.8920295772195 0.42480384701475327 
2.610563785294323 4.581917835332414 35.474830000061985 1.4108161368962882 3.542475822228873 0.48355175779524945 
2.577457275012077 4.53576509298404 21.392527176241458 1.4114826330048547 3.6009616069353747 0.4190942519520982 
3.1744772082694217 5.0408160046736725 4.8450470655534446 1.4133055019078706 2.8127631789322844 0.3816539177389211 
2.6698427205004363 2.8380155585041162 16.8738282424733 1.4136673477117794 5.432401848527164 0.2944957597882792 
2.474227364805084 4.368173625734341 10.94182102548558 1.4176510319065563 3.814023578043688 0.42535089899014855 
2.8351338215491246 2.6651511276940596 27.87487599249826 1.4191114121931299 5.693177574691532 0.49520920750456204 
4.939933223165104 2.9751012001182104 26.34108238988223 1.4200032484647116 8.102479653752095 0.3570556071688135 
4.874934460615004 4.619290361878441 3.2947974517251595 1.421669185828376 0.9353180180872798 0.5523067792292594 
4.713504224039163 4.7974332463494695 24.6778988282856 1.4231854395332646 1.1771312242271108 0.46263641947768214 
4.780891803348775 2.766702110131952 27.83045806324502 1.4246447453420257 7.866050675153506 0.48044384787864525 
3.8285193375531943 5.172624852804647 20.51905291741062 1.4247900751294007 2.159495880013406 0.5992850170959407 
5.1673942061769065 3.6002792579026828 33.51656276033462 1.425279844913986 8.805299905822363 0.21282117876293477 
4.999168815964729 3.061049209712394 5.304721651098404 1.426560872243678 8.244338093611805 0.4318636631529524 
4.9648888513311755 4.500619055019415 17.055615156117945 1.4280699866767814 0.7903527663393835 0.6360550868880476 
2.506784671917117 3.0472337476258797 29.506433575324806 1.4280983010480042 5.22125923716759 0.5323102519083952 
2.3226344201731344 3.657965375578992 15.555310493520317 1.4303296370301504 4.585611331202206 0.3325650907084556 
2.3286254804611195 3.5758416306987852 27.94729259375967 1.4320044212194463 4.673365153778075 0.28466660310309855 
2.4499605408354714 4.352925401128062 1.8245023711746882 1.433046277937399 3.879747694475083 0.23150181998602679 
2.8873689656628 2.6049310815325564 21.683511230802793 1.4336370284845008 5.830244838744243 0.6477908289786715 
4.199080752174506 5.113277606703487 13.970078870669155 1.4353394563352624 1.7978755134048514 0.5567552647210438 
4.517024502858909 4.964386552729859 1.6496530696343612 1.4363360635440006 1.4470431535697585 0.5340431995172339 
2.7838743899687852 2.6837733431995385 32.528979970271706 1.4388321576994576 5.721091380137167 0.5638841294223297 
3.4529758570473774 5.158970800018228 34.28789981818137 1.4399382128413518 2.5610215599372355 0.4410575908285512 
3.168898758905944 5.0707711581311585 22.002017133549614 1.442953604435076 2.864665565671954 0.4182231959347057 
4.891374267812579 2.8669422034848964 8.228702512387528 1.4430960783020699 8.116983663988453 0.4613487754553058 
5.175015112983748 3.507093775590995 18.583333989608633 1.445569613020667 8.83871764890878 0.2546037588255798 
2.618348979241796 2.8501130387890665 24.66435132040607 1.4458321395447438 5.5135346337670414 0.35108900095155154 
4.6110291252504965 4.911595919140754 30.69534934713201 1.4459170909475016 1.34892629825276 0.5574065292439081 
2.6203440153320576 2.8456045053448458 37.36638961057767 1.4470846051453379 5.523081328726611 0.30739281511887856 
4.119307166910836 5.149701091686552 27.279038122256736 1.4476017855751053 1.9004522893960996 0.6265122173222806 
3.3820193561895344 5.151688309069706 35.795486614128635 1.44918593355092 2.648430277817848 0.5641235277715831 
3.2243076081911104 5.101097319218165 0.2534218527383274 1.449764276289172 2.8152369339746484 0.4163996061511129 
3.4203431045614634 5.161912311671893 28.047177161185473 1.4498862177980882 2.6100413439284083 0.5293076161472705 
2.6979088698188987 4.748103608808888 26.786578846978948 1.450209143580015 3.4551541463896847 0.6378440970416965 
3.3357833307089217 2.3600126491017894 15.604150328190961 1.4503931483482737 6.414752065867477 0.3054935236071166 
4.906361955855119 2.8718036105404643 29.366829231368797 1.4520337018846514 8.18027153321377 0.3573222746658057 
2.349270830369721 4.133173175511998 12.442955702285325 1.4521927864732969 4.174433492637926 0.646643211471185 
3.0916993865904745 2.4540355940344867 3.6176918826997237 1.453576086465688 6.166639726158481 0.7009244191289957 
3.623036681479242 5.198487319518791 38.637052835742935 1.4540409894691897 2.4111274554637134 0.6305857050940227 
3.346451094172207 2.3519450815419933 1.5215390475889947 1.4551320470731963 6.448238753349095 0.37542349024893934 
2.9153809520855845 2.556764869567732 39.14054394627183 1.4561589994362825 5.97320236315808 0.7752721178441488 
4.148708385849207 2.3492833798350823 26.35385249339408 1.4563569023260454 7.266785058464386 0.6543982562396883 
2.2926033091582445 3.735043509991182 37.04431700438139 1.4574734340871816 4.593744585856188 0.546571163815997 
4.973007684736011 2.9572286668226333 23.34421794695207 1.457475277193803 8.319365490705442 0.6758515941689134 
4.545998144599025 2.5281532756739074 24.89351747429349 1.4582600810388704 7.7139010445342855 0.7931031226524278 
2.5984053432796683 2.854550394009836 2.819830678041889 1.4587666880809826 5.546972866648812 0.19611211784728605 
3.748930284015824 2.290350896083803 4.995773500097812 1.4596494958912722 6.877366483582168 0.8473913630633008 
3.6895534483550625 5.20934517960641 23.520222430652233 1.4605965010386082 2.354763438235656 0.4360615667457 
4.777977597202708 2.712349272354314 37.52095852185012 1.4606358111912332 8.02342482338427 0.475931192987951 
2.5562706042016963 2.9080763547619135 0.032011025487122424 1.4607618884691556 5.486415908311093 0.46198607569779343 
3.568564321578206 2.30046479508524 24.85616966351565 1.4608460615998013 6.702169483371106 0.8209734734120945 
2.2892433596288093 3.679789696160328 20.02887033463128 1.4624429729578474 4.664637402765251 0.4793423329608353 
5.104625395446382 4.301602935873286 11.18673971128738 1.4626263230409529 0.5655939278583215 0.7622357298152297 
2.5917117540013663 2.8568037309700287 11.198628369163064 1.4626794713222897 5.555963596078881 0.23293778109919366 
3.7109699488396544 5.212224988330923 25.748254519049816 1.4627457952060405 2.336710406147567 0.4021613509915147 
2.881483679717191 4.927340679593953 12.776131309385896 1.4630282548277536 3.2279882400567814 0.7724480114959671 
4.938707353720854 2.89682515752047 32.799468864932166 1.4631925658060205 8.282630780344817 0.6689445288286923 
5.0159081550336655 4.48473022903313 26.13420804079871 1.4636775486546942 0.7697207410017155 0.630829110048811 
4.517136557930618 2.5024402938918424 34.37900167818776 1.4645489813653583 7.708945623012934 0.8607770424978796 
4.937506651204924 4.609476395525536 37.18891485148521 1.4659030394679937 0.9183861561275357 0.6428890108308609 
2.3884284763781443 4.294844026586511 17.111728940669416 1.4665374278363799 4.049036356147679 0.5508239504478254 
4.836837461522203 2.7638313772401633 1.2776432992136364 1.467564042992352 8.1395662886234 0.6566047827042754 
4.251359186337945 2.370335472568086 20.31809793594085 1.4679357077131725 7.429140747403336 0.8252446790197246 
5.217176757543097 3.6958645853524494 27.641297367884924 1.4681751533770553 9.170668862933029 0.7222661075183421 
2.4530933262634855 3.0589629741846087 23.055369023224472 1.4695234232328835 5.336077287261853 0.5221963798010403 
4.444479971687695 2.4544530685406336 5.879970003979928 1.4699470339740555 7.6502808268538125 0.8552546322103065 
4.97602989501021 2.9382897099565133 17.173295708900348 1.470381888633436 8.378788745450619 0.6661945860358022 
4.663181701924788 2.5974459377050465 12.823801405800886 1.4704698865474437 7.914692594207866 0.6924319970029368 
4.3091962295246145 2.3898345746721885 7.556988683853682 1.4706292555813416 7.50380902947429 0.7266361547192919 
2.311116919181325 4.054100505295607 34.0616759839463 1.4706670723135415 4.313926513873662 0.5852447675181587 
3.005713068700323 2.4811139811842313 8.301081944988425 1.471065860133265 6.151857804696668 0.7152852034817513 
2.5557907757610465 4.609882925248902 18.165990093735374 1.4715754538561767 3.704751197539987 0.5188732682687258 
5.202604396362375 3.514140809351578 9.681969342301045 1.4716280406898448 9.009630895470451 0.3851098936582106 
3.6431011432130838 5.218581539482748 17.31502188950239 1.4724670127686643 2.419938757603841 0.6317718139668014 
2.770477139909997 2.6497376970493107 20.14529809525895 1.4731062991967874 5.870298455651264 0.5994783258688239 
3.8340880232422503 5.220972077681431 12.428508986207127 1.4733735605647387 2.230236038264353 0.43891487637954163 
4.198289439980755 2.3461769578508695 30.724378618688952 1.473662972211454 7.399981411929357 0.8087531956690344 
2.457048617909525 4.457558613956383 0.2623048847191711 1.4738936422393398 3.8923594290432266 0.5952828652323174 
4.168154214496033 5.163566936021255 9.268039468759149 1.4741181871591267 1.8915640583462014 0.4124678247197857 
3.498048384610221 2.296768414294453 18.873492817652114 1.4749107288882874 6.6971597000963605 0.83791862639422 
3.7972277599748754 2.2756604119798824 33.663491736615846 1.475095821333507 6.998461125802354 0.8556196678863732 
4.659957177267403 2.5889912574391616 35.92694740287364 1.4751146954603769 7.93191503693434 0.6130621282913106 
5.146519028619169 3.274790168911637 11.511680737625191 1.475157544419735 8.784849854182571 0.5109293829913258 
2.313477156423965 4.086364628789042 22.91142327544233 1.4753775935726314 4.295686547576903 0.596204540961585 
4.754455583087072 2.669333878000388 21.758926231052328 1.4753881813382113 8.0574691971958 0.5176587534819151 
4.181809934332472 2.3391994700769194 23.40935383507901 1.4754043359769078 7.390904151230851 0.8062122984231517 
2.9917823487609265 5.015847651408549 32.85234177449951 1.475555584594169 3.1141093322265156 0.6382572662334036 
3.1695347175544635 2.3931847803469806 12.684962122375936 1.475766744579456 6.357805031655294 0.5587764816778762 
3.221990292004092 5.128767360189088 1.8239024992820987 1.4764124373835084 2.8591101511139563 0.6507513864887141 
2.282371902640543 3.589041112590656 6.191633663286339 1.4764281207004275 4.799615179585087 0.5206862141387216 
4.639670049430496 2.5703598824369402 18.745419788036713 1.4775194089479327 7.917383532671101 0.7060018398607155 
5.227422478623739 3.80335200116562 31.606949778188905 1.4783854762446378 0.05336358840982669 0.5965267476519839 
5.041339514811721 4.469950265293794 14.177609336022499 1.4784742564585882 0.7519519407990227 0.6378617428653276 
3.29272052247417 2.343951663952283 9.868475878699364 1.4785386176454263 6.502546686818434 0.5395506117460103 
4.445439361416769 5.055292519518854 35.67355968819142 1.4789944107127795 1.5991871780470568 0.4894551578926936 
4.136057928146638 2.3216371470914856 14.22531781330197 1.4796152079016438 7.3631005726548375 0.7005020634645405 
2.6041461124210086 4.686472037705805 37.05334945577811 1.4798516848268108 3.635121824090489 0.6720999027769103 
3.4641010677556423 5.203055936272392 7.770982894750787 1.4809151742739695 2.6139214422608408 0.5235176948483314 
4.128781397022643 2.318103715718143 0.018191680180265735 1.4811489849676214 7.362786749465732 0.6975959979141507 
4.576735370675429 4.979425105234391 33.20805538221869 1.4815456329477104 1.450130671594934 0.5344515098391988 
5.230497013167591 3.684571915267891 15.70992140763552 1.4819420502401124 9.245867156889556 0.7205183094464911 
2.575579879636785 4.653921677087046 15.61994992077394 1.4820043918362076 3.683696891790317 0.6343668497028945 
3.987384835755095 2.287031175990146 11.408599415032889 1.4821030127056782 7.222657604202709 0.5975168852484999 
3.8138749062343127 2.2692502705209163 21.86789906250869 1.482126770893374 7.048252558301659 0.8462185582341123 
4.714552588231946 4.876085433524737 20.10209212093133 1.4827103894764955 1.2788522625289893 0.45604426778362844 
2.4287856827171046 3.0759989482845542 31.067590520764284 1.4832008258852996 5.359275327409831 0.4705333148254053 
2.529544841763956 2.9060695256443987 35.75427139287999 1.4838225765943305 5.559264740333152 0.4681181199414175 
5.195898494858132 3.416270624039911 13.052632538837955 1.4839129872777974 8.987091579280111 0.3468124964086544 
2.9367220481478347 4.9913831586173565 6.3531671895077615 1.4840664316221353 3.191893574923739 0.7041658910187907 
2.408711837464362 4.3854523929345675 4.896406382453989 1.4842013605452924 4.006088441555967 0.5030108310770643 
2.6735293617581233 4.772365918924108 38.667346307105305 1.4845945935420914 3.5362556510782355 0.563803092453156 
4.435743973786912 5.067214327965989 7.573099657730367 1.485024708004536 1.619870219995093 0.4466716797104093 
4.996191251870808 2.942260962571301 31.05479913313219 1.485070701625204 8.476932535177838 0.6297164061541043 
2.346564272625347 4.235600655042579 14.056090074999261 1.4850723339451872 4.170793238232944 0.6126672964558701 
3.1776350748448703 2.379540941726794 23.33859013160897 1.4851800018687706 6.411172782465579 0.3927224799059943 
2.5177266651950347 4.580720346238265 31.250002811653445 1.4861338652105243 3.7873177693495954 0.5151497709241891 
3.893550883017533 5.229220076174475 6.159919267906034 1.48616919957747 2.1906940759450553 0.5804479302479969 
3.7028151716838327 5.236072191306213 18.9985628091746 1.4868210940785302 2.382685865329723 0.3616220421049814 
4.326021907707465 2.378805568040481 15.79250479227963 1.4872711280717221 7.600091571196149 0.6939702770646762 
3.3392723497332106 2.3202862809052585 36.904190557104506 1.4875410990158877 6.593738195299338 0.6529720342678804 
4.898517085753859 4.695670582699246 27.758094002770058 1.4877447184417325 1.0248146942427194 0.6368199863743534 
2.4766296693080525 2.980491306926373 9.662013944253758 1.4878224449854225 5.4828849634193375 0.5032546481919953 
2.497858879138783 2.9462266376956316 34.003341562452746 1.4879210343636033 5.52355887952055 0.35236324469311353 
3.1096250222072124 2.406791990269352 6.654348585158605 1.4880483424901503 6.3502662868859225 0.577111245995292 
3.9198636024447904 5.228325179629152 10.861418545501898 1.4880520757557816 2.167192048036018 0.5167489106828441 
4.9604482991943915 2.883874993216155 14.451851145953533 1.4884077439999135 8.427521404646601 0.5086553011942555 
3.0370180651613836 5.056687550782845 3.3206353190302735 1.4885481499693227 3.081721171316694 0.5434443563740174 
5.106212624359504 4.36454744981107 8.031015750756048 1.4889530719741917 0.6334869361426634 0.503105101777931 
2.6850717496570207 2.709246118829765 14.20953571393325 1.4890402343622102 5.830353090616049 0.5147939200626872 
2.2637150416613716 3.8433155432890125 9.174647992053018 1.4892114584581273 4.585119060306107 0.2615118111220021 
3.1285337596950544 5.103343097220943 24.91720854330626 1.4892138283786978 2.9803358617764744 0.6299684828617343 
2.6632997932381324 4.768372447761713 8.96983228629157 1.4892950620130547 3.5573923200188737 0.580161174710423 
5.238409545286355 3.818378190969444 29.16955501672939 1.4899793795552294 0.06840221539275637 0.5312202526408201 
4.403336735951202 5.089164869455789 29.209803765688484 1.490037394875683 1.664223816240031 0.4873594085407529 
4.216960375244627 2.3347442606740145 9.460844778219887 1.49030225113691 7.497843822229953 0.6873901499773678 
2.529306174537779 4.605958729287705 19.73072479931632 1.4908919349722887 3.7720419645073973 0.49090659180761437 
5.042964682955271 3.0072202042768694 20.131330768310505 1.491133627916733 8.591529331594383 0.6550290374169108 
2.9855811243652965 2.469253563862183 26.289877842116233 1.491525276723913 6.226052763434204 0.4730824232984345 
5.218914782436872 4.013035667861863 20.164976210478365 1.4922795986775057 0.26441711814951674 0.9181296053093915 
4.879140179216688 4.726054611293798 34.766695111607085 1.4925281064520628 1.0638858661473414 0.5506595635615699 
5.215993987285539 4.030845430073142 38.564289037880535 1.4926528485720714 0.2825294384000827 0.9163816096565828 
4.2575156304399515 2.3462375480583786 32.2311790283984 1.4926892297534708 7.551972768178254 0.5975637926538928 
4.61536025705772 2.53350287208126 3.7949573704985227 1.4928876838963956 7.9581282998085925 0.5697385265934916 
2.2797938552628754 4.010059791538275 29.667663718360487 1.4930295386219687 4.4290975361774 0.6599894946219318 
5.136467134747798 4.303949606352289 6.166304662181922 1.4930342534964254 0.5675173851935469 0.6380157829275352 
5.1099794927932845 4.366683150710541 0.1042686071833927 1.4932656592812155 0.6357123339211022 0.4969821028953127 
4.219691688527066 5.167508925455806 22.011292427743413 1.4932989774383016 1.8678657967808583 0.50088658456557 
5.028273346131016 4.521992965758461 21.631153396994335 1.4933036819781598 0.8113227315375298 0.48004797501461677 
3.0114654627243347 5.048365403227041 10.441504058514376 1.4937154960185346 3.118837322523418 0.6077035246733691 
2.798671765715034 2.5983622609996324 5.15873112493076 1.4937519510406103 6.007803518950828 0.68986279703137 
4.744828023290399 2.6355693974833034 10.851230585127155 1.4938669163448295 8.128345291750216 0.4777861205466651 
2.332032545355709 4.2210372349816145 7.559971407602141 1.494157882945954 4.214824824322392 0.5485829009886669 
5.021046700442502 4.535490237301852 32.29079564727383 1.4941735600666655 0.8270852805292748 0.4533807423464812 
4.630734688532769 4.9578546262793095 18.507122657394007 1.4948599900356032 1.4063021532676991 0.4124525129794851 
5.180836469228367 3.317179273086672 24.886503649233717 1.494866811230913 8.953416857560155 0.24378696082198772 
5.188040771482981 4.159706162886646 1.8978014303481032 1.4952659965219124 0.41501412125716897 0.8055027310700698 
3.656889741877193 5.242520460214807 31.998799310973602 1.495421961965087 2.442173849013413 0.5698390540760339 
2.497407485162509 4.567034219242358 28.284506001364605 1.4955042372523986 3.83390474271385 0.6730313596315147 
2.2544717680950157 3.7711297798200905 24.446689745889046 1.495677491981507 4.677678938223423 0.42360275591935675 
5.244153304004188 3.824032546559928 4.676707083158789 1.4959862679238678 0.07406279762370183 0.6439201854559405 
2.288581993177215 3.42974879113355 1.414810195262163 1.4960960622387531 5.022873149521779 0.5581478500398258 
2.3941061274342417 3.1172831829416676 12.75773773373028 1.496254912857363 5.353898475858433 0.5217435710841577 
2.2567758211561264 3.8491541825801825 38.64720667698593 1.4965126127791586 4.602206156764888 0.49842145132427323 
5.2456858583535775 3.8205713406930215 36.61450939802596 1.4973498258610403 0.07059749370879942 0.6999336141874108 
5.200595421679385 3.3762149791212916 6.825078842365244 1.4979794121517453 9.034305478047123 0.5356517855647299 
2.7455015652544956 4.8614611553099865 23.44418102422634 1.4981198233683377 3.4541954417183813 0.5458251470435089 
5.1951867780334995 4.145581177580507 30.124952212822915 1.4983488550597381 0.40032706577243715 0.7654216968124482 
3.4431361376397165 5.216852505910372 15.814008716543512 1.4986065875066104 2.6630555104322813 0.2311144537031212 
3.2614706575890944 2.333040194676986 35.331290969740394 1.49881153194705 6.56536164170179 0.5201609695605277 
2.4208558315126343 4.443045933003559 25.281826200051796 1.498978614215942 3.988713341893199 0.4547514431179074 
5.099015603999859 3.0963350001855607 3.114309427885388 1.4990400367626988 8.742362854600236 0.5589289066504338 
3.038844537752344 5.0696282594475255 30.524490703100057 1.499053312800177 3.0956681906191754 0.5473496543713741 
3.940402171858059 2.2630502739281937 2.3891183561314975 1.4990905492708857 7.2552156370060406 0.692258456724118 
5.234998208915028 3.544844955490551 21.929363559713224 1.4991024890808908 9.21333785842702 0.4358368665298591 
3.2115795308402326 2.350668925389135 30.910028980696367 1.4993412079916377 6.514758328467964 0.5316622164646541 
4.02229422632987 5.224662493308124 3.1049155434767783 1.499591149234456 2.0817390976643857 0.5080052101632306 
4.395214528041326 5.103834056050335 4.727979559115482 1.499722787223456 1.688773428639177 0.0 
