456

8.194640901344542 5.753647243738087 2.019174609706269 2.006986371112394 12.108710193133705 0.0 
7.828436605700926 5.0101240330823185 2.6118133247429682 2.007175760006261 11.274994876729565 0.0 
5.483566219730463 8.108530099941046 9.345086507061048 2.010361875863427 3.9442001162134 0.0 
5.064986653312051 7.882930734217851 4.825275128308835 2.0176023925892386 4.43582273048278 0.0 
4.988552881003358 7.829601446431358 22.909687000115106 2.0214820215853915 4.537568727195001 0.0 
5.285571196625451 8.037935285012491 14.816683193869373 2.031461419808694 4.1959268580841 0.0 
7.699858333916417 7.686724069204013 32.34333638646866 2.04114312076763 1.5938226985918753 0.0 
4.441922518962613 7.204811851320937 25.487548335150855 2.0447028754460677 5.430185347682576 0.0 
6.686600606960907 4.252076652173336 9.844076680603997 2.0450715864706384 10.07715987777059 0.0 
7.242103053791407 4.456728267396576 39.07779196476887 2.0494125929877365 10.693247740849852 0.0 
5.317939186396412 8.084090564497572 35.46640903681787 2.0573345763473703 4.1989622476741015 0.0 
8.246950754202741 5.744440821353514 22.695015978277254 2.0599520377486007 12.432283325497924 0.0 
4.30997392802832 6.950565239797161 11.140920348019904 2.062642192708645 5.765195623052662 0.0 
4.541125060735444 5.087362722134772 0.4208162718409092 2.066876628618244 7.728072983796945 0.0 
5.805357078455035 4.2264195579204635 1.1210769703400985 2.071855480782108 9.31526005254857 0.0 
7.379018342825045 4.511441825060176 7.863630672491006 2.072985032769293 10.962653300496338 0.0 
4.475564592652116 7.322597264828428 23.653556883552632 2.0734237163125315 5.3865290127420185 0.0 
5.881163945749099 8.29525848832952 13.873704828004819 2.0782498211233738 3.635307422553801 0.0 
8.093758575549487 5.277350370569744 3.586796230299022 2.0845846076720105 12.08590474305803 0.0 
5.87088221430276 8.304082922730979 12.815435953353536 2.088776423863267 3.66227314877084 0.0 
5.173151722864414 8.042949328780171 19.611184056645698 2.091475437948806 4.416481006901856 0.0 
5.443246226334862 4.317103906121394 27.98150353025607 2.094502079505797 9.041943481088953 0.0 
8.34828782825902 6.344746097002732 33.21281835216269 2.1004258218554637 0.09477825699911868 0.0 
7.774071142726937 7.70361298474587 8.823944287685169 2.106129995397907 1.6043245412788778 0.0 
7.664371136562631 4.686704339324855 21.784868710525238 2.108160106497418 11.484866148361341 0.0 
6.075092985216838 8.353702223645847 26.653204892956964 2.1109608024766455 3.49099723915943 0.0 
8.016155854492567 7.408549291913253 5.064043893044307 2.1122364839551158 1.2262846871606214 0.0 
8.165891906170442 7.143033037393888 2.5930443206700033 2.1137998490884513 0.9219910661697472 0.0 
4.185512217378362 5.775303729139422 12.860327988959817 2.118359354350188 7.133783809014211 0.0 
4.210364348437384 5.67511904367618 15.830016467594135 2.1191039863746752 7.239538216347782 0.0 
8.365812058635859 6.39954595186564 11.039781227203598 2.1210904410675924 0.14967012499307586 0.0 
6.415907439435122 4.117593855450814 23.17309449431768 2.138850449136412 10.245169552742835 0.0 
5.084676515497469 8.044995700387243 29.669442998378756 2.1400907429223173 4.593948242391701 0.0 
4.19320762589269 6.853923754786507 34.15664846156294 2.1436228147184426 6.122177217666245 0.0 
8.21209382991338 5.377813504358878 15.401229695755738 2.1472124907802908 12.593185155108849 0.0 
4.992514381077134 4.501424485606716 16.554083052298175 2.1537842072346893 8.806666140830664 0.0 
4.40376271253594 5.123646455092709 26.756526732679205 2.162698413960639 7.979040938871851 0.0 
7.714628788321698 4.652225018410222 12.514035461741166 2.1674921866929298 11.822232471262145 0.0 
6.6751899927375105 4.117285578234492 26.601308342080777 2.1746855714633124 10.675910979184922 0.0 
7.109569116664003 8.255381825656123 28.50899640546075 2.18183760463386 2.5437042905047633 0.0 
7.126966854617437 4.249991066624062 14.00899626538628 2.18382842679574 11.193481027173219 0.0 
4.151523731285097 6.8615164845145635 35.81041926533973 2.1857618948990467 6.246984691717996 0.0 
5.7935112858242 8.391531389737567 2.560688498962044 2.189643495960289 3.8993457502610553 0.0 
4.663311756456313 4.7331040725547595 4.070886370783171 2.1951202329029047 8.570862218572248 0.0 
4.262218510993305 7.219285933196639 12.111865972792792 2.211513162594912 5.944318290308541 0.0 
8.330058434061153 7.027609954194482 15.810217006949863 2.220657634569382 0.7944484404145307 0.0 
8.450263899170965 6.559992694838726 23.306394300727497 2.2219938561680124 0.3110071874722884 0.0 
7.654474181277038 7.973345483535587 26.823349029964632 2.2231660715062027 1.9719349604536163 0.0 
4.02539482391748 6.306916102304831 30.883320067985338 2.225333150823648 6.93416796896598 0.0 
6.33300383069899 4.023603725218745 18.10672243831216 2.227942999331571 10.581957083170789 0.0 
4.427169061399155 4.960244925291885 36.47040973203866 2.232975768667403 8.390120221711959 0.0 
7.320170254696569 4.288038196328644 1.1038145918363682 2.234850888337446 11.647460302400399 0.0 
8.490474769423553 6.165685491844979 9.22141123519446 2.242060688007564 14.002948378994914 0.0 
8.017989073453773 4.869658819069565 39.66023409082634 2.243017418484387 12.606427667665105 0.0 
4.008211693835689 6.153486198776498 14.959473729152386 2.2438649075828234 7.145853094697205 0.0 
8.072127225621445 4.931321328423294 11.165458474224963 2.249235662446737 12.723314078014806 0.0 
6.011073389912356 4.005941259232204 32.04297591692281 2.256742244259261 10.395272053837196 0.3027717303394895 
4.022306545445209 5.879292972886713 36.42110865149643 2.2583272188541295 7.467136564622088 0.05283268390690849 
5.349816463129605 4.170937509612518 12.048882766315899 2.265575255644512 9.750542651248942 0.35791615808257454 
5.845288448113328 4.018121906941548 16.195686400433175 2.2682749530215145 10.28210367686256 0.23808765598084491 
7.611801251802683 4.43557742367439 25.98318377707877 2.268618948808155 12.151261199705546 0.2755493998727077 
5.52453699654388 8.407002894906766 30.514437633104727 2.2757324223246758 4.313060733695664 0.4334823076697515 
8.531635510272357 6.395803867532811 18.743145468494482 2.2862894325792027 0.14590287991055817 0.17397690051608625 
3.960519100260896 6.269366015311332 16.60272541857809 2.289562803859989 7.173507438298685 0.16684143787199784 
4.068785365429537 5.541431090816136 17.344839112978498 2.2934182307478004 7.925341139720565 0.31544150923559433 
5.90659358436579 8.518440893631313 16.56538676141139 2.2942868291034513 3.9485591091264354 0.5662260340682217 
3.9675730775827542 6.01487805031066 37.43408234783895 2.294505390580021 7.443936666236077 0.15606702334025208 
8.171179458712754 7.504823621090209 20.755314394960124 2.2946705281207076 1.3276696662600411 0.2366692456269878 
6.508316573706242 3.969891373763506 13.20433621771101 2.294694489401456 11.072358310454174 0.47033809312025554 
8.179088113586394 7.495384421245241 27.684460834450512 2.2961627352303786 1.3163053601532226 0.31959300955813463 
6.154845351887758 8.546261114186157 14.920121238743498 2.2982318228544343 3.7052359609309278 0.25308316861103347 
8.44950399416901 6.938964207477595 4.231770025736068 2.304883836454815 0.6996599403969164 0.46892776210873627 
4.0261473865881285 6.859615211564645 29.395536549135624 2.305894870185937 6.62723277847746 0.28443652198001523 
6.800867394685557 4.006167284250273 19.010353210695875 2.3104631879336335 11.44402592143312 0.3897058638898983 
4.223857045853196 5.134395288620462 29.54150653065836 2.3129697669210803 8.430544288734138 0.520265567645164 
6.587362186456637 8.541130839505701 17.311779762678327 2.3158354364213602 3.29913884391798 0.5621845325969055 
5.20562274689137 4.181197646097134 35.24854646046795 2.317469962334952 9.837407610091077 0.07588450816689722 
7.972584095759981 7.801169512555498 6.948096809044358 2.318064456318437 1.6993398517147291 0.26424418622326395 
3.9277347038904615 6.245785813296816 11.864648754558814 2.322269119823172 7.299837795511046 0.1480989205429335 
4.137740124148335 5.2837033613403115 18.349055453220444 2.322793787019826 8.293864304373402 0.40656157305576346 
5.855023704617503 3.958948507717393 25.97348150651976 2.3248490734248635 10.558691665315642 0.43739630338458024 
8.202639138585953 4.980654227104271 10.162213167703012 2.3289564823555513 13.290803068015451 0.2623465789472841 
4.343679583339787 4.90817727213253 20.622397245928795 2.33121122251873 8.75350831462847 0.23614199461678306 
3.919729066875803 6.172614985507739 2.5111315585418907 2.3315555027130457 7.402196868132931 0.26002562305768645 
8.018722118363936 7.779444394749037 35.42882740491938 2.3382852881158582 1.6671420769601788 0.1985747985399269 
8.186094994309784 7.567787316957908 26.032678747670175 2.342013501183655 1.3996234346644947 0.5490642905008305 
4.336240610562636 7.609045453522736 36.516544833095125 2.3472280556862133 5.924616705441281 0.4201462832124316 
4.043019718580311 5.44593295116708 22.083354579567832 2.348890329835392 8.199918165026398 0.4727636302432536 
4.687428204753232 4.496229740727616 28.726383354013954 2.348902028099306 9.3593891858637 0.20700053916223599 
3.9542425100441783 6.753398597053177 19.68440570124973 2.35030053401759 6.87635768662388 0.1392762323186238 
5.589200367848578 3.9938207731677835 13.669828695367336 2.3509574342043433 10.408800571565706 0.3260391605679068 
4.211475058227098 5.072692496934284 8.317836614613675 2.354068158530047 8.628426173204353 0.19276574851967584 
4.623480928428423 7.956440683913009 30.592988481469888 2.35743591596878 5.498058988003098 0.352110408090347 
6.588555593866694 8.58324865882878 37.38144284812114 2.3576830139068172 3.3637097895022166 0.30229376058786717 
5.137815193091308 4.1692786902614145 36.47435438890696 2.3593126570081355 9.959859878415312 0.22060711329399596 
7.040476785795477 4.026918940604906 29.260844251885352 2.3594369975743703 11.92465032788385 0.20604363103660187 
4.432709886180879 4.743696113941031 38.56919509323503 2.3604013969960835 9.049054797066802 0.23532478982806984 
4.324702215132056 4.88228685458054 13.539277774201203 2.361654252546421 8.878067838127649 0.3101610878629443 
8.61081750108411 6.1311469992004834 35.867910740304836 2.3638073756598827 14.733336634961741 0.1889715207336176 
3.924928706464673 5.817887013209141 19.211009294638878 2.3648843847798067 7.86405773466667 0.26755463847898914 
4.677349860333056 4.482130893438018 6.5332203409177225 2.366133901479524 9.429905183655315 0.11149696364076848 
5.645502590027537 3.9606199823176578 14.70518647060797 2.3678424744958466 10.546930582852145 0.13327048638745934 
3.9324729717978286 6.743794516108027 26.82921562136204 2.3695494404181456 6.9467188817625285 0.1568942542495317 
8.432673137292351 5.320764816136947 0.5154405099985802 2.3722436744960755 13.950439797548214 0.36927734994517997 
5.121337654466426 4.160821541076917 7.413758711751797 2.374562132994962 10.013690518020706 0.3690144712151371 
5.798720228787701 3.9161301098760646 0.026487144964789877 2.377099513258234 10.747782085550423 0.14995316540523354 
4.0030573427421565 7.03549617647978 9.32520819026643 2.380284762012582 6.677384510571862 0.3041156305567391 
6.893873509325063 8.541765416333561 36.40789378022363 2.380496128859089 3.08727992983491 0.30640491979225887 
8.019105348985963 7.843024781118263 13.659533363050848 2.3806431250961677 1.7451881436772432 0.5195353204766171 
8.043811571837448 7.817906161057671 24.080458469370633 2.382454550487908 1.7113162541630267 0.387614000391467 
4.072361654126471 5.278331539522087 28.562368925549187 2.3845855745823656 8.492187390676499 0.2239805359371091 
5.653222546831641 3.937777051608652 17.17427187353607 2.387994617179378 10.649988882787163 0.24134208013224004 
8.588855482886263 6.756966772320618 14.850614420847222 2.3931695046662136 0.5108372087996038 0.18170956097280178 
4.427671963055101 4.696747893596212 15.720894600385144 2.394466867652015 9.212583193207212 0.3279017785700682 
4.9086830796614525 4.265932950330903 24.091875238235104 2.394922365833414 9.862104314825405 0.4022993667848654 
8.245269778106088 4.925328704780071 19.319613966842027 2.3949646193217897 13.64434447491896 0.28297636636287715 
4.35756023693483 7.721307985251318 39.098424543590525 2.3970972955419323 5.9465838699036055 0.44515178991136906 
8.244998468209234 7.583270333518286 18.661927751119002 2.3995059221425428 1.4136376616825004 0.24619353718222536 
4.545975202112192 7.946656503329541 9.803854435053253 2.404650453206662 5.671034323808627 0.43436949667769853 
5.960501051365055 3.8621382228434467 9.210432340151002 2.405346858161208 11.044727553081788 0.3949615900101256 
8.260685931157585 7.571482361352475 19.66586093168047 2.4060701455112983 1.3989873037439722 0.3102582436016181 
8.651069258088487 6.078040779991154 13.292532672429441 2.4072190501663195 14.952897560956462 0.388111374606312 
8.660425865363198 6.230243288678263 39.98933442386528 2.4105068305346427 15.12590416794754 0.19378633660038092 
5.26985199835892 4.047122390926674 30.14151382770529 2.4110910114878736 10.35262456117342 0.15690366825620436 
4.001431963192811 7.123729602403147 24.534160550697838 2.412356033894354 6.684583162237491 0.3471376004163793 
6.000015771526353 8.650329699702572 10.037951599364522 2.4133119942849905 4.041255070627209 0.2804387610189147 
3.939565636285394 6.948553009085737 13.251250288536603 2.4137280823522884 6.874258953079805 0.23518699798331685 
8.613719260347427 6.756437303001714 20.209327346621656 2.4173637466482014 0.5102170457095028 0.23838900446833955 
4.722362835152092 8.12389789360391 33.100027949518584 2.4176783539333195 5.451256643593894 0.3014558806879276 
8.339930354261915 7.467204234930923 11.15727401026922 2.4185522601753116 1.2755156359937487 0.36046014623532174 
7.532805468767805 8.30065470918099 20.840254579831075 2.4188374494758316 2.44736799781475 0.3736160120765144 
5.080424310896134 8.368475488071882 39.45774112481514 2.419885469625405 5.021837954782546 0.25773985783211584 
7.310416300982659 8.425984710363002 38.07341263206794 2.420618142360193 2.704649472102144 0.2816864135585374 
8.672063271979898 6.20276376262567 29.717032759633625 2.4225238400468294 15.17392696696877 0.25813074309778383 
5.658883467577066 3.899315567761482 26.956487600384776 2.423867994522854 10.825070332737143 0.310334842098452 
8.099355503417003 7.8183235824297554 3.6165785684524465 2.424820537116932 1.705506905092033 0.3629639968912942 
4.530138034839208 4.540104431040666 1.8642935294167486 2.4252150494241755 9.516749912052063 0.21185266172834852 
8.153555168008555 4.745881236278072 33.48956802659219 2.4260864644592663 13.62119310693137 0.06564011981899878 
7.417024334772009 8.377061725524202 33.90894205904144 2.426177524860876 2.593549487279967 0.5258713600498468 
5.161319686175599 4.080782630722592 37.97935401846486 2.4270823679643825 10.308403491304743 0.24343384790213712 
4.069933045276663 7.323620595712661 33.246458736982206 2.4300932308483767 6.522336342358495 0.4347489761544256 
6.507634821822622 3.8313549929959 22.217077085321833 2.4323279736337855 11.720194556056008 0.15662969139445954 
6.660043520451531 8.648604229294428 19.362785907717964 2.43340048850439 3.410367316515744 0.38474103578936397 
8.106946925199596 7.82583660260736 33.34568403100383 2.435469745475261 1.713817102702512 0.35077830425981454 
7.088108827394599 8.536884177191034 18.184226355603876 2.435624282692932 2.97027218431567 0.44720496320605935 
4.070112389879238 7.33903214231867 6.1873442255461555 2.436780868227834 6.526380666780405 0.3894507689521356 
7.385269003806904 4.093620631864896 36.07459612835991 2.436966903821935 12.664886892060196 0.08080148319932566 
6.566878054886992 8.666443972701686 39.400873124372474 2.437132161963171 3.5104605052554465 0.27246146392277576 
6.815784559647948 3.878688193155657 5.194312468437424 2.437874453948646 12.059203486507283 0.2838987982484434 
8.461510176198013 7.276315711929474 37.29891032153936 2.4380527475796527 1.059334527258354 0.4787508632294922 
5.060714808805656 8.378591008517468 11.229584185090673 2.4382983713105277 5.072414714967493 0.394537256460109 
4.060516703111553 5.17689891998435 32.09086776980409 2.4383156143707607 8.771357509708697 0.25059591058496716 
4.01237357642006 5.268941067968997 33.59875709809974 2.4432455135783977 8.685223640238412 0.10563203814717738 
5.8967591657596685 8.667740345152346 6.044702451824051 2.4434089840941873 4.192580874562513 0.4925939069149788 
3.8814757511727205 5.645755781703333 38.36028331803264 2.4443850336286586 8.289835774700084 0.26657239720427983 
4.864327200857481 4.23561988757681 10.442755570432837 2.444957329609154 10.048375030311934 0.43763271828183914 
4.788894219901881 8.210462459743553 16.956404496572617 2.4450446124150504 5.406663152137181 0.29329280632977384 
8.276900819538445 4.882214030775357 18.22494203351159 2.445233197438111 13.91230530406278 0.18184220082570365 
3.8043945273912367 6.233491855494121 33.37659165745343 2.4456611879998738 7.699779491256223 0.5032976700515415 
3.806142739691097 6.147668003236303 27.688635110594795 2.445998803418796 7.786693743616613 0.45414737397093813 
3.931462401965616 5.470420707876336 5.3118510743727825 2.446090854037741 8.478040041601329 0.4087050937754359 
8.692253389388885 6.101175350664292 3.686355413653004 2.4467836835796075 15.224678721981194 0.2740216041762424 
4.991236221728499 4.1515545805801946 9.407418495244919 2.4470307369896918 10.209197777899428 0.15065010100207157 
6.797366483421019 8.63662029782352 3.862282003756846 2.4485845938329214 3.294196702181301 0.5570167139043947 
4.3608766549249705 7.808633881716737 12.933662993846745 2.449107304742459 6.0046205569918705 0.475395694087318 
6.295587613277368 8.700918207448023 25.657241296275558 2.4513421405598526 3.8049689886882216 0.34340531658611406 
5.792821083083368 3.8409394782703234 34.425389248033014 2.4520573320029704 11.095177939018807 0.2833450508342196 
6.617741363649387 8.675790124882482 33.284858651796426 2.4535059487427526 3.4848257612036893 0.28902177689233527 
5.304865785501377 3.9848121498878957 8.441512447966197 2.454456086327768 10.59614886100826 0.2929483679684739 
7.220005625141749 8.505035861774996 9.075950526840664 2.454811123222709 2.8588017291916703 0.455550093748708 
6.034276845405452 3.802788115296675 7.102001218028889 2.4567015463953754 11.360931948203874 0.2890756995594402 
5.35266876226772 8.537145764322153 25.350767930740176 2.4568758815754053 4.777834957792418 0.27557693471116546 
4.8372154088838935 4.238866594252075 12.905278849928237 2.457766847487848 10.076842422222292 0.29964736757297106 
3.9234065815610544 7.048015325213852 22.17945622020251 2.4596474125369245 6.914486684196625 0.2273606537578946 
5.818976751668191 8.671919344679187 38.679147548258726 2.459974461805198 4.297378545023788 0.5093148754828284 
7.693619634664318 4.257354642215365 3.924014896536427 2.4606245490706207 13.138141273706134 0.2695240231953232 
8.202063455872267 4.751506978710511 20.85742857669259 2.4609008656598226 13.851146806445048 0.1702533131830838 
4.334019813293212 7.79573659746522 16.154064913280514 2.461763941688223 6.0626924013518675 0.2018304008577014 
3.795541677925124 6.448741110081617 25.275282988593773 2.462491357068912 7.537187256151032 0.1302386272096472 
8.487347846615506 5.219626514640007 35.33218548666263 2.463208254713341 14.41372514796213 0.32102584527664085 
4.226842496723375 4.844910962314451 12.384186471374377 2.4632177100062846 9.233666798616156 0.1447792502927944 
6.5854064512678185 8.691593535634004 34.78896364049451 2.4645235808979047 3.5348140375759236 0.24167223299258508 
3.8795284928388636 6.928019140048448 14.277918852396567 2.465531407330846 7.058825772509472 0.31355349465810056 
8.715840154507447 6.287151806674357 37.60077032129322 2.4661200141762114 0.037153212089103604 0.16344138174369938 
5.686488281820431 8.651017650656556 21.81104886156733 2.466258545913223 4.442523695688706 0.26215251548228374 
4.301302743563008 7.763200085726254 21.54407296418509 2.4672242493715486 6.122008386882973 0.2724862271999451 
5.0481576802140555 4.093923105185063 18.892780751930346 2.4684190361410026 10.376903356706128 0.15344358301808175 
7.6374927295885495 8.292248839605696 11.07265035075067 2.4689909674868997 2.4048806470147 0.44905279700785816 
5.755172355793684 8.669012959703087 4.974775073178542 2.469104715617029 4.376661913174047 0.41914092015873217 
8.680925248612656 6.69022453362107 39.10048206182077 2.4704645725742354 0.44258824333661906 0.33260810679887837 
4.887296771964911 8.311246205640243 20.864847191208895 2.470970661089192 5.3247927436402165 0.32449285759599705 
7.925151417095526 8.066952301799335 39.04034411245052 2.4713251378989054 2.0412701213941347 0.5761309499687906 
7.393251757284366 4.057192923359526 25.029132043101143 2.472939031981648 12.841927239107699 0.17932642980276053 
3.7780595486925552 6.1385938156983375 32.35511692400426 2.474449622180802 7.885156610778733 0.646863911023559 
4.332828424680365 7.815116275421504 29.027838893157174 2.474901170714266 6.08071089390751 0.2618142679589683 
4.324588548420479 7.80715305163908 14.578942082649377 2.476274395963109 6.09546441861942 0.33522944796950577 
6.526671524474944 3.788760780102077 10.719088774854612 2.476740929128243 11.94861685628554 0.33676148772394626 
8.673997462110515 5.737594042157912 16.627037985117212 2.477564037911084 15.050862915109512 0.1557794418506645 
3.862623504515053 5.586471188084472 25.8451911896194 2.4778694508460317 8.456182610862605 0.363579376032374 
3.9506313728235423 5.322335415712036 14.383132034928472 2.479447048151162 8.740208929575767 0.08020145404109365 
8.187624972161682 4.701416908899661 23.792666491218547 2.4804233757136 13.912500993727239 0.17631925751230781 
4.270794698276362 7.74607844368316 2.538445358230959 2.4810288865759675 6.188497687980826 0.35001672307445625 
6.475743356601422 8.722647518388403 30.69239794623732 2.482930891757159 3.6741232023932575 0.5312793897596721 
7.268485091060889 8.514676473480296 15.288356764406153 2.4831575484146087 2.851086610409002 0.4623578759987892 
7.497085853315358 8.397670845718508 12.125541941130258 2.483488108908228 2.5945300529072917 0.6572649240812222 
3.7742499366716142 6.049981819902371 9.376883652488132 2.4838167501730224 8.003375449875193 0.6790263533687526 
6.3904315603289135 8.73139971146416 1.19396888250499 2.4853703046409086 3.7635041532653357 0.42528122252031575 
4.330890099473184 7.830524587856299 35.52302954044691 2.486169902303213 6.097687387009367 0.3847511296052238 
5.0966323959696265 8.452518425049133 36.91335014838969 2.4862309310898048 5.104707333173016 0.6273040355042938 
8.147647994337415 7.8566030510755365 34.42679006291071 2.486411324406732 1.7467873234030264 0.4194248428922917 
7.9154248311408075 4.403115556591395 35.11576425086203 2.486890028828196 13.544023709237788 0.43212033871253436 
4.269638499830666 7.755575393547359 32.06083315858568 2.4876874677113707 6.198227499025375 0.3665621163575999 
6.481025544605258 8.726942490065337 8.410331605415514 2.4876930882549044 3.67630025097953 0.5095574847841201 
4.824805882115374 4.2107061624002124 22.422068174310887 2.4879504877962106 10.206628212253094 0.35079140270339515 
7.735431955292306 4.254015238327588 5.020080096960001 2.488064159669521 13.316552859967292 0.5450067595819205 
3.8440535705551078 5.614497791499138 23.67073404104284 2.488461628871961 8.460353722723756 0.23379698522522077 
4.012851872281784 7.343322601805724 18.029544235383895 2.490017280456574 6.6907153411222815 0.46029871700305136 
4.149858844681914 7.588669427335301 3.530046064338542 2.490507720916161 6.410847743441547 0.5331947871999825 
4.778280536246606 4.24059829602561 19.870663773664134 2.490713429506848 10.162699723040351 0.29555026219396524 
3.78445369122144 6.604711404917831 20.71432861389421 2.4909313080673985 7.4695702089418425 0.19630374585727686 
5.499462121973907 8.626469786684902 0.4869740958520552 2.492170891688229 4.677065614393298 0.3738387975346818 
3.769822464479631 6.001503564432545 35.45075172610487 2.492595251176898 8.079628845771342 0.46151404338035507 
7.88869286527785 4.370077352412338 29.767492739541325 2.4938771957788 13.540097491061896 0.4933450008421514 
6.601960143999289 8.719883536079879 32.22133795969148 2.494834789071702 3.565739127438013 0.14643607903973593 
7.705180245118991 8.276728398552079 4.4139591041806625 2.4950305704103193 2.3655265017468583 0.3795698113649396 
5.946969769591172 3.7731130831888944 29.293137391860476 2.4953549084672617 11.455302951951584 0.3595312201821203 
5.303796309843062 8.559998003064658 3.446904602216094 2.4962756653521474 4.891606040280644 0.4693256437301263 
7.204165215561655 3.9425621200150136 15.499008156781137 2.4969382909029676 12.745605325969995 0.18244347711873496 
8.431863154582414 7.465580693710262 21.729519291859404 2.4976315277168983 1.2695475032490382 0.25638981798428623 
3.928070996185644 5.327707320715001 11.3780863298891 2.498395101863801 8.79357943249061 0.1716352656246031 
3.7598704548257373 6.0285981514642675 3.6024506998373838 2.499952785611124 8.075525600648582 0.43387255147013143 
8.684927390632865 5.683012061333391 24.928703906839985 2.500069343087823 15.136434629518533 0.3342726095324535 
6.698288042486903 3.789962378059638 36.95531777534961 2.5005493937130554 12.234286175801515 0.4710080985631307 
5.59836344119425 8.664977950421129 17.569075201928193 2.5013493769948294 4.588352445670324 0.3082622520761547 
8.751460775178696 6.178339237303851 1.0569665930027234 2.5024870178819705 15.651919102093958 0.629268040250117 
3.7476996091585075 6.327664280493128 1.0245143537472359 2.503505339812562 7.78731724082356 0.26523627334838024 
8.552386273245695 7.239167659231834 9.438000335231209 2.5058801266821185 1.0168444330268827 0.4146367581341901 
7.7856648947229985 4.269612980902927 38.07688730524869 2.506032604395397 13.462336630484803 0.6800373999681752 
3.968268809825739 5.211483419373858 31.06962327791618 2.506953113332891 8.946604202612676 0.1763355777476497 
4.7340923944544056 4.25306614044376 27.24388254046697 2.5071339629132625 10.186681123509082 0.36575151570116327 
6.359514264862739 3.7441829560753916 38.05784209059172 2.508209008801199 11.929205584649168 0.40918003702376526 
7.937819219296937 8.106015338705943 22.338120576003668 2.508690226899259 2.08929790947637 0.4600720621327622 
7.355093416095388 3.996830274487875 17.000771883183646 2.5095826884686927 12.970469097364902 0.49230162627160035 
8.142939376415391 4.601060622000174 31.41324607705245 2.5104223857953354 13.974438086066343 0.4736248133266993 
3.740092572349276 6.339464471356369 18.2188295168419 2.5115013810490607 7.800630885468074 0.26315599048238475 
8.492273978946628 5.116798417652834 14.467303655319718 2.512357144773661 14.609966182205463 0.5943318509430264 
7.658642914438703 4.169546622111092 6.100335485775126 2.5124810681809606 13.335167518051453 0.43608030576879625 
5.678043681600911 8.697132655340372 29.04050156907263 2.5130842132705915 4.524556224267403 0.13074253280170822 
8.627162706263247 7.0705063263689425 5.812039802908025 2.514782925753286 0.8358090965492337 0.08347031123227769 
8.059602886981505 7.996845151451042 15.688412123490203 2.5151800316716515 1.931039054471709 0.4550859095843313 
5.4961712337754705 3.849941403218356 24.858908700866763 2.5156587759020654 11.089170712739246 0.3977300308890761 
7.51614805120014 8.42466161713399 1.3990184266663732 2.5164029956653877 2.6259854657610795 0.39693558754794933 
8.086693410427293 4.529844726484944 8.634833696378376 2.5164214370626974 13.91716906692341 0.4597037764993334 
8.214479213804896 7.824506343687585 28.64870285656987 2.5175878947484533 1.701002086714146 0.3424936774030215 
4.997221528488911 8.43442066880316 28.213291724986796 2.518163528640685 5.266756998542501 0.47849369205452197 
7.181341099925426 3.9103067938025724 6.959799013266711 2.5182455288427885 12.82094922115106 0.4660763089513833 
8.234772967945508 4.7000781361993 32.48634386948429 2.518249693373288 14.153056186530062 0.6215756467537366 
6.5907013783821675 3.7542189341325205 1.540307904962667 2.518928454318248 12.21191953148805 0.4377419198603077 
5.520173769362657 3.838165307171929 20.458388743492094 2.519839858494066 11.134029980017356 0.3812043309322329 
8.247486147401135 4.712824592759265 22.719412579122462 2.5204878777104143 14.183506218219282 0.6102963459226767 
8.771025973667257 6.290349968757507 28.694335139630113 2.52134886120181 0.040351691270608114 0.12813054725516657 
5.781674949272496 8.727893431637694 7.585317873318431 2.5217621243273816 4.432234439623562 0.16354028694912004 
4.623989595256175 8.178064831656531 6.793813214659586 2.5221704604181494 5.728883304982801 0.4886290489833039 
3.7864739506410565 6.790727122535873 36.791030550644194 2.5221709729746737 7.378676352852494 0.2949451562341462 
6.76385685534078 3.7806553377915524 30.72138172355352 2.5222434316612024 12.403271775680636 0.6466698239178462 
4.521148825301653 4.410697886012189 33.30500628454651 2.524273885848342 9.990913443420558 0.19769786896572328 
7.058734462659821 3.858096535254523 3.2623259132042826 2.5249264574943746 12.721678723547274 0.49765244054169 
7.4406502911979935 8.47663219625243 30.873330127145252 2.5249829807976494 2.726353210339308 0.6461750507499646 
6.986812219845639 3.83450034190116 32.365568692732104 2.5253773669670583 12.64824830104623 0.49596639401721215 
5.061756785169715 8.478876663679566 18.568135751945128 2.525829194440031 5.204678499006313 0.571285951454377 
3.93458062371392 7.261451865116548 30.365038713204072 2.526697798219796 6.897233335598351 0.391656050598331 
6.525302777797766 8.762035268494287 20.43427705689176 2.5270759406124546 3.693671340471809 0.3065477295069963 
8.502664159204453 5.103967613901956 27.635993033688287 2.5274267633602925 14.690834696217244 0.5022412212115757 
5.778033422909628 8.73317066733274 36.07624536761621 2.5276251725665566 4.4451374243055035 0.12690111481037164 
5.615147415160855 8.696995673976804 22.85381589471615 2.528008234349355 4.612708268546115 0.21386459729714466 
8.68645942156951 6.9244899792549255 12.574578902075558 2.5280963678369006 0.6827595092631569 0.5417894321392299 
3.760458603037943 5.805000171608583 7.80647606838366 2.529000042399403 8.392416689087412 0.11419958207148014 
8.779403818358176 6.260906298370948 31.326696086020895 2.5294273311698627 0.0109063321649856 0.5872502654346489 
7.515602063708668 4.058544730562776 17.997196463320805 2.530656986161462 13.250804897670147 0.392314634182226 
8.543516553880297 5.179667610328181 37.81725258860029 2.530974043190398 14.797464562407662 0.614504045918483 
7.029016737076157 3.8418271506007393 20.54667938302741 2.53104001335983 12.719117346387574 0.4677784324401315 
7.110369397968036 3.869613906450784 28.27403331276132 2.5311012337167367 12.805397343422039 0.4855099758614378 
6.262378898579046 3.718895552146069 12.19929487577852 2.531134718476278 11.94007030314369 0.3145380809555576 
8.658378629397511 5.463781842596353 8.466068286249005 2.533461389792594 15.118789034043036 0.4211857494972715 
6.685432426748228 8.74579155877363 11.518761544890218 2.5334910505288053 3.541993260848267 0.26560460095220884 
8.783321379141713 6.196678958549457 25.80466138593711 2.5338824644165805 15.86752809306314 0.9276206833107895 
4.846746869594659 8.359974098211755 38.45969899186145 2.5339909319326486 5.467551046644035 0.5579959173160204 
6.865274997825617 3.79156463491657 24.065917775573823 2.534258820097546 12.563898941827873 0.505878584273654 
4.026310684059299 7.466933231863031 8.397149311922238 2.534900523618518 6.694308665318481 0.3692320410156829 
7.372798513362614 8.523925308097091 2.415158070291774 2.5360230299454614 2.8204234911600494 0.3744150774294938 
8.344615336353053 4.819651672642385 25.30431778158703 2.5363970006408967 14.417005535524176 0.5049944214242266 
5.730607060544628 3.766325523835169 3.062279845274176 2.5374018067914927 11.434134138679031 0.30689699053987435 
8.76034667179647 5.879241421513711 10.224246402186353 2.53757804532605 15.571982558761555 0.613859866595374 
8.7872023242985 6.296218634065708 2.6765545392568626 2.5376232574124593 0.04622118977007261 0.3361806594512129 
7.465970344335897 4.022226458217299 11.135269943895132 2.538022622391573 13.228223988707246 0.3311086761527357 
5.607802362419802 8.705878140482977 31.98790142006888 2.538455287495864 4.636649437195867 0.21277276442745688 
8.388665987854008 4.8823920948456525 5.876013286709885 2.538551474728104 14.505917267040271 0.4929525184200537 
6.042051594662645 8.780447771367676 23.82552841185216 2.538977838206153 4.196398658489938 0.549479492921996 
6.092556564033076 3.7152708877907603 35.39633753279261 2.5396141651459794 11.810105342904716 0.23631342802837374 
5.590245924070439 8.702888889888717 33.55847039482486 2.540066799681687 4.657334672961248 0.06983220667130066 
8.706174583029018 5.6012004172139775 33.85661347150631 2.5404201386662586 15.305862558266458 0.5609960127727107 
3.97174493083768 7.376022347706078 39.97017062991156 2.541332817184188 6.817271301475781 0.33521623378991466 
3.718677966247401 6.482377273623612 6.894484672859253 2.541965860482421 7.753119115155615 0.3819225404442103 
8.240378616492904 7.832328456804554 7.942384490035927 2.5427092602587664 1.707881303618752 0.4071353839943366 
7.659406826743016 4.132682515218493 37.07962952026678 2.5435135019557698 13.479838499993246 0.45046486803194835 
3.7321642658426146 5.8889899833545964 39.33393320158332 2.5435850715708663 8.353141343353538 0.06327393558498991 
4.319175796756795 4.593505200641051 34.9825405605275 2.5440238057323685 9.796189482411162 0.3773202256057811 
8.597011565369598 5.265604669056486 6.782718973301826 2.545092818653584 14.98053389719826 0.4160177674658176 
8.194762849300268 7.89191354671798 38.05333541082226 2.5451881335010405 1.784585817515815 0.2579689162720474 
7.2023173570598225 8.610589179236822 6.869081259432221 2.5454448769689333 3.0223137871746495 0.250635687924658 
3.7356559101850717 6.651837944232039 10.22060618926622 2.5462521350824407 7.595762070804362 0.0868492954765476 
5.586970601219161 8.71062588412402 34.579557338753474 2.548389241318683 4.67374758212388 0.24572477968604126 
5.211024227061342 3.922989736093708 32.64965940596953 2.5484205746066935 10.938997863789535 0.009821041726251839 
8.227085191058524 7.859428946784302 12.680638778501788 2.549338617651674 1.741820940271154 0.27244280762908435 
3.8209927881455954 5.474990804255178 6.863382752106361 2.5496500325985445 8.797430967220574 0.11765212722646443 
3.988628289398161 7.428375540940758 17.032468488900292 2.549974691834747 6.786035148777472 0.17506123968133092 
4.797901452056189 8.34627200389388 34.078338694890974 2.5500875489382238 5.550545206528497 0.0 
4.517268005532303 4.378940169925375 11.416488995865656 2.550142163168729 10.112221406262915 0.0 
4.225611955757017 4.6957217011530865 2.964238162949947 2.5522397974995195 9.689257360739497 0.0 
7.20151368711112 8.618350251284461 21.767546509928827 2.5523442576421727 3.03415463863967 0.0 
4.9918064788843814 8.47138460839285 13.401981868104954 2.5529591682950925 5.325840187628717 0.0 
8.764930423360557 6.702511698762722 24.93985457071503 2.5553163936901506 0.4549108074351764 0.0 
6.978757004240947 8.7003441977706 14.339571750563522 2.556418091544941 3.2766053413099883 0.0 
8.680495864904923 7.04249508849108 34.66404896063449 2.556434746791402 0.80577075348873 0.0 
5.285305465097412 8.618281817384577 8.478161633289957 2.557223946435925 5.0060567118341055 0.0 
7.304004468739771 3.919260183961981 34.45673221655508 2.5579823123290635 13.140576576105733 0.0 
8.805745146450647 6.124204940390062 20.99617788649011 2.558839121677703 15.951814587657559 0.0 
8.259159576269923 7.8375770571144745 36.47888258691307 2.5606880159819116 1.712378320846529 0.0 
8.782018438043686 6.637961814502981 7.475460335261026 2.5615682189052933 0.38946055121385115 0.0 
3.849767164013395 7.147333444381623 27.75641152226862 2.562484141873679 7.133515730350158 0.0 
7.368847881483827 8.555921651883052 24.59320129511815 2.5630246285441554 2.8681616969702546 0.0 
8.169332587035456 7.953716991239009 1.9938724567812471 2.5664156261004796 1.8631050477110556 0.0 
3.689313408036295 6.075443233424174 22.78967882352012 2.5666292850780192 8.237995319052196 0.0 
8.639803946152245 5.3115117961891 4.43955723552185 2.567474052398008 15.171161581816445 0.0 
5.337843446267735 3.849758906813051 23.286344865358693 2.56772017243702 11.167575639028268 0.0 
6.799753649466069 3.7409615645419034 8.42157040434595 2.568560481224313 12.658096051228089 0.0 
7.51548591434687 8.485523183311175 10.09241828267065 2.568855484945011 2.711918077253465 0.0 
8.08547994479625 8.048441714519068 25.090124840288922 2.5697041129810145 1.9920504535898402 0.0 
4.744904071503392 4.165779022434435 0.05892702724480614 2.5708541065765336 10.506975466214303 0.0 
8.24781018805841 7.869483363893901 0.11376661238080032 2.5717643580699754 1.7518567368781923 0.0 
6.937354508200935 8.729002810644824 27.040820993646193 2.572530107720624 3.345113425395045 0.0 
4.158817006738179 7.754414001572281 19.57927703931621 2.5761032198718645 6.486523633949588 0.0 
6.589535874918605 3.6958806371159447 39.03180070665927 2.576588894297263 12.482415434427004 0.0 
8.617210995124356 5.227014062913604 12.533014342777285 2.57879586685611 15.151136678974083 0.0 
8.03722018814074 4.388235801270431 28.193553872619276 2.58075995252735 14.135754647349703 0.0 
8.826826259534084 6.095403647840154 32.33397568027916 2.5814595878931654 16.065100042779953 0.0 
5.2220868108784515 3.8771814688212576 2.180997477303194 2.5858989358200533 11.128650096959216 0.0 
3.8188711415907637 7.146045020781063 38.4773711819901 2.591000618575135 7.224926792294397 0.0 
8.616473441682306 7.310235234220192 31.07408841615171 2.5931246213920494 1.092247125510255 0.0 
4.3153630987719716 4.521797412893735 17.5313993296935 2.594128778930218 10.041071648446607 0.0 
7.1957377068283 8.667077835655126 22.787328162507926 2.5955124876856477 3.1089973699232196 0.0 
7.361011117557847 8.603563328526226 35.49425027931271 2.6026152317852524 2.9403140923566013 0.0 
4.689109990769715 4.16692556598375 4.909348774065776 2.6029937991795222 10.592422552370458 0.0 
7.97180701888151 8.208186087590011 16.66452677765563 2.6075107217230626 2.215194053020447 0.0 
3.6698690491462536 6.629662784836677 23.624008479195943 2.607914790353283 7.811989123606338 0.0 
8.347501704481317 4.685622982749939 7.62254619912548 2.6166369355342813 14.764005395482709 0.0 
8.11764628197367 4.397968802292889 15.736339025903568 2.6302323456019074 14.47149913921416 0.0 
5.68827391010165 3.6804065419400747 37.20696998751008 2.6302750312043135 11.828792966929434 0.0 
3.986672020654588 7.593811043927193 37.479396978043056 2.632200916318601 6.8589745758192855 0.0 
6.636123419797595 3.645290078010577 14.712185979401966 2.633173954190329 12.79606069196242 0.0 
8.068127734820784 8.157878377469027 14.625692971700808 2.6354484178861077 2.133345770256472 0.0 
7.427104075660651 3.889865644274767 31.46651242174677 2.6373866197452895 13.648559364532154 0.0 
7.763131011112733 8.41078862147149 27.728091582358303 2.63791071180806 2.5321055773886982 0.0 
8.742566377396681 7.115585970584341 35.65966818570247 2.6385841313478777 0.8819150195478649 0.0 
4.1653097102563965 7.8724820106621785 5.332054181001112 2.6416626353631254 6.551941151695104 0.0 
6.488192473406574 8.88335954918196 15.818977733160295 2.6441100903055017 3.914842600286871 0.0 
3.8274226440177337 5.168787545015048 9.872803451001367 2.652904336483434 9.44797649001858 0.0 
6.984660280823615 3.7007983293365676 33.504864139272286 2.6529521077345257 13.246131845412137 0.0 
8.466856929045157 7.7112157524400775 29.615361512423718 2.6551094363574808 1.5473252213440034 0.0 
8.899309401105562 6.426177742411506 26.83739106395177 2.6551608048680477 0.17630727589757456 0.0 
8.72805534369417 7.21942046768174 1.4705941912375948 2.6609273439106746 0.9922572859194041 0.0 
6.815370431299318 8.859413054298775 12.705154111862946 2.669958840980964 3.624278390377789 0.0 
6.131590406288419 3.5761843531546003 32.96816444320588 2.6764362397035044 12.493960387494454 0.0 
4.547502843474756 8.316121438902993 26.61398792199669 2.6771915075823594 6.050465754913741 0.0 
7.5724137881156715 8.595407495907178 31.871141802812403 2.692529396098774 2.847070479287307 0.0 
4.174132668637721 7.966973540726498 0.8224036659418914 2.6939234059215633 6.601560571394781 0.0 
8.786140660450862 5.323451642698734 30.937618769942326 2.7000928332207015 16.01941395396166 0.0 
6.084663264046769 3.5536372321519885 5.946532064245339 2.7014271065665754 12.564735196423282 0.0 
3.5620518726342993 5.954910955525813 29.167386243845705 2.7040973872213745 8.790850375788036 0.0 
8.818239611216802 5.373180305155779 29.134961541093546 2.7137920844990577 16.15841874693134 0.0 
4.68758367907528 4.0237789150336365 15.013543762388991 2.7197803365420445 11.152295056410669 0.0 
8.544497945086427 4.7857180983627625 34.42229611467164 2.721918864967911 15.556231136242285 0.0 
7.752074262288623 8.536529846927621 29.227091658796915 2.735771523779128 2.7072364463708496 0.0 
3.764378233380686 7.395196880388781 1.6177207783808285 2.736748337268867 7.41618508313816 0.0 
8.964132327217307 5.871625656291098 21.952326058567486 2.740379797331597 16.838727059350777 0.0 
4.7396704685037285 3.948087681737144 34.22750822680485 2.7531610222941953 11.375301078261746 0.0 
3.5014863294078005 6.411293390738576 5.067851463392607 2.753242262375064 8.488179872331745 0.0 
4.544831382833921 8.411745360282172 15.390168350190454 2.7533149140026754 6.163752471208575 0.0 
8.321829395860814 4.4341884881705536 17.295307332241535 2.7549316674003603 15.32719042332425 0.0 
8.890910768387164 7.064997839056225 3.313824211677158 2.763807367428057 0.8272968882523095 0.0 
8.58428363695884 4.754028932726921 36.81003445511104 2.7725096089809917 15.84005592303113 0.0 
4.240768776131594 8.182488150380456 27.55924012876575 2.787744708958947 6.622737698578433 0.0 
4.061905194344499 4.516618065863845 9.142917356183048 2.791482009278615 10.639878421797235 0.0 
3.6613994712677407 7.320917001098467 4.504730839824795 2.801377504120905 7.701904850580515 0.0 
8.992550737935774 5.664685599696822 18.141151486073255 2.804314086787413 17.030375382408543 0.0 
6.229704661053454 3.4446758430021074 19.8554959946148 2.80539757015274 13.199829079204232 0.0 
3.52280332208805 6.916926053617354 31.76770277798368 2.807559808981386 8.146846127082586 0.0 
8.695318952128376 7.643718304940329 32.53830311100546 2.814611072806324 1.4580628123814776 0.0 
8.909014300547119 7.18851675243819 38.20228245613352 2.8197820385840497 0.9567699929490523 0.0 
6.499712383429614 9.067259258771367 28.55892399543449 2.82830444004373 4.19265227193441 0.0 
5.560983390169312 3.5064492770065563 10.676361301731774 2.8287478604959504 12.634141869235325 0.0 
3.601834094159244 5.251028126963902 0.7427383105231513 2.8303228557842375 9.91269170813445 0.0 
4.186951017346493 8.188295485764272 4.381640066311974 2.830752637543913 6.758032095243475 0.0 
7.365058556581008 8.85453243570656 5.249263685360717 2.8331863322506816 3.3042998686468863 0.0 
5.189293746272389 3.6134508262737803 6.489518615115735 2.841916484025046 12.30519732178523 0.0 
3.407679046494307 6.297225156067297 30.09586172927839 2.84271324936285 8.88341973190839 0.0 
5.019786053794309 8.818216553933105 16.175877588279022 2.8476591476746327 5.745196026861876 0.0 
5.953196528070743 3.4160954267163266 18.885456444177237 2.8494047503693443 13.130160717261859 0.0 
4.054857594969398 8.077261864092964 24.23305213234127 2.8561400698026045 6.990113307670622 0.0 
8.89679662370779 7.371428723543978 13.468476603825536 2.874566880290047 1.1520198535071557 0.0 
7.427771282507216 3.6252255437467067 10.093238801730031 2.8769056536665323 14.77052958801804 0.0 
7.968684534482517 8.563991924040202 6.141672253484636 2.8824356286988717 2.6863163503102037 0.0 
8.966943696451597 5.28166501981268 39.649429033849415 2.8843466649386063 17.135370045948022 0.0 
3.4568708204695486 5.529095111974289 13.522326779046345 2.8846619335935753 9.791060713544535 0.0 
5.620721551113256 9.068280953751067 20.78678471983639 2.8876805398986445 5.170326546706182 0.0 
3.436022776777847 5.59453672321755 24.857947154640186 2.889307861759188 9.73824816706383 0.0 
8.977202300282666 7.205076633549497 39.9434883219245 2.889602699787514 0.973381090381018 0.0 
4.06491104731624 8.14198958525504 23.229995739682373 2.8903699282019515 7.017704261308058 0.0 
3.3749098746480364 5.913479323679709 6.081576025740539 2.8947174982176476 9.431306554550154 0.0 
8.467042549844454 4.388561545792616 1.0090972705751255 2.894862826909549 16.167106968533734 0.0 
7.488208848925844 8.867685981911329 20.016121608316375 2.895762603089786 3.269221963258776 0.0 
5.752349406606891 9.109922131267723 11.454056920527009 2.9028969513262823 5.059980855468215 0.0 
3.3394879396264727 6.2675230025700746 15.745506560702061 2.9105648093108702 9.126285914299164 0.0 
4.513427032209993 3.9115546291507837 20.81716203070461 2.9127328104213603 11.865392105515177 0.0 
4.882070780481733 3.676367151460923 29.294991535396512 2.9145868298424755 12.310768660742959 0.0 
5.851059393110901 9.143436881240515 4.059819609494674 2.9208099208178337 4.98818904688498 0.0 
3.354471765066771 6.649086635232338 8.665955649171345 2.9229016236809287 8.782229112777415 0.0 
4.718846824593541 8.740223668097538 1.1821644334178245 2.9232933420562617 6.203447303562985 0.0 
9.173151435386556 6.204750880764976 5.646118356064605 2.9235016328016696 18.323651578661696 0.0 
4.137649530778626 4.228811940498003 18.472361734865174 2.923563865677165 11.416341671073539 0.0 
8.50789436651396 8.107858067133485 1.0555708726546484 2.923991034177166 2.013185724848828 0.0 
7.224073113220484 9.013448220497592 30.04396829592789 2.9300963290087125 3.6096141388542726 0.0 
6.697608806274246 9.148819727253148 38.41114619612634 2.9331739557288907 4.158054330664164 0.0 
6.442936153977872 9.176933299265041 21.395085846884825 2.9332853420453877 4.41451829796171 0.0 
9.18464100407717 6.145920200569989 24.16352877720081 2.9364860679833753 18.346384513577675 0.0 
5.181810586221236 3.51063344929668 5.488661722230908 2.94026490691251 12.762468946100576 0.0 
8.278634621993644 4.121228275708493 38.96492560621516 2.9405828476161546 16.095884106368217 0.0 
7.058063047486492 3.422237804369665 27.262751016241417 2.940953063846693 14.677506996271113 0.0 
9.176655702879199 6.57688594715526 14.02325533874702 2.9448544999104675 0.32756098622094854 0.0 
9.195430718607415 6.325019528537538 19.489394555529138 2.946385929877176 0.07502763663956102 0.0 
8.121989631303704 8.531689040178787 18.289679924924016 2.9513471594816747 2.6081511184870507 0.0 
6.584564073691068 9.183938824128912 24.566333444244314 2.9529527837633496 4.303203375521761 0.0 
9.175883545551232 5.846151219897932 23.16366430910803 2.9536229209764353 18.153042323296347 0.0 
3.664843633198597 4.8213027023737 39.21134380421273 2.9536772689409596 10.77049935189924 0.0 
8.792229219999307 7.757211579145421 17.17021055143735 2.9554384025603224 1.5816335965998292 0.0 
8.315879453600845 4.135037355960199 9.530625773757471 2.9565055221483942 16.21953019617868 0.0 
3.501337994699991 5.149027092105801 21.282057192722746 2.9609600070411077 10.430194611858266 0.0 
6.048925880890646 3.2930089697277722 31.237423911331234 2.9638196224611923 13.76544224333503 0.0 
4.01200131834803 8.194887434121231 18.59155085353477 2.965000038866545 7.193546869979368 0.0 
5.288625132011134 9.055387430017003 14.236804397346852 2.965542154361998 5.637326728446148 0.0 
7.877608933431599 8.732063860415117 23.710589919359563 2.9681226132633305 2.9396013093348863 0.0 
5.3467913070407995 3.422462820145281 15.563297446320192 2.9682911660579805 13.069980997953198 0.0 
3.68675990045031 7.7498851680159575 31.216654056103806 2.969824123609639 7.757662667675394 0.0 
5.212408147968061 9.033070036675259 12.579217776770648 2.970197919405828 5.725522272594173 0.0 
5.881984816835661 9.197858587932767 18.954049500047546 2.9707415622178335 5.0353929515442 0.0 
3.4339992237203294 5.30254838816486 2.838227327413705 2.9711150985407326 10.298325192879762 0.0 
