87

3.6513883069799444 4.814604247111671 2.2057828118166327 0.8860644400508809 1.7501233530139624 0.0 
3.8845343478325827 3.103373554314314 22.308302922538864 0.9040305857289316 4.144361854867577 0.0 
4.29467461360414 4.854739583405094 15.64849365520358 0.9041088890959218 1.1200127284824046 0.0 
4.688402464613439 4.596540450972902 1.7154869578935674 0.9109107875817534 0.6504162301228549 0.0 
4.846497953416176 3.6514579070405526 21.77980409988797 0.9154454520627234 5.3943486633833935 0.0 
3.8028169924918487 3.103731730657186 27.138365889834958 0.9177025384517149 4.125838669786907 0.0 
4.877494140338387 4.330777905759178 18.537014494613032 0.9377686224579237 0.33805211995451856 0.0 
3.452414019178259 3.2342278999131464 35.73930958498122 0.941412404668612 3.851897832938463 0.0 
3.932792877694533 4.941629798220441 36.97476995585017 0.9440251448903539 1.5501352533017183 0.0 
3.795948024588772 4.92304799248149 28.83987818986256 0.9453331714762426 1.6905965556500284 0.0 
4.939965096915845 4.135711045551497 15.164843890727184 0.949711467396647 0.13617720247831056 0.0 
4.720926623793403 3.3809561399068366 5.649109041952876 0.9502370744257452 5.296312358301864 0.7578501596335228 
3.152159442234341 3.5621421221305942 16.670789880191435 0.9542290776352832 3.452691612566439 0.5554987465277536 
3.260082751349966 3.3949059429066573 19.365406240321803 0.9558328058711522 3.6580534821445783 0.8981927759847883 
4.953014502495456 3.921164091269146 10.843420671752547 0.9562697017432288 5.929494254933283 0.5543035838689193 
3.060470816979038 4.1796813645562185 26.8292230690326 0.9565565736101672 2.8243559379255014 0.7189096661148052 
4.808788230160809 4.511668505573777 28.37130766080793 0.9570491423342663 0.5398441420626527 0.62638469799265 
4.92696896697609 4.2455868563337935 38.64353691221302 0.9589496179365374 0.2483538836019612 0.5900559416606364 
4.89037093601997 3.6427120620050646 3.4750422773603162 0.9593826527229635 5.661869711657087 0.6568412191634354 
3.038914120744245 3.9913207292970565 0.37647309154582587 0.961125068367661 3.028142842633158 0.6256614988007458 
4.013400423873307 4.961244658496975 18.19286179891955 0.9613380596070019 1.4966654349651733 0.7015343567932376 
4.829866445680147 3.5111527493219334 27.751152645136813 0.9631458623496795 5.538900914630608 0.7107259568176365 
4.53376513310221 3.1980414268327744 36.10563870741029 0.9633497653459161 5.105403846758167 0.8715287484483932 
4.7717423379742705 3.4197721604836024 7.807322903787032 0.965531243394982 5.444154427331709 0.8087374918443374 
3.033653209665335 4.006267336755762 6.973208097110984 0.9663671138341362 3.0296644448002032 0.8005793320410717 
4.571732089778505 3.220399029093284 19.294353845945288 0.9667757011433379 5.167569286343859 0.8980026134465812 
3.1051064524138035 4.3673070247916055 24.78035179470011 0.9673411559386226 2.6622313828001287 0.7861656842640389 
3.0677682567522178 4.2630040588189075 32.9499989070203 0.9686212665815358 2.7766655480198494 0.8005472546387631 
4.744411792964558 3.379475798379281 31.4606642614729 0.9691229036101358 5.415752933929063 0.8077349276422167 
4.7654877736903 4.594924266297459 21.22650931107296 0.969487707141716 0.6405139814378158 0.6672989513489871 
3.1547936206951803 3.5218395344339193 12.190390464865388 0.9710876656862323 3.550718001176853 0.8233808948244015 
4.775188231385408 4.586547539935977 6.013002477064759 0.9720878616068526 0.6296647222866634 0.8148527677543431 
3.0348181177121463 4.123265166731258 35.122604189826774 0.9730212573351155 2.9332391582798287 0.8591465436268034 
3.8480050852518497 3.038346070841232 3.124908018326771 0.9735916667555221 4.4353234332599545 0.8833455892266376 
3.4801967829801956 3.175172542404611 39.8302068892078 0.9749542139133566 4.046120160984858 0.8627532120822726 
3.115977058551331 4.411832332071887 9.335244997953922 0.9752448055474716 2.6386484841668842 0.8737612443125252 
3.1104009146779212 3.599750684271041 14.290189860288457 0.9754927202944056 3.4770276072424435 0.7295827172568515 
3.808057168368439 4.956673001791605 8.84345087043502 0.9757383270998965 1.7258890133364133 0.5641293643787326 
3.8409233246429286 4.963467000803715 34.6987119345449 0.9765111623941451 1.6936889401068775 0.5237357788846737 
3.241933253306046 4.615714598554305 13.87753972591608 0.9766113143497995 2.401923442896556 0.9690167413489754 
3.0235611893279533 3.974232445030287 20.384075202418423 0.9767787456101605 3.094411475953918 0.6876064815578272 
3.2193373980280233 4.589857587178338 31.94978786049836 0.9784508527613975 2.440771286331878 0.7919095377507878 
4.38822898035043 4.898273674630731 13.347176993256312 0.9785792434537591 1.1379385765770964 0.8021129512020955 
4.758696316274422 4.619433105130889 3.974087805226233 0.9794475341030123 0.6706156726245274 0.7668159544408669 
3.109173487819988 3.590064807760932 21.788093671493726 0.9806216072669856 3.5036384151848177 0.7339461596736739 
3.01878011570218 3.9893033972922947 4.785684431116749 0.9812781861688944 3.0934731553522656 0.6906748245368389 
4.903615059878934 3.6171225236205444 32.452880551677964 0.9813843988767659 5.7728970458161015 0.742275427817805 
3.024052497227127 4.103577110281849 33.95798862482391 0.9814284212019466 2.979477962626339 0.76592000866492 
3.9993387735542907 3.0180229796430087 29.537581362316068 0.9819772429794937 4.626797512309428 0.7963847738216002 
4.80031264355728 3.4298263480142426 9.834329940440817 0.982648625326682 5.565878990643444 0.7825471194377294 
4.728452947850775 4.660559786252847 8.15098003455553 0.983352901275473 0.7242967566455949 0.892655899893462 
4.007110583017877 3.0162735385731247 14.831758419517762 0.9837521594905374 4.642933480746771 0.9031910538834182 
3.2095608483977385 4.585736353014763 25.87854506042094 0.9838094976308852 2.463320627734392 0.8641132886681195 
4.625920957599261 4.759033948661225 11.328731784178839 0.9838239580241112 0.866962815092724 0.9658981739606707 
3.080195521095785 4.353882030309121 37.493690594835954 0.9855317198284181 2.7341740778515904 0.7392325486661435 
3.4160288816959463 4.794550933136904 30.969974814999006 0.9860696995456308 2.1738977923034817 0.9638605767137545 
3.849194888956726 3.025491984280409 0.7734736060846785 0.9861075267020877 4.495523031802633 0.9236738838547326 
4.907251453338148 3.6090120609810716 25.346975085560587 0.9879153648174781 5.805265722039035 0.6996306755316009 
3.696988254007106 3.0594353139439026 5.253622378737816 0.9881690375970434 4.348663603956905 0.9169377514667023 
3.6419252495891934 3.0781555598262704 7.380275113289898 0.988946256760689 4.293899621389162 0.9484164609059388 
3.4530118439785014 3.175655332350612 37.80943417955231 0.9893129807648234 4.082451474654609 0.8290647602486378 
4.9241788720847595 3.644911046655693 33.480577804147515 0.990047853588409 5.857474627215058 0.7219139693148481 
3.670264415653481 3.0661917782342636 17.40048743637925 0.9903147735046813 4.330594630773245 0.9042532251420733 
4.384556090353234 4.913117171359828 39.204782480275554 0.990790772696203 1.1613991581199083 0.7812184889446233 
3.987887569369546 4.9907223582596485 20.506167947640293 0.9907963979200454 1.5684520748041324 0.7737918410910952 
3.6758199433802217 4.936909565354449 6.4694480250459065 0.9914092206362946 1.8875560575344812 0.965808197181026 
3.9653920699481553 3.0091277482831638 23.52917538776593 0.9914764384718708 4.637607681396801 0.6954841850593675 
3.6890562713688784 4.941486667886148 30.017717151170892 0.9915054957903093 1.873733526531411 0.9634826648518866 
4.980950148291663 3.85144462464086 0.9828668752502203 0.9921350175160293 6.084652011746641 0.9314530492917952 
4.606856770993367 3.2150044531039415 38.11118191410229 0.9922162814362285 5.32868995160829 0.7123985414091998 
3.896109346729059 4.987656519719734 24.026039776164495 0.9931055677932547 1.6640476610360642 0.7361453963973855 
4.981226243893849 3.8355517417964426 13.168867996888913 0.9949111374048508 6.086004620018823 0.948503811860401 
4.438708877377504 3.1069080928417696 30.463495355167296 0.9950269512537613 5.1432861550804745 0.7463538178224984 
3.867613720378433 4.986440033001302 23.022432134314045 0.9952839121274142 1.6961681106353925 0.7513193069337762 
3.942577370227327 3.0062295198711517 24.796353250574903 0.9954281117115042 4.633389939128172 0.8132212705044212 
4.919002016259824 4.383015745985811 36.47257818623996 0.9956233060564077 0.3931539221458209 0.6304757607599046 
3.435169445711475 4.821137955141851 4.316797100327349 0.9966449199350904 2.16603854087003 0.9479352651137412 
4.955903988823247 4.282141978680838 16.17540354487417 0.996672730630337 0.2860530379388688 0.9151218909611017 
3.9677702693110692 4.996674015877259 26.48421622054296 0.9971949906939885 1.598625573045532 0.7730503420940861 
4.0629929168557855 3.0045032133665437 10.450959216408584 0.9974878243725769 4.763585494372241 0.9435579931762692 
4.067138366068845 3.0042997136982663 12.4821830736606 0.9979612318821556 4.769970626134162 0.9418844052452758 
3.251629304363675 4.660446020072858 11.680747144771544 0.9981220584263608 2.4139821032400874 0.7476311607581172 
4.872034771144138 4.4858811902805495 25.92917737604406 0.9982610746457319 0.5074557537302979 0.8563961063143375 
3.00179729856759 4.0115308876696805 29.137784816881393 0.9982692995967621 3.124624353818451 0.5830034001055387 
3.038845814656465 3.7286211705579975 2.5649295516530444 0.9987311134998772 3.4124407338815184 0.6548172891209108 
4.976381899102176 4.211577979665269 34.42633082767052 0.9990429692328595 0.2131923621527445 0.7733215314779792 
3.9692226517046603 3.0008079841110327 20.06789461541176 0.9996659090838055 4.680032401464945 0.0 
