100

4.966253298952812 5.020678099477205 36.00070174675686 0.039578070058523984 0.1025806183890543 0.0 
5.0219910081624874 5.055981938105456 24.514559836512845 0.06014633682981585 0.07196461399893117 0.0 
4.9405505674310435 5.051002528136736 26.648014134477243 0.07832938726371741 0.19053793753959525 0.0 
4.917951514601343 5.001655278971092 31.70803880235207 0.08206518083015402 0.25615997798070644 0.0 
5.021337865380047 4.870089289336541 4.702143713646482 0.1316514232511825 0.6418251258102514 0.0 
5.064959037039853 4.866395963849946 0.29213553973309203 0.148558792970088 0.76729730190997 0.0 
5.140389493926948 4.887495679412326 2.6369220948486785 0.17990673182501804 1.008846403014469 0.0 
4.988899117775086 5.187941097974956 33.71769950320554 0.18826865350929678 0.30683903397588264 0.0 
4.864503016936326 5.16864975440882 17.12673538533243 0.21633809669476212 0.4862459606602254 0.0 
5.145761704687901 4.783455382032631 38.27326234637521 0.2610326533676526 1.3847390101070776 0.0 
5.081494736705925 4.7006629963730635 10.530573027454842 0.31023222568121556 1.5443972851994108 0.0 
5.41288428467424 4.681181957155607 29.52155286404409 0.5216496688143188 2.9346152902043974 0.0 
5.534300738912143 5.353977507777179 22.260275968149386 0.6409191490462778 0.3750124905523795 0.0 
5.787651223600566 4.942813965054539 7.735454149438809 0.7897244409490254 4.904748874154152 0.0 
4.461613482913199 3.954294683044372 13.577232198621633 1.1761631059041622 4.983318618872073 0.0 
3.6476215117400024 4.53359413822052 19.801564652074774 1.4305460507829362 4.969284036384244 0.0 
5.179089688229698 6.530097712034601 15.639671827094226 1.5405428020031526 2.2403834346974687 0.0 
5.10330060387078 3.3939163250338673 34.6730439399862 1.6094023069925023 7.687501361863547 0.2027980751934634 
6.510831276940561 5.719387162571455 13.53533418284293 1.6733586098187243 0.7436218778275725 0.36963719117551114 
3.3740388246816533 4.592073042918978 23.084417701439513 1.6763514386774623 5.678477467200993 0.5469023575921018 
3.305092061083437 4.967426320796307 29.31363643110931 1.6952209195203007 5.3582692709697906 0.2998265402390098 
3.2912589422291756 5.044927620907323 15.573758660402497 1.7093315926502233 5.325090778575453 0.1099268988013864 
5.035510393244541 6.726015255013003 5.500320268864918 1.726380505151163 2.6762792583752395 0.24994314901849782 
4.00706199393389 6.434164320778989 30.600703821447972 1.7443489280777507 3.7963433064397893 0.3025964692109491 
3.4567289972596216 5.828970628950954 11.75017377811917 1.7518212498889942 4.6399916109060335 0.14617569022815216 
6.661133732394003 4.434075472058441 18.77788794475127 1.754889127045668 10.4500704067039 0.3790922108109271 
6.757648959904556 5.242827840536687 28.1067520073519 1.7743436043769218 0.2435923004090661 0.545047526220287 
3.4332569111327524 5.844721766065285 37.18937700355008 1.7799547096984627 4.711738892418912 0.04386391234239001 
3.251237589530837 4.614628327896322 7.727602783014156 1.7907208866626596 6.014125638512292 0.5990952438359863 
5.987976192503795 6.5060201569008465 18.2360749451325 1.8011645316144618 1.7835171130517828 0.38256543209516847 
3.5745932833713967 3.8653646246952578 27.599630509395098 1.8218621634752918 6.948390635044973 0.3335473420034469 
5.5354085300771745 6.742750777316211 29.060072009269128 1.823140851913438 2.32036346453328 0.22485503648519486 
6.573953086731923 5.93266289011745 20.644601861480893 1.8295322860871268 0.9786745213618779 0.3473600311586134 
6.310772956930401 6.27787989140016 1.267724593956281 1.830601748460039 1.4144917156261219 0.3708918412750699 
5.115667978952456 6.838341503166602 12.564036825318837 1.841976808654168 2.7776262723106377 0.6661305848104142 
4.113101109831903 3.377151950920674 32.78297729770435 1.8493851496597382 7.790037424743748 0.2702820354822461 
4.473538727154991 6.783755533260877 25.58821060354917 1.8598239901249753 3.4551630675096234 0.3200970541969719 
4.740974626061848 6.844525504195709 10.593672001280432 1.8626240844497413 3.1856706766436496 0.44810744017978116 
6.8625610221092765 4.751825969753269 30.92655690656472 1.8790220622360065 11.557342530312212 0.21945326457504127 
4.141024028590425 3.3281550752181763 37.1481254902336 1.8796023973111344 7.965324368288307 0.30941578070475534 
5.396846109984591 3.162392451943103 23.019699013226848 1.87997030180947 9.25900538171641 0.30823324049372597 
3.382047384626495 5.963875019124029 3.68239237158388 1.883301812797225 4.904707867686648 0.39202313592897536 
6.681702356898572 4.1520300408442266 14.997781414986434 1.8833947724332396 10.954119635568574 0.2970920129060684 
6.803703831378415 5.5819140114615715 11.476579904314434 1.8952497007161009 0.5914682266153104 0.34699925021875483 
3.3123361653304384 4.134662957872751 5.570811350621227 1.8965804531654094 6.8568633091063 0.3870452827586763 
6.244587678236509 3.568630436671847 21.086979752233447 1.8967913210578473 10.295973242595831 0.2417138548439853 
3.68678041121255 6.383147323523523 14.072230109080238 1.9072603930626162 4.444424513385281 0.31796122441058833 
4.5781714619687355 3.1393478956975427 1.3576556089041993 1.9078693793713328 8.565279380895253 0.5663054127954532 
6.440012919220606 3.747143175897187 5.600777804665242 1.9087397489504 10.626290455032473 0.5880789036530379 
6.8484011042261015 5.48292340610968 32.840871432158785 1.9104454083466615 0.4882201420477532 0.14588968333424254 
6.116869604414535 3.4405825493685755 36.51032681105444 1.918119000114145 10.231076361564597 0.41362613096642986 
6.524080246443845 6.164905443697061 9.390120010896851 1.9182870719356315 1.2518963066228874 0.45933209936924696 
4.957953998826903 3.081508350189255 25.651197520400345 1.91895233828467 9.000800486617903 0.7186336421773961 
5.790675113856776 3.2480905257474086 17.018970324166773 1.9220702228712723 9.872409352075225 0.6781058511241702 
3.615058844885449 3.6664889399411065 17.57373968726717 1.922579972440528 7.513585158740142 0.49894125443757703 
6.211035036521243 3.4976338203941575 12.333519075354207 1.9296916845199559 10.40263860651833 0.5570767196525129 
5.124003025862982 3.0733954550561693 3.6239523354492533 1.9305910553562105 9.22178446330119 0.6406410714601659 
5.142241009772827 3.0739978873904183 19.481121064061576 1.9312474317491692 9.243159042393778 0.6976475862041931 
6.581748076472722 3.8907121929102564 26.63693858674459 1.9319540409603753 10.95723972878713 0.4583963590276486 
4.140655224413231 3.2675693157598014 21.464140435182046 1.933853541255191 8.22258877879542 0.5986140480919827 
6.598903070250736 6.0880481773068675 26.009929442313904 1.9339958283817555 1.1555938192534523 0.32071074955843526 
6.855217682548935 5.550904536653971 16.499073265994497 1.935285110299815 0.5586299550644753 0.3084393517754556 
6.916499692243655 5.270296103426763 36.94256026734979 1.9354666243306076 0.27118251646346714 0.5476963697319456 
4.596031840581356 6.895918908498402 19.675010663658533 1.9384784707150737 3.4519056229140386 0.15941332541855682 
4.524263354300409 6.879520624805719 32.55418750674585 1.9387942477559539 3.5260957431754107 0.34182261215282644 
4.331243203686747 3.1782572098842783 15.645341510407214 1.9406139353188667 8.462172567142812 0.6008492838676478 
3.9417954908629813 6.629250573460638 1.5963831231854186 1.9427439909261672 4.170726853847738 0.5391043638086076 
6.637118772026254 3.953351786172327 1.5822460098953357 1.9430981337105446 11.103547313533872 0.4981089314662373 
6.8772754162580805 4.492747475473933 34.78077944723562 1.9445997305679699 11.705091750189611 0.2323115164057354 
3.4066558568683254 6.119129154261066 9.170893992610004 1.94709928415813 4.924745258871793 0.6225114124616881 
5.301504447534268 6.9250339620883095 7.492509559492049 1.9485021650171097 2.7579792714303224 0.44238668917888896 
3.104243429456763 5.459227722846875 32.504074943779194 1.9505853163061038 5.664365017728752 0.37454045834341326 
3.6926986976853433 3.5485255720018953 11.76709173471582 1.9534110448561557 7.773019364048972 0.4959288222154208 
6.757078632411571 5.855970854819522 6.19523476727602 1.954484951279436 0.8860060700887438 0.38972462070207825 
6.122170761356604 3.397783743130945 32.68887045606431 1.9561094425975116 10.413102824645168 0.259143522024562 
4.037601074880486 6.70646880248724 34.80047642912199 1.9591445747911076 4.083449983132139 0.5366671056955484 
4.6984299455793685 6.941230229938039 23.596133006839537 1.9645150300643033 3.3886201980527133 0.2877557887472999 
4.240047925296517 6.812320168581319 39.49590517723392 1.9652052181115212 3.8672307144216713 0.5252774107766373 
5.451575484112822 3.0871988215981405 28.2763208989874 1.9653826003980175 9.717293506495531 0.5103146920515563 
6.133175419067759 6.606911425959308 31.263689062885895 1.966278429230706 1.880935349072482 0.40675204789093217 
6.7784061239846745 5.840555473397476 23.83941600078532 1.967043935880603 0.8684999424160686 0.22184565289357827 
4.360130136844609 3.135046196583146 39.3203021260033 1.9716708981606146 8.63961011038195 0.5233596527007819 
6.787849973803451 4.168295618283885 9.28502429163236 1.9718366330390518 11.530836812689438 0.6895784361964996 
6.976879940486154 5.05854199152483 3.646662419202336 1.977746562092381 0.05855054379162006 0.4378038732317401 
3.0592485235354028 4.604723608383708 38.77798349464035 1.9805957990384393 6.620173755421838 0.49476245386726025 
3.016885619213503 4.95371912016615 25.71322583264307 1.983654346684524 6.278119002433289 0.6953680769127045 
3.2793354439981313 4.012148405277356 3.0976268882553697 1.9840708877147455 7.267171905987706 0.4660578124896437 
3.0511075612543967 4.615615051702495 34.62566637943635 1.9864373955092216 6.627402243532817 0.5061960018565405 
6.980473284859798 4.831291055276819 39.44334773060122 1.987646130495307 12.319836784126702 0.9838941968540366 
4.445184897625836 3.089923994876494 30.302061310727293 1.989022408916257 8.810773222384606 0.29654021103870426 
3.8458583987510675 6.621057117574445 27.96434943094718 1.9899419625135342 4.356997343947878 0.2882174511007761 
4.732981518376093 3.026803555900825 9.410689215679941 1.991181326884712 9.115395617862474 0.404201581532385 
5.92884072341651 6.764006089531804 3.6576759265865633 1.9936054206843914 2.165321708209909 0.23886761917866295 
3.1523060775461715 5.750509530886565 18.048599099636377 1.994301227754822 5.495823390843279 0.30704492069633676 
6.1300793040634005 6.646792986865844 38.408024286426574 1.997249702731971 1.9360772420994934 0.2857024763958793 
3.0044396490230767 4.896668582698404 0.7573522181318495 1.9982338442216165 6.381014290475538 0.575681864082788 
5.168076877692712 3.00868724164485 7.086038453581345 1.9983934393414435 9.585482890739012 0.38957359723332985 
6.625092849754651 3.8360413795219683 24.619898154778852 1.998931324610431 11.317233745561945 0.25031003517070405 
3.1515309789605297 4.238729821163781 9.802846950818498 1.9990922957502357 7.0613188435112075 0.2960850289682799 
3.3357375862690226 6.108196297715955 21.10289438897933 1.9994670329937956 5.106910752662815 0.0 
