235

5.209438560973074 5.429484508610621 38.96033335118234 0.29899562601363083 1.010508569439434 0.0 
5.853671259721358 5.296141702722699 4.74546285683002 0.40821754656272935 2.351453448808332 0.0 
5.121949415706894 5.321122538485238 13.124674603217777 0.41823365541563806 1.4987556054090536 0.0 
5.536755258628017 5.955501097051863 2.7900488049369514 0.4569816171929286 0.6810300425709759 0.0 
5.421668404281872 5.046530186790126 27.434173596877898 0.4601855173518028 2.089858283584906 0.0 
5.1880906887389 5.849607925890712 17.446397945566133 0.468522272999885 1.0772582491326013 0.0 
5.7515903953179475 5.088250408346461 36.22529087017898 0.4825302614791078 2.5385326588806443 0.0 
5.848679696541133 5.8492070785378445 12.635790086200807 0.4934806120618629 0.38795168180727835 0.0 
5.898407005389295 5.795950878763392 19.326143962476884 0.4963013848299114 0.31708698315398287 0.0 
5.165344795284292 5.874588022922831 10.482275725129341 0.5023049800276205 1.1552765669699916 0.0 
5.694794152735689 5.965174330150909 15.095952142515543 0.5043133146877654 0.5921783003711614 0.0 
5.313800720371134 5.021372116353916 21.402021867497133 0.5135706599269816 2.2296041229922707 0.0 
5.323821378133729 5.0132052551421875 15.269768480475683 0.5176949202222096 2.2598100776965033 0.0 
5.923023165088688 5.186374142763163 17.17855758823474 0.5266021045620639 2.9727827960589615 0.0 
5.616973535579827 6.022088520002335 23.296416116668198 0.5350319903933523 0.7225002532584099 0.0 
4.96970742988594 5.586814112802696 25.32700797594636 0.5373517470892764 1.6009440209774652 0.0 
6.001097030155201 5.261115044767038 25.2455749045902 0.555125441199567 3.241006251482924 0.5896205885304135 
5.41976706850204 4.943725425640658 10.818282724425998 0.5620308936129943 2.5680002159029875 0.7236811626563918 
5.8316013980779395 5.9619521901962855 27.235384037915402 0.5686469143804356 0.5391946266860881 0.4378258685428217 
6.032696219098588 5.705692574104893 29.418322094577043 0.5710295061411697 0.2104225551996297 0.4144092232925223 
5.63060828434493 4.928082448492695 33.83197770103588 0.5866414660264283 2.8961948513424467 0.240009819123914 
5.766726009675797 6.035071482380063 38.311103925487764 0.5978664194399697 0.6626512857559792 0.6015144053447145 
5.380727703317785 6.088688463299205 6.875338990134132 0.6006496379566304 1.0635686211743671 0.6512313838379669 
4.897617897927286 5.525093370408845 29.345989173916713 0.6029045315271873 1.8689798261621107 0.16911093397026433 
4.891016351667977 5.591627349800521 33.65751949306082 0.6158381728727518 1.8427438594789063 0.10708603154084144 
4.913987948567173 5.74180276127827 31.364889203179217 0.6339390347551639 1.743491419073445 0.5545678375310977 
5.438960470382866 4.86485706263241 31.351748037312113 0.6380692556954992 2.9456975147992814 0.15125848708600925 
5.964378860897569 5.940159735943998 35.73754815099406 0.639834603311519 0.48539736940428746 0.10396579518124284 
4.9891677807702175 5.903781143088468 4.889086191513002 0.6511441988661608 1.6100904601380126 0.6386731438284875 
6.153833552539407 5.43176146933751 6.875959297412102 0.6573848275502545 4.0621090151367945 0.40364636230063267 
5.837110256823833 6.074130491007905 0.7522153288551152 0.6657846092850206 0.6923271679673952 0.18299096779648205 
5.253244502875835 4.879383848411919 23.422617045918017 0.6678717563821617 2.894526368547041 0.047926593454368775 
5.342032889855286 4.8370420194358585 19.300227210556407 0.6815180789099826 3.0521613719790395 0.4625225802266048 
6.1836318542231 5.67361949157095 21.370841438102126 0.7053341335578978 0.17542238776293928 0.5160606240773682 
5.632938044712798 4.761370797598066 8.817556925325484 0.7504969169643414 3.6702766312703687 0.4056025002342034 
4.620176801445878 4.519326198898625 1.6590457521938689 1.317501409821114 5.245162949335704 0.614286833379164 
6.861676552144305 5.874691858688501 32.474232445693985 1.412287867832561 0.37923288900785224 0.27417976647061143 
6.306336593872285 6.665266118502118 8.770263447286744 1.417047574905848 1.3681249798256125 0.24209947128969392 
4.280429102536768 6.272486784922889 8.69258062754841 1.4436374222150707 3.720209591264748 0.2303403014782273 
4.101894796498851 5.9609549523336325 37.10150077547169 1.4721336991380527 4.156004009806285 0.3044894749120654 
4.548672327334731 4.3708865206632534 6.165840811398425 1.4764557528075963 5.9238941288916145 0.40668329084904065 
4.874672473015077 6.841405355092487 33.631667759412174 1.4800009603631632 2.9703891221623824 0.49558913480477285 
5.899136428103042 6.985605877572201 35.57106059058648 1.5382895409239228 2.0125832107953627 0.3219107534816394 
4.664983457168494 6.808737120328429 20.683049116210725 1.55243211668911 3.320205718854128 0.42707283348838954 
6.809883846488293 4.569897120744537 1.8293083867716078 1.6065139455635822 9.102084051862345 0.41081659536311577 
6.418902722755301 3.7958884610828356 12.69281672760853 1.93607291984515 10.080983513116553 0.26552972899893573 
7.103352549864371 6.670507302682159 16.33753151052351 1.9851515672081166 1.251840836774825 0.3499731882121284 
7.358853986786747 4.794719891803947 14.769522777224537 1.9881544646254272 11.770964257097383 0.5138156764123063 
5.567064842041657 7.521028716105324 25.788943240090923 2.0221411336403805 3.109294722361483 0.4985987095160254 
5.499265812963935 3.44618446413598 29.467265013930707 2.0538156670906518 9.677644130287714 0.30975712013671997 
6.122884098155889 3.532111572851017 37.67331392620883 2.0641146919302655 10.35965894539682 0.28414970573761816 
5.24398750406744 7.549859664099806 13.668735879882867 2.0657848485689363 3.501599652153189 0.26279795727403515 
6.271471058964226 3.5607651254417707 39.9792646164127 2.0870552205253836 10.62523298541657 0.4042001347855822 
4.021504073983157 3.9936949355251627 3.9980196559334544 2.110664622935382 8.308224906865178 0.3634431569368515 
3.9218261350038146 6.903852592487782 0.12022110727618696 2.112210891362808 5.100113490613669 0.4076150631199532 
7.5929045257571355 5.033581095591861 3.612023816820006 2.144247175193192 13.002524714398206 0.3125729206954906 
6.189580734921704 7.552682286936928 3.9284584483066354 2.1654159325819555 2.699625019482262 0.5350764666123363 
5.529313992347517 7.682285961060165 31.747342298608146 2.1824828352103114 3.398921147024339 0.2445559010035097 
3.623042225902547 6.688090525145645 3.2090086788956214 2.2213801074299986 5.725096830177737 0.47509600101850463 
4.87083403982481 7.6317070117334165 1.7615183070833709 2.2226166087106853 4.129164876084154 0.35770222657966966 
3.526693485321057 4.4289178687765 22.33702530736086 2.2452517749020093 8.170201823556162 0.34689276141069525 
7.716398648191011 5.942785358970259 18.437886483752578 2.260195089327769 0.4456677047004778 0.20678196729540238 
7.753061264720997 5.686228363024582 26.131782775471827 2.2607445821633623 0.1864396207997352 0.18167144486339423 
7.241599379584042 4.049545080904054 31.66357100655714 2.266492415892263 12.666847231677142 0.34583089860563376 
3.431186737570033 4.543748346218164 9.614434890567779 2.27912385362591 8.146874178769261 0.3206191039869694 
3.847056943560112 3.92491551710393 24.63641641876162 2.2832240091793037 8.911140055552288 0.10751905451839679 
7.514252003016446 6.579077348743537 28.222269184550143 2.2850862251186803 1.1238385164414968 0.43290851901793204 
3.241237447305619 5.8505900753609215 18.361764660314208 2.2858087563039935 6.829100589616015 0.1748595878420294 
7.3404668123013055 4.130063587018201 5.747431837765333 2.2943504228421525 12.947742800566125 0.17607601174489004 
3.200316154078693 5.573756298215658 12.458174368485075 2.300866311352723 7.15461576483372 0.5962612595830499 
3.210766185567059 5.257941129551847 17.546804261522475 2.3019956459354645 7.47443978423566 0.5364310193106993 
7.749882653292924 6.011517055312705 11.751501173458173 2.307297477887104 0.5158026085433978 0.12669589769497205 
5.001643605777827 3.241690576478022 28.583203451387384 2.3126436275462567 10.395780036761835 0.16289856990643753 
5.539816271019663 7.821862719327039 15.826135734931334 2.3222040872495824 3.6078914281656544 0.21489356965260598 
7.417348882546115 6.811765737422937 39.671164933560505 2.323134969664391 1.393911347909997 0.20844137367791102 
5.8806155532563595 7.791948188038828 10.569480119603021 2.3233369742753838 3.2671502487074875 0.4745444421205322 
5.375127185607855 7.831657726110967 19.028279807924477 2.3349991373675447 3.7927404813769705 0.4238172105454985 
7.147439045390171 7.162557249448719 3.8544288420171995 2.3405452390352477 1.8489501538645285 0.4657675597375958 
3.304915669682476 4.687129214127307 3.363972735691739 2.340759306663294 8.183877069623897 0.4446386076844094 
6.219367917829405 3.2719878922570427 25.846394883421354 2.341266356793142 11.764154236981526 0.4013943197772459 
3.605437016255812 4.123048997523997 27.31382824017046 2.3420851740689006 8.829833672366032 0.4603856010829334 
7.140024697262571 3.8238631243820054 22.03625644885878 2.345019367390733 12.866881659106735 0.18329012117672336 
3.9438131003445447 3.743615662569095 13.836049544035724 2.3466153514012142 9.356783903604523 0.3475197504911859 
3.8953754669265175 3.7861521089917805 1.6678310974931208 2.347785016915861 9.296976714976534 0.35635113973629945 
5.948697295548137 7.808329927875674 1.9279226520057335 2.351534885762644 3.24231672441935 0.4465343516847639 
3.988944870229857 3.6954143266339194 36.88624788244656 2.3536815965042455 9.450713409079384 0.37056148118275034 
3.592764157338226 6.886057783338098 26.395502255820865 2.357690551850667 5.925223452758901 0.37644743770344086 
7.706202683678439 4.663977688165271 18.085025592586504 2.3592930270221686 13.969287521347592 0.3701392723692232 
7.753037033688749 4.791189917822669 9.976902034927221 2.3619033866289367 14.120371430802336 0.34037403691801116 
7.354695100365145 6.964385723694086 34.14781068390113 2.3631164726008613 1.579365624727389 0.20145918974568117 
5.939670087528906 3.1765324962640857 30.36773012731671 2.3647010438498324 11.585634711569718 0.5151426772051673 
7.83082311219383 5.090679574673967 5.638368615705403 2.3664909868676878 14.457712061564525 0.33012652509807977 
3.3695652304306485 4.45618122456003 30.379716317818186 2.3724059398321806 8.533953707821752 0.35767893445087034 
7.8591110093693946 5.788754282449975 24.097647417221054 2.3767170193695932 0.289469403695664 0.2894443815885082 
3.2924331043724493 4.618684838425892 39.81195248252976 2.376987171334978 8.370395034413288 0.2534279117264184 
7.55134364780528 4.294846341537671 34.89238243662257 2.3791607978226703 13.684960455466188 0.32641755244530674 
7.809844598458269 6.070632905454172 5.421382629071218 2.3792864438343515 0.5762500337866818 0.2087117325128158 
4.623957301215 7.714353970097722 38.145490142566615 2.381347163893171 4.6377239457839945 0.3900080009393422 
4.2298245674837185 3.485511208463323 18.276579990425162 2.3814933803382323 9.882792877572548 0.4678797577257304 
4.729634795940146 3.2448562112967725 36.26712407797468 2.3830937991092447 10.445609524398044 0.2820862661907996 
7.521506170017887 4.237952787153819 10.855241831674235 2.383117781997607 13.643544903018796 0.4356097337931881 
7.755825120871896 4.729023604812591 22.20129986525805 2.3839361522265805 14.193621762799859 0.33631985407017617 
6.843928206560658 3.522608613684344 27.81418655060068 2.390861710568952 12.693860042896585 0.08775366067595732 
4.028397765988206 3.607545467932761 20.46078640394918 2.397289571806113 9.712491275724535 0.25927348138854467 
4.333699468525904 7.594896068430682 14.13547143821063 2.397675221384891 4.984275578218213 0.720951665282451 
5.010875063849789 3.1512914858554613 9.957125741153398 2.3990987656991103 10.812908119482117 0.5746019303381421 
3.5290514795035435 4.128669629080244 37.66704639187677 2.401079977146552 9.002789946555655 0.5757325349110346 
7.872571939159919 5.876994700282635 9.755966383953883 2.402336906125002 0.37855944669992425 0.22449866125756396 
3.390933464561251 6.659318509421221 24.298693241003825 2.406695048649546 6.351250605053755 0.7498678801663204 
7.812064776945188 4.8249695716849565 20.179112156557835 2.408590793792459 14.44942733414737 0.2515600213862285 
7.908249685383881 5.54432421778375 14.36228107186578 2.4086575479784815 0.04432671978810809 0.5979209895835002 
3.352116083791044 6.5933061768878645 28.401856221507977 2.410129397756535 6.4368740446501995 0.7188878645664201 
7.36230870205474 3.9677430013015034 3.677190287699787 2.4116395277506415 13.49242840369417 0.6183263016588548 
7.248435293402432 3.8374995091049406 24.10194884573037 2.4126611567813585 13.325068997671924 0.47640737878736344 
3.775516093765927 7.189097195257295 39.13088413654919 2.4138960370915714 5.712631173922208 0.37433294047213816 
3.266680471253456 4.581034196456251 32.47768000786075 2.4149977775483578 8.529665994943688 0.2091784377866668 
6.8001637583936505 7.5356332690182395 37.41178027155825 2.41541478934244 2.4212220659026293 0.5315868718277257 
5.124740563350323 3.113356034366788 16.374351318566653 2.4159654516337885 11.008184007859171 0.4914741163071688 
3.5241759277751035 6.893255094777492 16.130365545903018 2.417651861519109 6.110416203311445 0.5541857135462616 
3.0933362972937015 5.252215070347827 35.48488766570953 2.4193857793429157 7.848944752510988 0.3717341685107769 
5.377913332414149 3.0803325605302234 35.512320703081514 2.42274548230565 11.294780716444052 0.5770955304072173 
7.781214722418326 6.31784031476468 30.287226863983165 2.423386760348524 0.8342186373070142 0.43218657889127704 
6.916290402786149 7.467138344078684 28.05600707555486 2.4239454964517613 2.294966744739476 0.36483432602340027 
5.934490889061128 3.115053111277293 34.67326477168212 2.424201723187503 11.860632893400973 0.5877159068401387 
3.812970876111007 7.245867893966789 30.533857590556202 2.4277812850489022 5.678717557178738 0.5267227130218446 
6.677496888610112 7.623569240228504 20.589154234362745 2.428177349521892 2.5848258769090684 0.32344335012664055 
4.046657619865585 7.446000192187945 5.746818033996519 2.428810577605895 5.3731828189394 0.6569942157932795 
6.896437738969138 3.5122166478173895 32.578963798489696 2.4292634715138606 12.935336161489365 0.3922735346869502 
6.459951417612147 3.268227028084892 23.842545357169293 2.429468526724798 12.43546869683255 0.36332020812596655 
3.074076117612724 5.368119258114405 5.249572879696856 2.4295059607289 7.764463673469448 0.41048846377657244 
3.072652290326192 5.393035065492057 20.420938658441813 2.4297033565587736 7.740137731514304 0.5098777128732764 
4.1330104371550265 7.510728840027662 28.39152524866092 2.4313969098125634 5.270949736501072 0.7726985365482352 
5.693501099476344 7.9243954428949905 17.978988939897988 2.43210524834526 3.626636164379544 0.5829837644054896 
3.545551491228651 6.948358889072175 6.515085098093067 2.432614323108564 6.090875343300214 0.6163823507624455 
4.070683535445743 3.529681017514921 39.62919369229055 2.434153333006557 9.943036827501663 0.16688642869497808 
7.566991716191862 4.211482454566875 29.672572942400123 2.4357200618492225 13.946331672110338 0.2644408951994857 
7.539802908129684 4.16877911166187 12.867279543553664 2.435763731884122 13.89595619785661 0.30823467940558547 
5.825045253381917 3.0852538526895064 14.481431344582035 2.4365248557519346 11.807870074818444 0.6409184186013392 
7.931867667145107 5.665479899997541 28.319151476387525 2.437491322612039 0.16560727981637413 0.5072676159503878 
7.896082762360334 5.952224190392776 7.715851930358838 2.438384572305347 0.4548575793288201 0.1919031912198437 
3.0771279255057067 5.77921830764277 26.23106959105108 2.4389079426430116 7.382223398444907 0.5843349741045659 
4.998379227130588 7.887628286894419 7.738440743064622 2.4397524948552642 4.337578140781268 0.5731504345213924 
6.297290981184638 3.1927872256397904 26.902197725985452 2.441086580776949 12.3155428970026 0.15939367972459587 
3.834142124221021 7.284504937974077 35.32906210309647 2.441216978465601 5.668069328627389 0.3590264691358951 
5.7545618197855495 7.927915527440986 22.55278334027642 2.441224186444491 3.5796405614854 0.5357572255405642 
6.678015683661465 7.638190103439836 39.56378372282144 2.441224665900384 2.605351307056896 0.3057964054355691 
3.6255153424443263 7.064429155868233 11.05958671597515 2.441542814521628 5.972287790355592 0.8286223345893549 
5.220376326135079 7.925685011310009 4.071595363014502 2.441748794016241 4.115728524957685 0.7820388358017278 
3.8971778927691725 3.6578905183086494 12.746008236503336 2.4418038516566067 9.758278728028785 0.1767001231349416 
5.84337063788609 7.917848757972111 35.14750684327622 2.4421089270115672 3.491543530061909 0.6524165091849441 
4.313245571288638 3.3613491325198765 8.074296504247812 2.445856415867356 10.286747348564496 0.48248273283922155 
5.030984150205858 3.0950746343451634 22.28486875027008 2.450233026005524 11.074522825182612 0.48100004619697084 
6.030285227584517 7.892190134215982 5.990074493873372 2.45026040673938 3.314345510027268 0.5733560855704963 
7.290619769067516 7.176866679762865 30.470889239091555 2.453202196940631 1.8462905000347964 0.6767499048110969 
4.956524535866638 7.892347406715755 24.9734447765723 2.4533022020400517 4.401659834113136 0.6044732986916633 
6.3245144976987255 7.8116769469825815 32.5877530931426 2.45431751493691 3.0143645084349036 0.8087626458973199 
5.398342831174296 3.0475215357298833 7.790857284776962 2.454584445009453 11.465270438056606 0.6950147574400452 
5.756615780798888 3.0586138731759753 0.7401093031862445 2.4548356114420047 11.825225740726076 0.5794516361431499 
5.514925954902253 3.044164421283334 2.800116773297326 2.455880936409656 11.587992308665836 0.741546283188094 
3.0681833530671776 5.157011837596521 10.463452739154867 2.4558853971324703 8.059504573055827 0.47390136495288027 
4.697654550166636 7.8212836844561835 22.925018844928488 2.456036678185158 4.675282480080764 0.6020521265206211 
4.815275120518023 7.859112879268059 27.730937108603996 2.4564734351728754 4.552536416356787 0.5864917191781429 
7.911018867002966 5.9712091545068855 16.31847393352581 2.456633884878932 0.47414747562125115 0.43140964117315306 
4.180362113931615 3.427173713894941 16.25084804049095 2.4572449944429886 10.186423671306802 0.41806258485094966 
7.812407063986901 4.668430880232881 26.477301428335522 2.457383492767619 14.591877650580678 0.507924980891756 
3.8633602550872235 3.6659376647390474 30.793264819831393 2.4581241433766152 9.792704938501885 0.07158829253725335 
3.304426090750983 6.60600558234216 8.620307860877212 2.4584127275840055 6.576143206330684 0.6381886852058862 
3.256618294440665 6.505692458414427 22.21791311077061 2.458491162837475 6.687487165997531 0.5351343912213469 
6.065617597106965 7.893124906160818 12.711889170162102 2.4590587798270045 3.2919528185030416 0.5367294078945559 
3.1201032657397443 4.875322491845217 7.540112012253935 2.460514266355123 8.361524155178301 0.5444528320350581 
7.923043575422482 5.93504309504909 36.87386745575793 2.4617885089800153 0.4373398737552847 0.508931291176434 
3.0512064925841917 5.236156894861593 38.77878598579625 2.462966265723282 8.001987080763493 0.3008476394872691 
3.397158094679056 6.78536465324644 18.97081885671428 2.4645702202593363 6.390485799778132 0.6457277557599412 
7.772650334592886 6.455069478722407 34.923596203623234 2.4651769211381644 0.980736281761553 0.6916700139360972 
7.476722753129327 6.973303707048128 18.788875516550398 2.4653715046501494 1.5790785995208392 0.5374146970923704 
7.564620302907989 6.8489700596761125 25.965586042314882 2.4662475984950207 1.4273253307050169 0.4372951344517386 
4.289815647502035 3.3474048607305793 26.584741106345994 2.4694558106265547 10.372280103837454 0.6069278395082965 
7.903817301894624 6.069635304333648 32.36473488231181 2.4703890383563554 0.574807924460778 0.35656919456502545 
4.177122181785187 3.413185630438784 5.991017058974123 2.4707893343893086 10.247350351823574 0.4839146793612631 
3.8325342658264523 3.676560896222119 11.700948831258302 2.4709051256228385 9.813548220249277 0.12056642697367212 
5.748227800406834 7.959052154748909 39.86567601313897 2.471549016440917 3.6336530977629273 0.5708821168992089 
3.030106633075409 5.608548739082806 32.11607300613837 2.472277507225787 7.658305208803164 0.4879826188050278 
7.9452513020782165 5.872084880450561 20.442526712994656 2.473398691795385 0.3735027845070107 0.3063008955714179 
5.415034216204778 3.02730031650902 38.22726959952432 2.4741590306915056 11.574217258929572 0.7044233171814148 
7.527798360745418 6.917686354597976 22.48011541547777 2.4742273120825202 1.5096227743281148 0.5131444921475142 
7.667917417093748 4.307382519643369 30.74812846046354 2.4743084653677716 14.302119023477761 0.5973250018971841 
7.7527795841826785 6.526432762441527 1.7352107582150182 2.4755969120039776 1.0583808583594205 0.5991425073439751 
7.767909196262596 4.507311368703281 1.5400028150308245 2.475649983579708 14.533545448448482 0.444011462257014 
6.047866908513066 3.0854489741810527 10.010005643960127 2.475927059855964 12.219970717170298 0.3959170874395653 
7.090312077417937 3.6015092215526536 16.470826041900423 2.476562080673723 13.397413735714906 0.43984985212887723 
6.944104174439363 7.512295383091104 10.683302905614632 2.4768467000286813 2.348865832431848 0.35315108086401736 
3.298361813389173 4.365256080612181 28.27395584976088 2.476863837059001 8.960033276252597 0.6371945910121536 
3.1826286529074386 6.3750028155722465 23.336193678719724 2.4770627540667896 6.8876174174436 0.7162930846645255 
7.57941840893658 6.846806619777892 2.6672689561676606 2.47747229863462 1.4239162447071543 0.565089608522188 
7.40263866939524 3.912812224566858 15.567833568725035 2.4777406928011043 13.845450788714611 0.6018280388082115 
7.974262664174247 5.645348376245064 39.873849609440924 2.478528168450727 0.14543181436991226 0.5527999649913263 
6.602222930167835 3.2797561993338498 19.150660602117554 2.4787855740632816 12.823219765330045 0.5677403903203385 
7.5663851719327395 4.130867300456707 36.02894430249279 2.4788045561807 14.12428183820208 0.5005317399512889 
3.944938993015916 7.43085695566187 33.17787198525196 2.479198120092497 5.5752336497657105 0.282689941520878 
5.62334516129295 7.977159241017029 29.708322591546676 2.4802282020351356 3.772537288331879 0.504992548334821 
3.262820709516924 6.5709439586141345 37.122918683871106 2.4803008164854674 6.684726975275105 0.42578489347586673 
6.84198409799877 7.586245763064397 8.674584815119701 2.4805932159839745 2.4785559316067136 0.22990383495811725 
3.016178088262171 5.468697996529508 34.43308723866649 2.484019143374346 7.835079124159924 0.5492697928216349 
4.0814244927588295 7.540249154325089 12.008470347113963 2.4849493116497934 5.413108576775471 0.5509464852091178 
7.689180641619371 6.677187294435633 12.524340852673312 2.485614975779975 1.2263373008307497 0.6885063032360067 
7.184825902576949 3.6719944583057993 39.43770063549677 2.486009368940299 13.56627904714938 0.4762301664541014 
3.1238486570171853 6.231604261620225 13.281757255225646 2.4862300779251933 7.068125614722444 0.6870553017582491 
7.86353748513191 4.728206496930987 33.906589119202536 2.486357708577592 14.837487919894315 0.8925129759834151 
4.871438712208474 3.0930231331041007 20.174219810372698 2.4876951039631328 11.087537919004685 0.5418043312033886 
6.221726791615857 3.117696257444946 18.21761658187222 2.4892289335310114 12.462456638504626 0.3413321795450129 
5.008419189593627 7.940581290139782 9.853702398132555 2.4895960971491258 4.405480894168125 0.36328352112230106 
4.2018298583282965 7.625248842742934 3.707495682179264 2.490367113561394 5.277442876113616 0.5911957101870661 
7.547913857135484 6.9171107849967335 37.14894198059255 2.490412444395826 1.507500384726809 0.24236873878805962 
3.013814850183228 5.354315292548829 30.009563977927655 2.4904498856942654 7.969746988061196 0.3617045170991508 
3.057928555207032 5.989033843152459 15.497565950335172 2.490555568788154 7.332078944547764 0.6265224808592091 
6.950620838371326 7.526211483312534 6.644437735982269 2.4919538101306586 2.3660115935775274 0.4208118121908765 
5.876827331230702 3.0361086351548936 4.806227048967479 2.4925407710448244 12.124099422884342 0.1329224503647702 
7.93918555906961 4.983010763798339 37.8692813026405 2.4933720263775516 15.145551278308275 0.9395032229220424 
3.9285692951824913 3.563423467725971 34.0861365135224 2.4939372737496335 10.052329346957409 0.05215484830409123 
3.1470378768253005 4.672777171228817 24.479101953730563 2.494138801577609 8.678761010496844 0.4841596609239673 
3.882245593533618 7.398709816863108 17.019680867446446 2.4944394737683524 5.6785084420195915 0.14969104755958004 
4.5933619515357975 3.175766275784958 24.580945034209847 2.494805594771165 10.828611656985807 0.5798755636517179 
3.016102383273024 5.737684017174872 1.534827196291019 2.4952436879796593 7.600994309338404 0.49199007035670744 
4.5147592865216915 7.793184461736845 20.918553737390482 2.4958754454192125 4.933320940032495 0.6931655768530485 
5.852232174174958 3.028789515130163 12.33223663606882 2.4961868449806865 12.11641506645697 0.05489066004670429 
7.471881057344584 3.9688203927152452 8.118099798906286 2.496562815969005 14.038008856764245 0.38268251934933406 
7.8875119822598645 4.769977131785814 24.33973345271989 2.496627095412949 14.945923119708551 0.9390877298918874 
5.960277437911165 3.0458157080166206 6.871129976570948 2.4969733396390175 12.229634403808781 0.11476448268064296 
6.715818214470832 3.318924911449737 21.1785606427349 2.4970587643332665 13.036959609926257 0.3965526658706611 
4.83977996736162 7.9082710330865185 37.01482078810493 2.4971303250532664 4.590647583999166 0.6234862049440824 
6.91258230741594 3.4392098609400525 36.848230768742326 2.498448473047075 13.274974982611033 0.5095500073601413 
6.824944071196722 7.618884366881837 24.22061600074973 2.499029361975483 2.5289661948766913 0.14061511381666014 
4.933165763364997 3.066089083988609 32.38300333807133 2.4990444971830716 11.204659051750735 0.4400422315827563 
7.117301227161696 7.405426814569984 14.471599778423496 2.499262812323076 2.1668783016038446 0.5546324845356427 
3.0409842690859117 5.050995535913795 15.129670252860258 2.4996726532992866 8.304407994342707 0.0 
