75

3.85802602207528 4.83152449310609 24.214839355833 0.8435576998896435 1.4677102681976155 0.24930043025670862 
3.1480087955141434 4.037130629088937 24.46590695869309 0.8527999156530208 2.6420075794482187 0.5358117344176104 
3.95473724602401 3.074290175313246 16.405922365282265 0.9268157294840612 4.322235464928623 0.6533268550844614 
3.5244435319161482 4.797765396308786 17.713871472315184 0.9287537789339552 1.958139070824096 0.6080575589063242 
4.921422015682431 3.867039695661642 28.729282497539472 0.9309656134970955 5.716012950451802 0.5724279723095138 
3.981006267973341 3.0602878733944516 2.4287528022172324 0.9399040603943695 4.410198511812716 0.6308854753421915 
3.9508923780222833 4.941424532514481 7.998178002002405 0.9427044653317472 1.5299265703226466 0.646551115902358 
4.499155452455092 3.1987495787790667 20.997204712260498 0.9440118660389668 4.974496599622265 0.3635704686657168 
3.765831688524517 4.920213655854826 36.35815848011869 0.9495409261959071 1.728144714413621 0.3418715035449266 
3.253155163877187 3.412873474332292 0.02388260758689853 0.9499972454622931 3.6174248269864826 0.7142730433530106 
3.0670631344713826 3.811485857452003 18.285402992936483 0.951792402261632 3.1799129669154347 0.705605221789996 
4.371516305613046 3.121926546017856 34.86470779491782 0.9534345053146035 4.874579327353089 0.6535690185092021 
4.567544026714135 3.2321475171534155 7.132427971278965 0.9548317431215604 5.107297547079767 0.6827905814711401 
3.7402706002564727 4.919134241715634 34.12807914897232 0.9551267535700733 1.7633514842620306 0.39564310324321383 
3.401840089023665 3.244646394515761 21.244923166364316 0.9635114677144502 3.895101445943557 0.8637856772884742 
3.033454809970052 3.9830575008742093 13.409932716840316 0.9666936705320129 3.0539011002288703 0.7223930342629391 
4.944738541109354 3.7831181897895902 26.40646885581164 0.9693134842029033 5.871642776552038 0.8124623526620665 
3.4449794649391663 4.795616450753953 33.09331878169745 0.970079033403738 2.1146834987030294 0.6561967133688699 
3.049545156372062 3.8010547858313233 4.190927063623526 0.9710528348223019 3.2510163877648353 0.5729402863890549 
4.318674159915873 3.0823113018002397 25.77681866456563 0.9714451950581978 4.90251318303859 0.650021590993432 
4.819362684434647 4.522512115737763 3.5439867584097673 0.9717891333703556 0.5516688997245023 0.7091998516040366 
4.121179389373655 4.965019709916192 14.820826171903846 0.9725983163339867 1.4062587407951446 0.9293781885844559 
3.9928667425593636 4.974083357081539 5.937490417345437 0.9741094753183307 1.5372609069207677 0.7364412245914751 
3.598594904196551 4.888050934693436 31.953270619151183 0.9745565727790574 1.9445501624497687 0.6412435599932566 
4.923328518152293 4.312067116085273 14.982786756201598 0.974639131871427 0.31766143915774503 0.41872886083949185 
4.353659078680725 3.0914366840863226 9.214759721997972 0.9749677138025424 4.956340679269936 0.6956095946951365 
3.7890989272389897 4.952236611875413 10.681446825051161 0.9753121692502921 1.744597030869488 0.391571825053178 
4.281130621585351 3.064997681828171 32.495191556038876 0.9763522731983886 4.886119556868314 0.7244111975569386 
4.962090305590408 3.821099030615321 37.5275514341979 0.9785822974884749 5.968701117231221 0.8174325833982746 
4.978601866127835 3.954905476939558 30.800216592458753 0.9796403056218811 6.110151111067937 0.6769760242410678 
3.873328228587778 3.027149521150225 18.714098804521875 0.9810625830552028 4.496122105864246 0.7385551799228953 
3.9586136439483104 3.0184373203193484 39.42379293435062 0.9824347940749548 4.588216290822078 0.7520374307394736 
3.7650264476861937 4.954027944999407 3.825448231541138 0.9825384929491353 1.7806408807454073 0.4673075688305207 
4.980403823126995 3.9318876361786703 9.439506530512453 0.9827669868831338 6.106740081596433 0.7315926137526921 
4.354394709615573 3.0831332105314786 29.108191775793024 0.9829752386676985 4.994721219524012 0.6249112392956325 
3.016755487369556 3.989157382576823 12.339011621487344 0.9833042936804793 3.099984382427974 0.61082899538289 
4.39126119619139 3.097682929209645 31.458918839202575 0.9834944940795577 5.037003147611307 0.4942471006249415 
3.0256169138177205 4.136358103501873 6.231364332301091 0.9838780061718687 2.954145470900878 0.532995636271061 
3.1711918344933387 4.5318072843923725 38.35793494475716 0.9847547729984899 2.5319105168431397 0.9299095608548191 
4.247197387153178 4.9532938243468 0.8924067995553528 0.9848226559909684 1.2970861855739262 0.8257471506111733 
4.270275860604691 4.947067581547313 17.038548872467096 0.9848786954968023 1.2732551938686125 0.8171537012570187 
4.463489825832461 3.1296749975848206 11.231108831574076 0.9860468693115898 5.129154192707654 0.8625162228123603 
4.217632065617606 4.962010840179507 21.914279744217417 0.9863207250219699 1.3298710952134574 0.8549647927317665 
3.035805472049528 4.210433338206024 10.24616703445944 0.986890712063988 2.8883471267612455 0.5754816539197583 
3.6474881076991448 4.922135735083267 27.56129252315113 0.9872177815107903 1.9111865898370377 0.6406679333596129 
3.4735828623622 3.163917764983686 14.202290408388919 0.9880022806191545 4.100675514656218 0.8695585040068977 
4.120609561264393 3.018476255613095 28.115306291089084 0.9889062276392445 4.781021399040702 0.8458079907373958 
3.4329025231653425 4.8115280619217335 29.771585551315596 0.9900390616125612 2.15899585212739 0.6837718455563859 
4.98906189930055 3.9412664503771877 20.160926561438338 0.9908042543809069 6.166638731400154 0.7332240815094002 
4.933030036311292 4.335212855586325 22.599887101909154 0.9914195414704057 0.3419526735447356 0.5942873139678492 
4.602513350382441 4.788099392924097 19.745040065341044 0.9920297326776072 0.9107532528898199 0.9135832310266908 
4.886888617581619 4.444706390224039 5.5576110337974995 0.9921366808569937 0.46113064007603644 0.7909131730751139 
3.8518748324390186 4.981768078196639 25.21443346936146 0.9928794612796118 1.708291623388182 0.2612549653213126 
3.0662288199602212 4.337549637785188 26.942571758870336 0.9929090465101992 2.7749007763063585 0.8295263408577206 
4.326028748144954 3.0612759237679814 37.32730873142999 0.9937291562164322 5.015018968212433 0.5472872400909036 
3.562204582105691 3.1074284557347687 35.45619175285383 0.9941573263630222 4.231511439726935 0.7690728390996776 
4.770144082928431 3.3711247064374374 23.003153084264483 0.994286700767477 5.566437570030254 0.8055784924731468 
3.1468468649523658 3.4889518835560525 19.23886843070494 0.9945051277708491 3.661056445302619 0.8557456194875225 
4.9943315321854485 3.976678567218869 12.99715317541989 0.9946049894934311 6.2259638860800575 0.9628067803851956 
4.976284805734149 4.1922829009750044 0.6917468947863519 0.9950400674921233 0.19350018108772105 0.9222967459217307 
4.8746617011190345 4.475390019864091 17.71668614860353 0.9955042754256879 0.49561097043595126 0.600140179923522 
4.994577330130231 4.046686864334545 34.30372098541363 0.9956725008306552 0.04670398930696251 0.9890027609824872 
3.8772042663485875 3.0115842903305934 4.55777349182857 0.9960142606028616 4.570497668451681 0.7172373580476255 
3.0055945879095747 3.9393642600767604 2.1214510217439937 0.9962523859699245 3.1904924159212174 0.48335159405121647 
3.924964117315789 4.993746671992974 38.90529822207085 0.9965755524732233 1.6405241795762837 0.594105242849447 
3.03392175035587 4.246247644544028 33.880752656795266 0.9969679467660669 2.883244373041551 0.6730146549123524 
3.018154535870673 4.17532399334156 36.27273309862251 0.9973760665228361 2.9571096070054237 0.5282822003909665 
4.994636115927952 3.923591489486193 11.933898417242958 0.9975666712491852 6.19141283132331 0.7386693411691173 
3.6386051721835777 3.069926308472108 6.793673293881504 0.9978192688281687 4.332310116524359 0.822858702919579 
3.3719448831416345 3.2243083821501672 1.4013934038007392 0.9980735022103667 4.024011545241822 0.8290119948836389 
3.0392002129366142 4.271643490507183 23.46122919186338 0.9984620256955062 2.8616496068909694 0.5198879289063787 
3.0802126762334314 3.6110970918341447 16.115882909442682 0.9986261527426198 3.536748290504071 0.7184039039189037 
4.907428354187191 3.5827981281636996 2.6333722524943823 0.9987410174047058 5.844874422568809 0.6792410990709301 
3.0573616433686706 4.330492438245233 8.242310792120513 0.9988955516618805 2.8012828792612634 0.6945662822222233 
3.0005341648882897 4.015785092203623 30.249151830632236 0.9995904784917797 3.1245203554872933 0.0 
