435

7.0401341942289655 6.984682760462475 28.517000843391372 0.0429577859468826 0.25424981252728074 0.0 
6.986941253758458 6.958944859292126 19.138216873687327 0.043081961793124623 0.18975149672937874 0.0 
6.982209077469616 6.957780492248313 0.0024164543338969224 0.045814885782646364 0.19762613453122668 0.0 
6.985935215508428 7.044934377533879 17.092422014169323 0.047084142204689705 0.08824242588250186 0.0 
7.044035088237358 6.976547910810062 30.562370012423848 0.04989077553460941 0.2890580114100487 0.0 
7.051340665591903 7.010478076717092 22.230265039911494 0.05239898887486971 0.010549194910023374 0.0 
6.965995752331979 6.956407260168591 18.088873666576916 0.05528666950972072 0.22390744206594881 0.0 
7.032335350124734 6.95305680921222 9.726281242082113 0.05700208793568118 0.3029986608376447 0.0 
7.010213576794495 7.059347560428324 11.74048399428127 0.06022001394661247 0.08433018831550854 0.0 
6.963516041970314 6.949173117159368 31.62991573612002 0.0625655753014982 0.2558813693133679 0.0 
6.969622581932274 6.94271281940326 4.501501603195507 0.06484295327315781 0.2739500076403125 0.0 
6.934226268999062 6.996657814199478 37.881911648736256 0.0658585901436477 0.21024448498655346 0.0 
6.978662706607077 7.06239281877834 6.583444243270968 0.06594045741760013 0.1253074043442659 0.0 
7.012091872499244 6.930175145024067 33.7166962479889 0.07086412176093093 0.34609063957858055 0.0 
6.967314152422647 7.066142549487907 34.712588389014655 0.07377805557623729 0.14975257996944613 0.0 
7.052669730103849 6.9469524318182 7.60315487048063 0.07475389594673176 0.41071383564766606 0.0 
6.951649981612919 6.941626004940385 14.851736672559923 0.07579741141523844 0.30475413167500776 0.0 
6.957221417389533 6.936810434066084 13.8348108780783 0.07630811472626897 0.3141814766154418 0.0 
6.928209596679743 6.969529187245797 16.039396648379345 0.07798930977247398 0.2763153438130139 0.0 
6.921485752734824 6.987046902075917 2.3297669806207892 0.0795755601265129 0.2630049878969416 0.0 
7.078557199222379 7.047192656065638 25.35312152280241 0.09164267748267818 0.0495755131348119 0.0 
6.907928594343426 7.008504975534834 32.65776731142514 0.09246338923284991 0.28196528989865755 0.0 
7.086525031249568 6.950836286953701 21.202379990532243 0.09951709256825003 0.5738628026214023 0.0 
7.052754168927608 6.903249701806455 1.2561049103662327 0.11019810588109946 0.574306967640748 0.0 
6.945105933022635 7.100853069957417 38.98630784128281 0.11482465026792443 0.23760100247603688 0.0 
5.932066655750132 7.058429522869615 1.7319912466672491 1.069530568475476 3.301570750472111 0.0 
7.794583448401735 5.279268577040476 39.08209866723703 1.8953309701564764 9.75145555146324 0.39095809292563005 
6.386261910769305 5.18785716109079 39.171500758960256 1.9132527566378887 8.391207843567026 0.3646389089760582 
8.356375265621564 8.35984512682441 5.084628539417011 1.9206594258582275 1.5109359486346872 0.37015378588131537 
8.91206460647713 7.200842529726934 2.689870268643041 1.9225838814183498 0.20120963161011574 0.2839323859787493 
5.075297843127601 7.165730881212072 26.904948314825056 1.931824297822292 5.903070170936136 0.36429875732614553 
5.371888434968412 8.041416951166152 28.061499949793436 1.932691525920732 4.971906562646289 0.5295599158389197 
7.678538607781924 8.811131072899784 13.374538130210794 1.934065770720777 2.3447324144394166 0.4166104942475017 
6.310325572871552 5.190279100001858 25.736981083171116 1.9366828731945365 8.421251110264839 0.4763376440873963 
6.236359581822267 8.780091374206691 7.511218131271626 1.9369749582273186 3.8275423498721644 0.25706952615954304 
5.069251831226609 6.824960336661007 13.160295040401571 1.9386663908376889 6.265778453226982 0.3628741638111771 
6.546052607031394 8.886902305963886 9.512189791263708 1.9407391756325274 3.5066980586264673 0.15933478827510372 
5.732184569501344 8.470052689519452 9.939624599565711 1.9412395204543582 4.430804869248647 0.3761969482737954 
6.009788693517345 8.67338218504488 28.88749235473899 1.944409002425072 4.093218145729725 0.3462078795117765 
7.69154366564643 5.182625864278567 16.60203115239193 1.9445002933105777 9.870261315136812 0.5002597056273433 
5.170112725198237 7.664277439690279 25.926542294922392 1.946728526364912 5.437933288370981 0.4453334483488757 
5.101785611781798 7.442052190553682 10.248145658156695 1.949006927338103 5.677053104578796 0.49557037265158344 
6.6642256463623415 8.921308960581392 15.466534926677497 1.9504288088959143 3.4011818399487943 0.25583399213388597 
8.659828347571285 8.025393487106882 20.571891540135212 1.951015619312781 1.0796606162478177 0.4114391369444401 
6.159371359410169 5.236495745304039 29.028865352751694 1.9536130035681758 8.33718053010923 0.49339576370995775 
7.139360266817997 5.051362810717983 36.34679635928485 1.9536141326834469 9.34566844106713 0.28932213338960877 
5.9026164910671675 5.383404238002337 12.008646605114286 1.9538762559042846 8.042188135766056 0.6245134826840392 
8.944353046044476 6.798499862023217 16.756369846467024 1.954766245172836 12.080299845948344 0.4287764039246854 
5.220429082850993 6.190705067599122 7.8837012669342315 1.9549503668309067 6.976056576488384 0.5345588658165741 
5.555946717193828 5.681364804667515 35.24211478470171 1.9555277195562377 7.590624989964855 0.5171518501343035 
7.181917103266015 8.947623201720077 18.079835045743742 1.9561007050607238 2.8904554404306353 0.5831785722354549 
5.04925686945931 7.154360029675448 7.612987625474354 1.9568407651398458 5.9930760104837315 0.3762451508621981 
6.91607157567781 5.044596510490862 3.015677523990945 1.9572038185109157 9.13915153914006 0.46323350439344757 
7.792732008636037 8.790396554204662 18.89211095867148 1.958045928680956 2.2595301532547936 0.401603161129668 
8.469116838401284 5.704899980224845 32.53483456726656 1.9584658143801708 10.89035774780097 0.298575460357227 
8.356756388774436 8.417258751074847 1.0811686128051008 1.961991403135725 1.5837294662200012 0.4874656019887426 
6.2073128989467214 8.79505412341189 30.907309120974176 1.9622874779588932 3.8983564222045057 0.38802652824586004 
5.112806419469946 6.45986622665732 36.36073386121308 1.9629681870828284 6.714039421899091 0.5371092867257328 
6.0149001907907405 8.698141497858895 23.480158662601575 1.9631877599594398 4.115741543520514 0.35954281249119824 
8.936279471455817 6.6730534717622465 6.198266395682964 1.9636884233268623 12.009742015587964 0.3366752964490105 
8.47427478993749 8.297457533463664 8.377075337441148 1.9638946528230212 1.417325959832759 0.545630792510522 
8.873045777109887 7.591470394139897 31.60277212732541 1.9642142730092305 0.6007947227473274 0.32852582375665224 
7.4675887354389054 5.092147276373842 35.37722998592569 1.9643169908538445 9.728746911603633 0.4863727853984125 
6.398197879770166 8.870005576838338 18.805649064050357 1.9644558150591251 3.697396292033691 0.35326860869615573 
6.661921382550677 5.062620366891096 29.951226511860277 1.9666562979742155 8.927883191193217 0.3713748733295421 
6.714740429359271 8.946236705886498 22.713743737628874 1.9670308431699923 3.376073854883419 0.21707984242674408 
8.936755412821682 6.654695180707858 19.900845543209762 1.9672968630383294 12.013787851031317 0.3305522284279345 
5.238176076970573 6.124378879576568 22.091718923279267 1.9674185833956077 7.088284413528353 0.5000837277892896 
5.034068663913244 7.078369279627763 21.769842705931687 1.9674927603925836 6.102670784249764 0.4052536545769074 
5.84014981121628 5.410176853947894 2.9449579557425807 1.9679405723102126 8.033344020937399 0.6895920015544937 
5.486565619688665 5.742099541460359 39.397620067288045 1.9679423739283082 7.547147016114984 0.5211653138763146 
8.109204297968365 8.62730401358554 33.35854470750995 1.9693787160582148 1.9152447771479064 0.3391039221080693 
5.250531394252388 7.9049053803587555 23.61715237945605 1.9696431529337293 5.247609444582398 0.6531578338537054 
7.687888720584638 8.845726103222006 7.856401928417988 1.9697450951893885 2.3913690164946573 0.5467015790752218 
5.462459887703247 8.231693187148473 11.195562661042104 1.9700501780892474 4.8585245541234485 0.6258928496310696 
7.868300417341777 8.768586096923316 9.081980712595445 1.9702391725337196 2.195652143413099 0.4301601184250438 
7.127579929530873 5.033271706369167 15.556937268346658 1.9708619483330505 9.415137326321894 0.32030716795522973 
8.8196208398131 6.242848655560392 37.50056961565287 1.9708622882050486 11.60615927805605 0.35812938595677846 
6.67497469656789 5.055148234983829 7.019921670340892 1.9718239870124452 8.965486180308307 0.3814999179573857 
5.456646496598868 8.228002203174885 7.85735805158177 1.9722904064723616 4.870564642414028 0.6371389570913482 
8.068570593269166 8.658045399289737 19.8895703116411 1.9725510535612227 1.9692256550014093 0.3643176585506832 
7.241156619395452 5.042185163518997 21.829030779174637 1.97261132740927 9.53747328545536 0.40878948320110103 
7.368949532187507 5.061936637499816 32.83029362045744 1.972869320144369 9.668062310743707 0.4226903086474861 
6.5363988164125875 8.917976701011781 32.129151328643445 1.9732107548479685 3.567488114923208 0.324407661834525 
8.887294603107941 7.580313639184855 16.12081505071778 1.974498629714473 0.5890106908323443 0.34963116041421805 
7.0048190337128755 5.025402866815643 18.615901388604726 1.9746030136373753 9.309916520595813 0.20072312785285765 
6.714293110101863 8.954609068872097 39.94882573801158 1.975379720218954 3.3896317093848545 0.3935361697351178 
5.113563882919054 6.411600112266006 1.3694991352262278 1.9760707608061021 6.805470509403914 0.5972747977815026 
7.483605587187762 8.917758034400796 4.972615498190635 1.9777942871967302 2.61815290835737 0.5890337992051097 
8.098131356566867 8.646731703873712 39.92058243936506 1.9792972947028962 1.944982838489672 0.40544366963285305 
8.7093015187819 5.999798216404454 27.75429827594286 1.9804331066758647 11.394926388329166 0.535481402137726 
5.956807491317905 5.315600320867896 7.99889195818573 1.9812755712496877 8.237906580426136 0.5758428215347002 
5.957214287901714 5.3148397030186025 27.842924286098523 1.981708169201195 8.240451597634811 0.5726065504962177 
6.221416154752344 8.822437691086582 37.38570817690038 1.981785039295033 3.91312723915852 0.34346815064761005 
5.157902286283225 6.269033928612117 34.27589936191269 1.9818262750303828 6.97473543872815 0.600869024847819 
8.560500621908368 5.778249286557905 4.102603832674447 1.9818771396765897 11.136058043636972 0.5887125625775993 
8.811873819972348 6.195922280619897 22.9291273275459 1.9822784159407845 11.627081704256202 0.4534357505059023 
8.915751098430455 6.490061313086013 0.5231051251903764 1.9824580034767565 11.94041463181642 0.24999424156023453 
8.29194333903192 5.496037421566669 10.2809222553161 1.9826802638339824 10.75029058951783 0.5140266147216499 
5.752782553365456 8.541599388238213 12.361946809234212 1.9829473096898007 4.463665840579512 0.6371896636000816 
5.095710855008031 6.44677802217392 10.0568835404299 1.983020853265049 6.790505518845084 0.5809688220712801 
5.3979551629993345 8.169921724547082 13.2817431550842 1.9837501106055941 4.980879585915492 0.6730254416046387 
6.21651015943765 5.177516421687761 13.16990654520103 1.9837597443950208 8.542810192098347 0.592169023965719 
8.73363083474287 6.034624176310757 14.709077103616181 1.984294925693996 11.459494992514166 0.5172030194149408 
8.984869126633182 6.97883844379915 18.895037495942802 1.984981929721886 12.450847338777372 0.42049561907182526 
5.786101409630048 5.429441045860482 30.404296121158332 1.984995016651168 8.047937639816668 0.6679503073323544 
8.970893365284896 7.240401799669035 37.278997690457345 1.9855008644188827 0.24099309229017685 0.4564568074582917 
8.178911579179003 5.402325990066366 34.62956866669207 1.9855464621961771 10.618893319185188 0.567219259674481 
8.5085423172138 5.707901804544409 6.229636941702459 1.9862572012517314 11.07322026792212 0.6617989747525 
5.493879326751674 5.702405160376241 37.3078469937984 1.9880019743964543 7.6592799392203315 0.5375303376281467 
8.374085201799993 5.562120113098215 11.329661393413744 1.9888712152782557 10.889277075039272 0.5376823196896449 
8.2223097182532 8.56942508675761 17.884128478517418 1.9892551747526883 1.8084320913016612 0.40982084644732847 
8.005947819882199 5.28320089322893 27.945899727056776 1.9898065708343826 10.43137974297901 0.7508856003115651 
6.478593073662939 8.920971924164592 10.525552032451877 1.9904769067389094 3.654195757683132 0.3215611075223994 
8.984332195192604 6.8373485527626805 29.575979506858438 1.990987130587809 12.346908173331878 0.366821892128184 
8.225201719362826 5.430360165781154 8.227186851811098 1.9912027677502357 10.70304302069635 0.5843332215349805 
8.34148982020978 5.528324223570804 35.627664167716304 1.9913373718822593 10.855860810676477 0.46675244578247904 
8.700681631642173 8.036255827149924 24.176562812832167 1.9915180520164166 1.0898438560876045 0.6201959539315722 
5.037545483793055 6.65722236000982 33.281794421514874 1.9921657156617933 6.603065112436406 0.4904608745793928 
8.980788240657816 7.21467160820329 24.693157992024467 1.9923869989780765 0.21508915370397297 0.5368213107132076 
6.885301708607489 8.989606547612908 3.021975706390098 1.992909910746722 3.2452172738856184 0.6043058206847242 
5.331478937729074 5.9083706322888325 28.49800871692571 1.9938949851211283 7.419182641042985 0.6513810376492992 
7.909841209087798 8.775073684540757 20.93205474786285 1.994667293385905 2.188443371530976 0.4621112050777129 
8.79723498520757 6.13310221716446 17.97185231280873 1.9953860172756603 11.64059607685992 0.5724459124625157 
5.621914910269577 8.443301953937219 36.25887082065306 1.9955548212906362 4.6557958824254175 0.535435988449316 
8.90970592576613 6.420023354311214 10.428554997742431 1.9958330672805995 11.951722966620325 0.2446387986466766 
5.948843850451649 5.303390425786226 24.726981191490644 1.9958490168465048 8.298159683059433 0.6005575104846954 
6.102303077650042 8.782915276913144 27.627652928498826 1.9961579719668614 4.066652073394263 0.4778213289004256 
8.843671985016726 7.765251638384203 4.062879565954432 1.996180467388967 0.7853558391204398 0.4537208709459269 
6.946111862122525 8.995595640770786 27.034273710790956 1.9963230933061076 3.1897116664368497 0.6453453783495798 
8.035788907291051 5.293385685768378 22.554614965766724 1.9963444287014886 10.49655082864904 0.7167966564432773 
5.175491320725358 7.810532082381229 29.131403439661106 1.9964453855083897 5.437385702406717 0.5624662223071899 
8.852048811621325 7.746887785528365 12.13607968867256 1.9969792599823006 0.7654975896404963 0.5022512960457899 
8.708700864946715 8.034382904235358 19.200994253695143 1.9973999695714526 1.0872905942056477 0.6039435037254542 
6.491756338246727 8.932002010925983 36.417475179910056 1.9977345644340283 3.651926533401536 0.3602765254886274 
6.959713608732812 5.0026424079406375 19.657264432448763 1.9977638358621133 9.373951163302353 0.3013415805776924 
6.408512828715855 5.091548657828282 11.142888620038896 1.9980099096928288 8.814913565639232 0.6133136661158258 
8.518883201932466 8.298992235161391 30.943671571979557 1.99859625940864 1.4140501622068236 0.5950062542005012 
6.115167787101502 5.206926441177844 34.41985667747216 1.9995101480937785 8.5058704190865 0.5600215937910541 
5.551974481144633 8.379964505808251 1.6600444508662378 2.0002699669162083 4.761156123261857 0.6278447837720653 
5.719006489183002 8.537170027278409 15.617060134674695 2.0009587870614367 4.533255574188093 0.5899474346231277 
8.775109544526119 7.923819647848216 6.181236166730223 2.001113849039608 0.9602493627760715 0.4661973020082657 
6.519818479700504 8.942705933953691 24.771672368840733 2.0011698174457924 3.628343201473081 0.33142565365504134 
7.595348349570699 8.910684883800688 14.924479115598693 2.001288680455922 2.5391182907261793 0.484774013156176 
8.451458041122287 8.378896340604275 11.076152960544626 2.0020203703435224 1.5210686329983858 0.6010941010220313 
8.917643202244932 6.419994406657359 1.981559516452542 2.0034375307019068 11.999539888861227 0.3053681673360792 
8.018319057612414 8.726699165293748 31.841462837175484 2.004610613192187 2.08068247048622 0.47605776170910424 
6.6605448551656306 5.024055403228179 5.008554015614532 2.004890731403156 9.106726693910568 0.5588741812001474 
8.692211421186643 8.076578985735221 36.52323429516106 2.005642492200741 1.1364175893582917 0.6504800687285509 
5.038756676666329 6.579760512761306 18.891562762161655 2.0057608531316844 6.724659963986797 0.6327265822375399 
8.109117151924387 5.327433741454183 15.642073658121824 2.0068928087764974 10.632386169428722 0.618651552066139 
8.617694395754256 8.18824418291374 22.724390336355356 2.0072018822936264 1.2716150136878213 0.6013186829543485 
6.11826266271235 5.1966057778011745 21.46673654363201 2.0074091393204374 8.546815059287495 0.6301026689948851 
8.874624372175429 6.279994970588346 8.323720190227903 2.008139382396601 11.881113026929183 0.18971114389874785 
6.415186074595605 5.078828872675496 32.29025200982288 2.0082096075390656 8.870052779539717 0.41683678888800785 
8.019009662428033 5.2691544464727365 3.407109654023486 2.008533550201937 10.533722759272834 0.5990863036086139 
5.0321287941520385 7.403016936697597 4.894391136192489 2.0087159416081257 5.90479627987955 0.2985960762153775 
6.134787591294451 8.814636073618804 35.3718626179984 2.0103473808913557 4.052276416145508 0.4828838813789332 
8.29739366150589 5.464314177230021 25.789457867541053 2.010363464444268 10.883854499390056 0.3925359855578474 
8.79211146827603 6.0886875577375665 2.9613972716573542 2.010510851039801 11.68659757085586 0.4678131270841741 
8.51688747840933 8.319704434873838 34.34749003419786 2.010613691781862 1.4395908391100498 0.6180516541715377 
5.029224994303551 6.600851298458155 6.759646553593797 2.0107893497381517 6.718898669440522 0.623642118846182 
4.988708870344492 6.979371774276975 11.147052779361928 2.011396910589107 6.339618345108747 0.5527416259771253 
7.957425681039712 8.769234914720949 36.254663798549814 2.0116799243870775 2.1620958146990965 0.4644652093880762 
5.447817520162163 5.71889970466979 25.55261306666798 2.012582524372777 7.71141805070469 0.483748756044637 
8.679022665544549 5.888701719526837 20.60256747195237 2.013479818521883 11.473833589591633 0.5794806477880763 
5.009784149358966 6.693604289066778 35.30523986045917 2.013662698621865 6.633698430019729 0.5499604717540205 
8.595899338236505 5.77187641929399 12.46046848618414 2.0137483028595846 11.33194458244921 0.6392847294099397 
5.735994915535766 8.567886512014304 0.256146532294629 2.013945621934171 4.529961175916629 0.5850338424275393 
7.0873677926772185 9.012100716115704 12.445041812745885 2.0139966293394367 3.0761832894397987 0.7154591521278518 
6.338764274811723 8.902807237832743 13.323655479016868 2.014424997018741 3.8379772398193897 0.2697689609406128 
7.291938482522438 8.993495823221606 35.304223407135574 2.0147589619553705 2.8718061298173048 0.6206664843384686 
5.0274565953920725 7.4119469416904185 18.29508701144792 2.015099939414997 5.9157515584690685 0.3137419385762304 
8.99066630919081 7.312891523194967 34.61230760226875 2.0151063147721584 0.3141626493673293 0.4818224801878253 
6.33539313964752 5.097358968909473 9.1354221623467 2.015377178598787 8.819957994109734 0.41982974328379186 
5.054253053520135 7.5312557900356065 14.008572184119728 2.0169689869162784 5.798896348802728 0.4298231303401827 
6.622288642772952 8.981395967488007 29.972934099513033 2.017076064345629 3.548370023024937 0.42078657255448726 
8.085303170957966 8.700325768139619 23.418027924817956 2.017173936647755 2.022612748409305 0.42712221211714296 
8.098628351591044 5.307626491335666 26.885370756616304 2.0176997665035494 10.669952374333132 0.4270721185705443 
8.776432657575118 7.957216393176116 0.18605113920099114 2.0179138262731846 0.997326079693071 0.3841772566917473 
5.331051571645567 5.865716070814349 16.96780004888646 2.017916967696039 7.5440290477798175 0.6335616425023051 
5.6673324474304 8.517622987806659 25.5308376698323 2.0196985762214763 4.6279278447841214 0.5500099513115295 
5.052557860370175 6.4644257841719295 12.171004807487229 2.0197451888458215 6.887274649244221 0.6853391478797616 
6.235522866965081 8.870268584121435 17.62231523641067 2.020477632562384 3.9577624952665644 0.4197790245765877 
7.097848598660542 9.018353504461345 21.643262558883716 2.020723933948235 3.0762588555459764 0.7135148712457082 
8.060170153685632 8.720336343097333 29.8295901172808 2.020771607121232 2.0581730122372406 0.45617453750071635 
5.916030135689258 8.706146033178495 19.6967467795954 2.0213671000747406 4.319239447786229 0.6380168932782746 
4.997507318198926 6.721497730414438 9.095571086084867 2.0217666667623075 6.63095797538063 0.6049588968352408 
5.057438483680986 7.561827839936525 38.467229256152635 2.022175997882323 5.783534125332466 0.47505145314742786 
7.309943741369347 5.001544839367611 23.841114150360575 2.0223471887567315 9.841256704811606 0.6861774565698665 
8.378513847183775 8.479945301473256 7.082126842373249 2.022507978285915 1.660211962116371 0.6302384061077965 
6.711633596230259 9.002708775720631 6.08689175651579 2.0233629489470055 3.4676427154786147 0.5024743314026535 
8.888868174136206 7.726723762291899 33.59838382307368 2.0238454501133085 0.7433233653453577 0.39564692837389787 
8.524030214765538 5.668336758706436 31.155765126932195 2.0238564879286245 11.262858788812032 0.616660165233424 
5.551900240583576 8.413929151872145 5.624798755803965 2.023904286209157 4.792874970151708 0.5539269104667365 
8.95815944356476 7.520874268840293 5.21872225723186 2.02625230668882 0.5267885625700259 0.4660840147330813 
4.977017759554805 6.86970457888849 39.382900138977554 2.027173905198882 6.498939949179826 0.6589672688890925 
5.095476925805011 6.304354381296243 30.470590022970036 2.027592406516376 7.079940476702262 0.5698316375449128 
8.206086042368817 5.369774699466497 13.429196866909084 2.0278752604872987 10.847810568678115 0.468167771345067 
7.314638594650029 9.003512766087045 29.217285242309472 2.028068255537051 2.8697675267424128 0.5436291269433962 
5.656398875007698 5.480678977816872 5.221530672191811 2.028201260114036 8.089058308013051 0.6862879039795106 
8.332179301262226 8.529709147817012 35.3515063496079 2.028475232194508 1.7329460249204054 0.5396657930169038 
6.252507328733115 5.114226300437119 23.6125732376912 2.028518607151724 8.793633722856836 0.46244452053044394 
8.559853575613825 5.702948586409562 29.85490332567207 2.0286659525047948 11.339263647762914 0.6257581082588074 
7.505505448082641 5.034419027457687 10.834562063761943 2.029542883917856 10.074879237151334 0.5890154939765442 
6.906226890227856 4.972277492401176 8.206280999858947 2.029889643290788 9.471823091294082 0.42503542336109046 
9.007265848964249 7.320028985231964 26.041766019451003 2.032617706261249 0.32136618113196747 0.45671875972993387 
8.111819990256027 8.701690065152189 16.872382263877206 2.0327057752096267 2.016568409644055 0.3282244774078744 
9.033113597246551 7.0034663531375845 38.4033438429925 2.0331165522204766 0.0034663548169397984 0.7177928858324726 
5.158758377289157 6.137385848296919 21.05882178412258 2.0332913927721434 7.27861562937343 0.5291923534252586 
8.81708383932092 6.085440708097806 5.168323691296507 2.034259663249973 11.833068690537283 0.10845509960375377 
8.250680100721251 8.605463093400957 14.22493956267757 2.035119765176654 1.8498885188143497 0.533554725831887 
8.81212524034789 6.072548322639884 28.84064576594129 2.0356729846770567 11.827544439537425 0.1302600030760785 
6.839181994521651 4.969236836822066 20.73963112291399 2.0371208741276194 9.438720443778367 0.34707533033478544 
5.488290095475058 8.366161772487658 31.663462498732805 2.0375634527654385 4.903857664720219 0.6449483966668386 
5.392826262586722 5.7454472358618975 12.87385232910492 2.0388501809199986 7.756579512202654 0.455651779450966 
5.134967487841607 6.17430327898669 19.957220149243604 2.0396375527284216 7.257806154395974 0.5503891664035563 
5.582903437588628 8.467882033110138 38.263543292244094 2.0403039798828204 4.771440390645067 0.6396720006057346 
6.619694348214649 4.995426744976747 1.9912289789669302 2.0403299545746028 9.232285437440536 0.4064481864505428 
8.134556293966407 8.696048247151285 28.61740782846251 2.0405385663700986 2.002218890913843 0.29034140982174356 
8.286143288816978 8.58528745404966 37.367402307909614 2.0413967941917126 1.8152165228028423 0.5084089539618948 
5.0447590308019095 6.409616697999107 5.660507357194703 2.042429849691825 7.01541295688507 0.6161167611411382 
6.43607815810293 8.963228327278959 5.099492389274829 2.0426143318794012 3.7798740177656267 0.28058272409954566 
5.815437257554134 5.335885539551104 20.274494213541125 2.0426614570863184 8.362184154568926 0.5727879405693659 
9.04171217065334 7.06662247823375 15.253879394319604 2.042798850205276 0.06663429416187583 0.6355622333159874 
7.0227996241168675 9.04271398118727 23.701198321499135 2.042841215512798 3.186087380080897 0.47638443265293523 
7.396904009826393 9.004958649073735 32.6455864667051 2.0438669177595337 2.8110567341821415 0.6078460127513782 
6.470379218793012 5.022993382487325 6.025030371199996 2.046717698554249 9.10921306234501 0.3942918586750309 
7.770948069402564 8.895991898115973 26.43175216827253 2.046740384962623 2.4245608479437557 0.6005615840926366 
8.787393845341224 7.997563996947882 17.12951481989723 2.046927132647939 1.0419863302043595 0.5527448463007272 
6.026548721771865 5.196975446974738 26.755531787690984 2.049025360969438 8.641424043196054 0.48060535679774447 
6.292406039661218 8.92530848836351 1.0828181328195399 2.0512196342840814 3.9444855413997892 0.4888793850044811 
5.003089288511093 7.469571662080872 19.422024073014086 2.0513775701924115 5.970820474126164 0.3702184038370587 
6.8814000409289395 9.04866333974058 25.711934722137926 2.0520934262086343 3.3420868995935145 0.4098248495471464 
8.943599240285675 7.661118155471579 30.18401286527724 2.0529625477180997 0.67311362280374 0.5058442224692934 
7.4409755648194 9.00519428304767 11.37347569206213 2.0531107036725653 2.780580275734918 0.6000323648259753 
4.963395608987414 6.735905880789442 37.3285001314541 2.0536560445442995 6.716578228818802 0.6684272566717192 
6.452702298332309 5.0203758296080245 33.33086782148752 2.0538857393367453 9.124717777963028 0.44286529356229154 
5.69591989109761 5.41154821340999 1.36918345005963 2.0551895311031196 8.272113765630092 0.38938685540536006 
5.138225127486532 7.870482107322568 16.27144137852956 2.0552237773759043 5.557810723638884 0.3950934010150163 
8.727271158090907 8.114184038418104 28.030249272211314 2.055449275715255 1.177547850127688 0.5348592893527047 
4.944667848038044 6.975419404309243 23.879457506142018 2.05547913163162 6.482059321137541 0.5154907908468117 
4.9705447966721135 7.3275839344956 34.25047006129804 2.0557236332868896 6.129259848487656 0.48937955120514604 
8.00590897299218 5.2068602659366245 18.828252095337426 2.0560162858846867 10.73984830825438 0.46514132640235245 
9.00028358820261 6.523337727024046 35.250871995814016 2.0562931103593463 12.43903288385189 0.5068384888838333 
6.478403254902833 8.990949437600102 2.0670351575013655 2.058140623858369 3.760267762622581 0.27274198255454174 
5.488860712730229 8.397508223300692 34.19149895587937 2.058293268638668 4.930108975720383 0.6326121987647494 
8.583541048768318 8.316417801185551 9.825492471468358 2.05926153764219 1.4281897023776757 0.517845506491813 
8.22543802251801 8.655347104676013 27.31244692649002 2.059580633039674 1.9226972004200888 0.2938051927111069 
8.036716480179447 5.219163809646927 24.629416013697423 2.0606209251453573 10.796790662900307 0.4445464882979911 
7.692585047274175 8.941209383180846 10.273353111075458 2.0610599013752924 2.5311754369792165 0.6156371783658927 
7.095774119445036 4.940983248372435 28.673512370384472 2.061242990391577 9.809187368339497 0.5739643228637075 
7.451289193167003 4.985238325807554 26.038343319547906 2.064685578887031 10.184563689042214 0.5930275538816994 
5.655680005896999 5.430996990328037 9.975913427880215 2.0661477901894574 8.272775264517469 0.2992300999289319 
7.400886956847552 4.972844180112929 4.19580310870451 2.0664150285633585 10.141196595797542 0.47804207240789237 
5.185654464565538 7.994035572688702 6.9063091392477105 2.0688055591866337 5.462436867290727 0.5219665811768509 
6.652728906927434 4.960485267920129 30.960963550989995 2.0688686653469905 9.400391022185955 0.43646741037952363 
6.664119766000487 9.041732812068638 33.38940937329769 2.0691757797416024 3.587626769772921 0.39272973279259066 
5.060145883653494 7.720922107832278 15.24971876150046 2.0694836743177807 5.765112521072108 0.46321149263657224 
4.955809107354325 6.6717519190408385 25.93126209629377 2.0703775520974186 6.833921950241422 0.4918096189306106 
8.633369554867173 5.726915345867118 16.839646168748608 2.070903338969645 11.640792638021 0.15886940545339623 
5.1145467051791105 7.85791635897872 39.45077687459749 2.071461948951572 5.623134853665576 0.5032761325724718 
5.284023046477774 5.839251943218546 17.9767195654791 2.0716932582651673 7.740525465105961 0.48498450963638495 
9.003470253579387 7.529182213212298 27.21749161380712 2.0721792566662067 0.5351097538008247 0.517217714853392 
9.071972859834037 7.052509514581676 32.56887403466003 2.072638121093607 0.052515133351787924 0.7139436279138911 
9.024584026241929 7.4480709684146245 10.165734389859153 2.0735737440587934 0.45163332628728625 0.38686334823627433 
8.972003244394863 6.357465508234776 31.745579805389376 2.0740413132365156 12.378302510471675 0.6309459948486505 
4.926341273457304 7.046236271135543 3.764489501578595 2.074174126474244 6.469970096817116 0.43697939885671216 
9.071694764080323 6.898570957147712 39.53519466983469 2.0741762331710745 12.930964121868866 0.8678770106422489 
5.304045458240152 5.803154540862151 15.909555953165452 2.0757410389484385 7.796769702426678 0.4847538294903137 
4.953845684487263 7.351947364741671 1.7569597729006503 2.076201924293493 6.168925617794894 0.30814677937557483 
9.071655834618014 7.139548823844471 22.336907667175467 2.0763505896989582 0.1396540951891705 0.6448481347396903 
7.751778823149314 5.064445963094293 30.739777299066986 2.07642501158066 10.554177343011272 0.3280392754890296 
7.449162049891209 4.972037995333826 6.271858046447292 2.0771077101181166 10.24087789246892 0.5388770083562656 
7.459057566793035 9.026799942734378 1.8044226445199527 2.078136631094796 2.8014539998028134 0.5813141323853718 
6.376809095208676 5.016953666000873 37.16049821405245 2.078662951659555 9.16254272194558 0.34037208125482293 
6.149431596649617 5.1032911723722965 15.25434799334252 2.078694538786034 8.919323779354198 0.37920919586347485 
4.994448237938153 7.5484434125686715 36.43842383072858 2.0791892764006237 5.976954565010633 0.43532881429350395 
5.191249562351231 8.026245358056677 3.636464089878473 2.0796051742163675 5.460014429860882 0.5600927078435993 
5.266296936969434 8.149805576707244 21.53557771264076 2.0803315060318246 5.317303200104218 0.6025625590968182 
5.825285780629118 8.71767973007808 3.081426299513936 2.0809558266126738 4.516989815927509 0.37316935173062105 
5.156164198115384 7.966151734961969 17.454219016808686 2.08162908302164 5.534921961258778 0.4077615286098564 
8.621766911885262 5.690537938260928 9.184758336169082 2.0844228955804036 11.68096148793851 0.223651276441097 
6.010586850232576 5.165123584762892 38.0833294726536 2.0846366206430504 8.792695272553964 0.4123446178677925 
8.892245490300338 7.876397063269884 21.68413749229761 2.085345249130234 0.9044914929583889 0.4706586929734419 
4.992169202318362 7.568934326067348 32.0539982829487 2.0868806337441983 5.979900264955571 0.42073485774602554 
8.905030817972564 6.147895982149045 7.2384150885611405 2.086917265888361 12.23473212531474 0.6372770882009761 
9.050416207682266 7.390875732781975 8.109092198671668 2.087340524017102 0.39319698383447843 0.587013328662712 
8.066196029206864 8.795436187001213 38.33760106546619 2.0881487193899617 2.1610688283367416 0.3707699994639368 
6.334015956765844 8.980367164654652 34.34339760957877 2.089351299491022 3.959756146343036 0.3325959424337036 
5.326800763667222 5.747779942281403 14.874141072246147 2.0898925229344605 7.908295656609658 0.33652086146475785 
8.764842186713553 5.87776668817947 19.126110468896208 2.091429068881742 11.956277929108795 0.3631768364070148 
7.420334709005395 9.050832066647398 39.15077171080479 2.0934644571102465 2.8651948190249836 0.4769138590994579 
8.519325415660388 5.555560815654221 0.9820736019532887 2.0963669230230453 11.57833731250818 0.3509913690732763 
9.09196995735431 7.153457217381572 13.072983077912504 2.097590860973484 0.1535944373189153 0.5113306310787086 
8.766307840454665 8.134276549887318 13.09271397196585 2.0991490368422867 1.1983071660322437 0.435436555886961 
6.017957229348831 5.14124155690855 17.76133319308463 2.1022347521511415 8.884744111229722 0.34923665040669855 
8.889935540907835 6.078030652405749 36.41574960583192 2.1028275789255657 12.258055111170329 0.551585551083375 
8.137485131203801 5.22921904163929 38.14304547173924 2.1046466749083104 11.119642088251156 0.47467554018998825 
5.125068251310838 6.037232062817614 3.3484146179970082 2.107674349397701 7.621303712746151 0.40274504853764126 
8.755572609181115 8.17089722470779 3.1138247347266343 2.110221670094259 1.2412447457379532 0.36415159881265496 
7.0832992662234915 4.890243181076205 38.40435730892721 2.111400625828464 10.033061932520663 0.40205181965671916 
5.864925889945178 8.782354995673234 20.796045745816848 2.1130978599956225 4.517516250208914 0.35891910647407615 
8.690612413879727 8.274376471976552 25.347359724512657 2.1171220385919307 1.3675041135690407 0.5075297337593839 
6.667640780536356 4.901231046636084 10.191530473840231 2.124922062186458 9.679729805531974 0.28712364620816094 
5.8723375904732755 5.197344767845234 4.089716172954901 2.126308631378468 8.831388369149202 0.35349202307618904 
7.212474327624626 9.11675845307531 6.977680242479536 2.1273955176612795 3.1288759006015248 0.3409688489414719 
4.952129802209299 6.4234857956692935 31.93339388341608 2.127472908122308 7.267467226076288 0.5322018856529783 
8.408850043618688 5.405805103221402 33.543015965941315 2.1275139986188814 11.565477475742778 0.25398051310060393 
4.95167335527548 7.582645136343158 24.930204271529774 2.129581507806816 6.100107167839198 0.36522928754871925 
7.156260844364384 4.87301272862271 13.54060880772613 2.132719462114621 10.206604682627841 0.45388225725490317 
4.865304412517498 7.004775415029821 27.926893607211 2.134700928890502 6.7015853368009 0.43911996416689314 
8.999137346547396 6.239986456541315 25.274763604769788 2.138731099647916 12.661050927368173 0.5558505016487527 
6.052318148545872 8.917929096320536 21.866360338393036 2.1392879446414956 4.34216979774768 0.2907236583182692 
8.945233805029506 6.107145477840316 13.476581415916222 2.140355987673677 12.527237216304407 0.42929144258012647 
7.692005682383085 4.972990066376337 1.17101184859699 2.1418779459762605 10.798009991766323 0.46381465301624 
6.843907513464238 9.137480456459492 4.031988181008572 2.143172313674102 3.522718015472215 0.13626247184110143 
8.5977244420024 8.43064152255192 2.1467434304454756 2.1446348310660137 1.5661869527489092 0.3582537741535332 
7.006934402349529 4.848261181768681 17.630327235021277 2.1517499919413186 10.14681736491977 0.35902482263758295 
8.858611918484561 8.08724149363963 15.094036362305893 2.153260859493012 1.1397176103220268 0.3292287534362122 
4.852663505042761 6.706872572496152 15.170487051141826 2.1672511878714604 7.102648992203886 0.42607809715306394 
4.834228911560185 7.223916447499768 30.079622244907952 2.1773155451111568 6.615925486031774 0.31162172805189886 
9.181397903260509 6.898065300989938 28.160043730057964 2.1837782614568755 13.619111734463399 1.0 
5.974477124236211 5.057483732993097 0.08398698600345256 2.1966034271805346 9.284260046304375 0.13377514508924776 
8.110904401945975 5.102603312911613 21.319366792572964 2.198686603051223 11.525669304993457 0.06600155408887026 
5.325555257161987 5.572104742085706 23.385121622840927 2.20060220494118 8.46722495956552 0.0 
5.72629252701636 8.816099313502004 8.661029186361183 2.2182307010851727 4.841116971030456 0.0 
7.529529847659971 9.22454886744595 16.11786415911827 2.2867049488768427 3.0575673007312503 0.0 
9.770720521316145 6.312744429315924 22.60004147875172 2.854682543940514 17.242425702319895 0.0 
4.536854147381254 8.45651110985208 32.29108467003843 2.8615576360429062 7.4617371381583695 0.0 
4.4187003362065695 8.39216451603182 34.35816216072968 2.932785364461266 7.763026028832069 0.0 
4.0535483653571625 7.162532478143941 39.67189652644899 2.950931046592084 9.108008529539877 0.0 
4.816569832680731 9.043360613161248 3.720339447999663 2.9904330607754024 7.1451041494627 0.0 
5.0061940841204855 9.23743385967105 21.40499547581362 2.996893776328855 6.888898618048302 0.0 
4.252319723965673 5.8003169953204825 15.226495091774453 2.9981638065697713 10.6532598280189 0.0 
4.168190334869079 6.004213449056623 23.777425251899913 3.001788939044283 10.44541676062503 0.0 
8.61519863212836 4.457221039371978 1.0699494884282927 3.0124062581003 15.900373871290132 0.0 
6.096887645700946 10.086181787834311 13.932055849809977 3.215607244681442 5.9664914018382404 0.0 
9.929594581639268 4.927926638172579 39.4539618261214 3.588316099449011 20.337080651029165 0.0 
4.182405694004563 4.709562400647066 11.20736650172553 3.631107554136553 13.88591211057835 0.42592778830185596 
7.02558859016437 10.662048806056271 37.99140404033963 3.6621382051862486 5.726884442534828 0.4210942492782337 
7.52635441940004 3.3621902607034855 39.71506699678022 3.6756915912712986 17.84945866788802 0.4106447931342056 
9.95619412303014 9.198636019982883 32.71325934457316 3.684166668515975 2.355957638468773 0.41067239512324716 
8.382012867470575 3.58014533206385 14.698862421908444 3.688545176036064 18.798439226061358 0.4108681916196785 
6.469704218530886 3.3381378555378216 24.6253116483333 3.700060537462743 16.903996277482353 0.2858764136276888 
10.719139115994807 6.97822496525194 4.060921509850537 3.719202860326511 23.346665607272353 0.3906374751562173 
4.079305106381732 9.32268415887827 26.502725214179158 3.7316645566706375 9.216295134684632 0.41040132967732373 
3.360974137085732 6.157299559086081 29.001532339037837 3.7353250546740164 12.58488750015286 0.47663673000664314 
6.500547766498954 3.284445051937107 27.55988198519067 3.748973340212468 17.165679069858452 0.43072149018673456 
8.123462650792522 10.578919148760932 24.630254358893907 3.7511105823600324 4.751255566126854 0.13146865808237038 
3.463361214377409 5.742244158835048 24.68528963763584 3.753633393920427 13.074954254329576 0.4451007498726042 
8.071990464789584 3.379786342107014 9.251938298010877 3.7755940572835303 18.879010247283194 0.535731671489275 
10.763347019054452 7.345069788962762 36.35720094338666 3.7791340205238604 0.3455510929105827 0.21201742920026115 
7.490518173176753 3.2447806471742595 34.30622746901168 3.7871203395262785 18.33828428705608 0.3533142148407575 
5.636548134814204 3.464834276132706 36.06471258696941 3.7889837270546294 16.460428209502407 0.38437943619471626 
5.593226338044698 3.474931888775309 19.300172001021053 3.795407399047478 16.444280160129015 0.40732448815596883 
3.683520342146002 8.863501033032966 10.148987299910623 3.804165272576142 10.003682996959018 0.2959797220545883 
10.158254844828562 4.870677185972575 34.64882299481606 3.8090142177761357 21.673212709541612 0.34780797166063443 
7.824483122916941 10.723814783255753 34.198263516145786 3.8139964551594647 5.159968127885417 0.534527925454359 
7.686006361922217 10.752589053418243 20.582982766958658 3.814777756623862 5.302480276196796 0.5531908411212665 
9.065097110622732 10.211943391937076 25.014051332244165 3.8185345918703697 3.8162357133133806 0.29467272791930593 
10.80224185280335 7.37265056824398 6.4760403729888765 3.820459599736927 0.3732440247000781 0.32536821123202475 
4.429856011022483 9.8304960021397 32.64662786292534 3.8232640168063328 8.824185721941294 0.6278698901329042 
10.303906920274084 8.924195204406399 7.790677979422597 3.823392227132285 2.016371991866585 0.47962924049999694 
6.704297178575455 10.814904070941239 7.934792833614374 3.8263472436623522 6.30641014872025 0.3712204679912901 
7.563488875577102 10.785922849647086 0.4989044725809535 3.8276274030238437 5.446878699221937 0.43656181684712086 
3.7363625237994214 4.979660665388579 8.961225853887456 3.8383721293067725 14.186233602329601 0.3314245292357992 
6.649013855230063 10.825023738853833 30.894626154315795 3.841093317873938 6.385051701217392 0.38770379178505815 
3.2464010971020567 6.162741304806833 17.20624431674719 3.845842800546222 12.92608905637044 0.4615437172265864 
10.833180460665588 6.684561261578727 23.6803041165403 3.8461375484666758 23.850201494797606 0.40859744000671866 
9.060807435329536 3.7522578626914047 2.02277561534887 3.846395231376946 20.30056576922881 0.3233697150206688 
3.223290881036233 7.732384824792884 6.054393932421107 3.8470663239475056 11.34903280844902 0.3455715857825712 
10.465148704904724 8.67125848707001 38.237400440464945 3.847123662907968 1.7288652529250115 0.4357375183277716 
10.066439481795264 9.325532751244339 29.616059942547395 3.8485261688889243 2.497093466653233 0.506773647419957 
10.71304657959703 8.012226016449361 19.39500954610537 3.84854731173129 1.0242754639790768 0.2901718100376965 
3.8547448393248445 4.780032887001111 27.532705502788502 3.8497901252601188 14.460621723555775 0.3390174569762118 
5.958356266121507 10.709050527510358 38.2222689908102 3.852541691397146 7.1063301683314535 0.3934714641225783 
3.273441870032382 7.993280049107492 0.34634833298427026 3.8566618664309607 11.111458237385886 0.35541767936862545 
10.715360937995328 8.041022908996704 1.6145160176405682 3.858449895571728 1.0540855139893743 0.3238575475205244 
3.6777340416121707 5.024877867382655 32.92326253248301 3.8650431481443372 14.215497326137573 0.43916099720036106 
10.399410665325457 8.842918962425639 11.017460335263806 3.8668259818094293 1.9209622246317082 0.494800898072675 
8.588969657768486 3.4726826591096103 7.215845509166343 3.8686938618421247 19.868211871111942 0.4476049297919646 
6.327963250612662 3.1891598679787947 34.16144983917487 3.8696428652203174 17.55980075054414 0.49873253045401417 
3.474949426445294 8.596877099515444 11.260271421530703 3.8698834629837666 10.511531704509327 0.33375868502077466 
3.8155747051393085 4.798998519549858 6.695920676809095 3.8710427504087725 14.502368322572543 0.5004980484625995 
7.908920400164783 3.237045610904521 23.029043880661863 3.8711706276330213 19.159947499524655 0.5042866925889041 
8.774169633857877 10.4408234270596 5.140747229283669 3.8712974241080467 4.238018197315476 0.43633417340774544 
6.244432888305997 10.798336885015447 8.856096030833776 3.872756738079799 6.843756401572037 0.3103480401445657 
10.383147464986209 5.113359721029486 26.292067231817498 3.8736414795482235 22.368270750296002 0.3779270654536498 
3.255074541206909 7.994073266839479 22.107329767690757 3.874615897319572 11.16714976643534 0.29096157542028206 
6.905760388862534 3.1261753862564454 16.43234279466723 3.8749707408382754 18.166120514900385 0.3983996347664796 
7.075316094122005 10.874549464264954 14.194833207951959 3.875281417532106 6.011956979638434 0.3787503153616918 
3.942040954981911 9.381399984442844 30.5289574069378 3.8758456376528096 9.611868793284508 0.40958294864242106 
3.8478372206116216 4.744371313815494 31.64282936275955 3.876079328096873 14.584521713530371 0.461122941183301 
8.371318430084223 10.625903538590213 21.566820260106688 3.8765565529022936 4.687620258368668 0.35135235781555635 
10.74994347678527 6.016315999060733 30.265904475134228 3.8768170311207966 23.364202585660305 0.3442885824008857 
3.3734380155695547 8.370341420565618 8.17904008484171 3.876826980384072 10.778799606155097 0.4254884343075704 
7.723654171710457 10.808891701467518 16.15467700865225 3.8770260966031813 5.362095016852752 0.43505151850466867 
7.751653007417129 3.195741888115627 27.260142858982164 3.877803763136715 19.0301609741056 0.5631414157891981 
9.71111984572357 4.226444126784383 7.558651584566249 3.8785026749668505 21.27903225165818 0.5156251583719468 
3.8221054532470085 9.22459811685432 29.544916657316683 3.8791559045485884 9.817567530304586 0.33389668114680127 
3.120014192906929 7.066896455514568 21.14772533004645 3.8805624591035865 12.124246743997737 0.40670989934644286 
10.881222488398127 6.927231184014509 11.565669042079868 3.881904597620516 24.317952853163966 0.37158449525507037 
3.118531579462431 6.869454503594465 13.699044561419278 3.883663119564076 12.331457618285008 0.6066367221447003 
4.3258899288374195 4.181518422599819 32.47921673439401 3.885190223764772 15.359204152604757 0.34701516448485703 
10.833660188680376 7.633062760685348 35.38634395741375 3.885578322623212 0.6358975266701385 0.3077687354765564 
4.842713627995847 10.23216029347508 4.485701922734471 3.885967659869516 8.391113639347648 0.32176260718937977 
9.43152862168417 10.032163181405272 12.46258928551186 3.8866881784803704 3.478160332312754 0.34653129292713614 
10.860717125789883 6.547594883626944 17.92748600353707 3.887133534455412 23.97014757337159 0.5117161031142299 
9.83948471559674 9.655527001916669 39.02883933300274 3.8877367590946807 2.9233192816558926 0.44534635106474413 
9.2360265451748 10.181922835946477 32.49917945592072 3.889016282383504 3.7266178758164337 0.5655962023129321 
5.83558051470893 3.2891662906471932 16.175407742596242 3.8892363718594734 17.145037587684754 0.3895890172731067 
6.628211185527263 10.871691730238814 20.057841457683878 3.8895017388563637 6.481972373385176 0.38536060313889975 
8.06717956909971 10.74092169883308 27.932448008192658 3.8901629001243685 5.029614101971401 0.5077940785195582 
7.161371849007036 10.889215609721601 9.912949198053887 3.892562001118815 5.953003985081345 0.4961795753522168 
4.335112250892941 4.160170723714332 9.037558849488477 3.894387889487907 15.416948631386703 0.29508693277816384 
10.450371782316008 5.192185272284318 1.4495660126012808 3.895286834874712 22.594858667835048 0.4833491359427946 
10.83736531532872 6.329957682387619 26.168934215833374 3.895424145157913 23.802280610960608 0.49525219034478485 
7.807351749419087 10.811212157832244 31.103048567229585 3.895786821593092 5.306242332793616 0.3898706211819816 
8.309418271996098 3.3306830234014217 17.89927568773288 3.8959547335398765 19.69466911399322 0.5372686693295525 
10.474403247095175 8.763356165979092 18.444011313236096 3.896267815682333 1.8298887312380003 0.49083447016257015 
6.118296009904878 10.795348249423872 24.07553613451544 3.896417618858954 7.009885982936506 0.24408559036693314 
4.947567313851433 10.312310352265206 14.794450539965275 3.8966498175861624 8.282447564280126 0.5542396938082456 
10.097388891440428 4.631221880682952 21.454578578606963 3.899349653900477 21.95451092953993 0.3507577120344901 
4.435523198286134 4.061619087934005 18.774859867775874 3.9000799544268787 15.580171224224237 0.6721379497957048 
10.632440160544714 8.419989524670546 20.439581683283656 3.900127147941741 1.453395703464139 0.4790592544068234 
4.794104935839638 10.21730936479428 31.342445852261612 3.9009040725042237 8.472042474249498 0.6220373589742442 
4.3102291617086355 4.1736751223213915 13.775708080532695 3.9016636806249254 15.418365591140375 0.3130898295404936 
5.632053732299749 10.65421862374969 23.029244629831098 3.9018701594843126 7.526686070760515 0.6052473233853363 
9.824189005982419 4.307104143018616 22.37260577547267 3.90227262477386 21.546711304022256 0.4431552760542846 
4.865807220247234 3.732695280109649 16.834447102542512 3.90257081342115 16.132329273575927 0.6116490300836385 
10.802071162277375 6.115330395071139 38.008655334974 3.9036374617664276 23.634854632734353 0.5046070214351502 
10.709664490719854 5.784687761460262 24.139375565795525 3.90366423643892 23.291592223771076 0.5285110909751155 
9.580932657871081 9.930184708423322 30.42013890416029 3.904765781701043 3.3139193020128452 0.4105040231512964 
9.725328606816047 9.797078111575479 18.64905538029818 3.905260807857079 3.117920654669227 0.40659909117021625 
