301

4.998021243198494 4.996158140727208 6.114909074078561 0.004321499872896428 0.018309211872635345 0.0 
4.998306459955671 4.995940154880485 10.261501426245239 0.0043989112603217695 0.018990941005753825 0.0 
5.001237288562198 5.009811917010279 26.701210319404076 0.009889620741097671 0.01429404065288864 0.0 
5.004200375899044 5.012474632474546 16.47267516544808 0.01316281174628764 0.016400953001353358 0.0 
5.006303767774478 4.98818734717409 3.0740909743701046 0.013389408311796247 0.06965959146779532 0.0 
4.985706236661596 5.000316833549336 18.499776151603882 0.014297274351156908 0.04459935258090031 0.0 
4.991566785613384 5.012162814842719 4.084992590002322 0.014800444918612543 0.03222134239341301 0.0 
5.011422627244058 5.010866678623865 28.765857947539217 0.015765821179724693 0.011989291212640474 0.0 
5.015203461185558 4.991731627403268 11.312194624706738 0.017306392386028602 0.10011882214813816 0.0 
5.007747250768589 4.9826622553333415 15.427203768753003 0.018989925871303992 0.09746796865456098 0.0 
5.014261842564683 5.014205329939338 19.53719715182043 0.02012937038322815 0.015769610042482007 0.0 
5.023271712455048 5.006590636188679 5.096713933016325 0.024186961073313862 0.00667504640041372 0.0 
5.020166036572954 4.985660972301275 7.218829153209391 0.024744226526738577 0.14017809069600773 0.0 
5.023461055201709 5.008341783684463 30.963245291802096 0.02489992904038063 0.008506272300904172 0.0 
4.9779338444789385 4.988304481430774 27.719126732654935 0.02497399395537081 0.09062980919529906 0.0 
4.972474796455179 5.000878738169494 20.540987686301413 0.02753922676754539 0.08563814514478096 0.0 
5.008108268222136 4.970534172429804 13.394502580796932 0.030561070137654855 0.15222218947780952 0.0 
4.972192060776612 5.013650478896112 17.482774153103513 0.030977686452426045 0.08318327294112215 0.0 
4.980109965141568 5.026049316829586 12.334961555243876 0.032774691363272934 0.07285535632274787 0.0 
4.973873140072063 4.978414643713065 31.974478886665285 0.033890122686822455 0.12987004733653862 0.0 
4.969619004589974 5.019578774785948 14.41801292025194 0.036143233173346445 0.09285684202704836 0.0 
5.019612561908746 5.031268463204697 1.0118418277118337 0.036910288210847186 0.03730131651169177 0.0 
5.036587116005803 4.992660904081202 2.058279427501631 0.037315940113139545 0.2270757139032593 0.0 
4.963213110057767 5.010386217631842 8.22126636479193 0.03822497597537455 0.10956884504164144 0.0 
5.003366500483014 4.951288220385783 29.949599900992215 0.048827971478304866 0.23346556808335261 0.0 
4.96469488915327 4.964875647991697 23.258028552775862 0.04980131480094818 0.19544148995648225 0.0 
5.056352683930552 4.986092422905683 9.240886701295608 0.058043481001840425 0.35065373470163586 0.0 
5.035324864037309 5.0485265330852895 33.04292211152669 0.06002224947910606 0.056514402559100674 0.0 
5.056350058638091 5.057238155550521 24.267403766374187 0.08032145142701164 0.06371230617916623 0.0 
5.064265244704219 4.936907747679828 37.31029939808899 0.09005916932620095 0.49595558589633093 0.0 
5.054867794271147 5.086659842835872 35.205012690375305 0.10256901680585129 0.10322187724501752 0.0 
4.918999283149296 4.9211764314813395 25.430047369783786 0.11302332097555845 0.44230201962049875 0.0 
4.838049237990924 5.067976039722896 39.44766949012403 0.1756382398332701 0.4819850270920103 0.0 
5.174532794726754 5.07165345719537 21.978730526228837 0.18866879541455628 0.07349841532497159 0.0 
5.823118808054852 3.329395641171959 38.542871125032235 1.862375766570456 9.62882791015077 0.8120181377620527 
3.1637964193457924 4.530965296667945 33.78785594695569 1.895161508298731 6.427785363332964 0.8206026068580808 
3.677437569550081 6.370588380455526 36.026997001951436 1.9046479703812176 4.453759779094584 0.0 
5.0229816648569985 3.08410368232492 21.17270745064838 1.9160341481822651 9.052080421872107 0.8868711627166563 
3.4180562807113057 3.9121270629300904 22.24543184949063 1.9198993354355982 7.1881089186080835 0.07314772616698859 
4.557915659322982 3.1267859703202587 22.135798276984755 1.9246738334743496 8.623744809506759 0.9999999999999999 
6.660620873098353 4.0240073765268045 34.63142787426082 1.9261939895150821 11.079156840620609 0.0 
3.0779138420534276 4.869120023449068 22.07908076699682 1.9265369881815897 6.183375308303349 1.0 
3.2722647199484216 4.132607549662009 0.5315556256195535 1.9332456804137046 6.972967852090587 0.9195527963427438 
6.9345603397360955 5.027309843455906 29.336844668651576 1.9347530942291897 0.027310750428625852 0.0 
4.494595349906571 6.871895739899142 25.17593323971451 1.9389243206965612 3.556965539598023 0.9999999999999999 
3.727456679863784 3.5345791337190446 36.668468534115185 1.9408309604277563 7.758122876544681 0.9801056999104325 
6.084047416768855 6.610674122644267 18.960261901030933 1.941501978149675 1.8995552099386277 0.0 
4.9588872706596065 6.942804926643237 26.08727208517182 1.9432398821306271 3.0935498659686615 1.0 
5.499802271104156 3.117739873147337 6.662321011341319 1.9474869692350392 9.6827741788643 0.9453619499042434 
5.838188673053479 3.241965997581011 11.825363734228318 1.947625170636403 10.044459038693775 0.9036858663960777 
5.607499370070941 6.850854365819839 18.015113993014808 1.9480034312369545 2.4421125174349836 1.0 
6.946978357047297 5.0737019788901625 17.95073449752251 1.948372835086478 0.07371956710897898 0.0 
3.3313124933984772 3.991199078279462 30.592205329856554 1.9499223816224625 7.186144934841579 0.2412060742645249 
3.082283162116804 4.644946688872598 35.10154473664478 1.9503078536588174 6.484117181682322 0.0 
6.736479951696539 4.110571473625591 25.152910569564334 1.951011462337566 11.335032840875883 0.0 
6.942556727091078 5.18358259109951 25.295737264585547 1.9512122400501728 0.1838545291179603 0.0 
5.031777134666286 6.951177733644114 19.009383689563016 1.9514364797646302 3.033530715175644 0.0 
6.949263869542559 5.09367465767507 34.531370214564475 1.9515134062041648 0.09371066763980274 0.0 
5.499722701148808 6.886727754164378 24.949029869235012 1.9517849257481263 2.560506513851937 0.0 
3.8308528927962398 6.563261382277327 29.330558517289568 1.952099154142161 4.319889006623496 0.0 
6.904790206340118 5.430589321997942 38.762802278289726 1.952852501953967 0.4341569267598482 0.0 
6.522427471219553 6.224338745482613 27.273430582720295 1.9536608633060921 1.3232100141428678 0.0 
5.867585224963462 6.750920203731922 22.959163400351862 1.9540792415896384 2.170499846073615 0.0 
3.4572297822685654 6.199553241293345 2.445939135755623 1.954243568088806 4.847897158989291 0.0 
4.365528775571733 3.1512589983242867 34.66997833159333 1.9545835939924476 8.564580592325543 0.0 
3.7519181167313542 3.495438421586429 38.677403092445154 1.9548437100141125 7.85827300124315 0.0 
6.242273973715845 3.490523750330979 16.90667983571217 1.9549330357039365 10.558569781748579 0.0 
5.165185400434496 6.948917159117566 21.02567079513782 1.9559049848138301 2.90694596543635 0.0 
3.1170312496105677 5.529503846420035 38.38156261823708 1.9560024637808489 5.608768845810838 0.0 
5.931337125859683 3.279773981794957 3.6049273264124793 1.9561611374613685 10.188877674742642 0.0 
6.63118524920556 6.080095558667296 23.016700103079785 1.9563669730085433 1.144223913305657 0.0 
5.553100461400122 6.877680367043226 15.905163612484287 1.9574482575998322 2.5140143019617796 0.0 
6.039997466676796 3.3410878971511977 31.51011985080831 1.9579540586214967 10.323047359261182 0.0 
4.5363022343414565 3.097199411148009 15.939407269240391 1.958485562574362 8.76100269749409 0.0 
4.7963627594170815 3.0515490315605778 3.6758127205970297 1.95906337369794 9.02786290840865 0.0 
5.717720932071448 6.822963918788243 34.35391919696775 1.9591632871042937 2.3426170695792887 0.0 
6.8419516955838295 4.332012328914306 14.76828350893917 1.9593349835050249 11.62920934611122 0.0 
5.867284230167992 6.75699924579723 29.252866621703888 1.9593948774124426 2.179372922217121 0.0 
4.4610040975838405 6.883825215229321 6.870511085105711 1.9594167561688365 3.62388053832211 0.0 
3.2183905869905054 5.815807163181789 5.645728280887887 1.9595084659227069 5.314548936855827 0.0 
3.407570446816057 6.142003783687427 13.86871825836645 1.959592948499768 4.9371004638681555 0.0 
6.956132688786073 4.882026868034677 32.439100025005835 1.9596869025441628 12.195031447780181 0.0 
4.464140086891593 3.1148426660385926 11.85483187400854 1.9598377535564089 8.692746065504327 0.0 
3.342203564544774 3.9539774941849677 4.746866483851029 1.9602173614371459 7.261575521165961 0.0 
6.940250133879257 4.716287733831235 20.955443089025174 1.9608832785235049 12.035881422472624 0.0 
3.183085994495772 4.26166437918088 15.000068820777813 1.9612026902815975 6.918292640769289 0.0 
3.1445449765939983 5.63688003099058 10.87019640028295 1.9617159625585796 5.514277976441383 0.0 
4.417850727956264 6.873406232035331 27.267559513055936 1.9617718229115912 3.6725945658545474 0.0 
3.3177337225117887 6.009762980352456 9.726834909669773 1.9620502299544518 5.103286630587412 0.0 
3.1211267603018955 4.434228719815301 26.29254286871735 1.962208396765105 6.738378804774834 0.0 
4.118455543893965 3.246858579544747 6.700746963190532 1.962301064619582 8.332861058994386 0.0 
5.603417244070248 6.867378960564641 9.680094454316965 1.9624516689082616 2.469257431537592 0.0 
4.343798710943981 6.849974498363791 20.0738401053329 1.9629074803350077 3.7524106142619864 0.0 
5.670812721322202 3.1547570059921686 9.822221986058764 1.9633928323243621 9.936871626750076 0.0 
3.652947131764515 3.5715762838198506 5.709395305973402 1.9634015745046547 7.767806070233634 0.0 
4.729737474142286 3.0550301112354976 1.443326964593446 1.963657225964754 8.982393543491309 0.0 
5.689958437605411 3.1610820841493945 17.936885614230178 1.9640931105370847 9.96057076131524 0.0 
3.1599262754550566 4.312734548525843 17.0073652461141 1.9642314304965884 6.872937334148531 0.0 
3.7259804913890493 6.495054888363717 12.890522902042967 1.964259358522071 4.471716063388024 0.0 
6.9468671797542205 4.738279714151945 6.497946526362902 1.9643801372515812 12.08006357796981 0.0 
6.718933224324307 5.951486247478241 32.20406210822203 1.9647029059952497 0.9932587607949408 0.0 
6.048132868329366 6.662148505325648 30.30487877898327 1.9650242144636862 1.9811136674412708 0.0 
4.941647065952366 3.0351335794621175 31.4235003868623 1.9657327171996999 9.204935687325799 0.0 
3.1621502068839016 4.302542215664606 19.216796804280357 1.9657413927032523 6.888547024310688 0.0 
6.599077753422417 3.8559102886752763 17.96010958737649 1.9662123306117214 11.132995211790192 0.0 
4.490052143340912 3.1009545001927643 27.094619852213263 1.9663215980223867 8.750227777841454 0.0 
3.34642473214383 6.064552524934471 31.265795483045444 1.9666172085105844 5.053412763897425 0.0 
6.86837101431915 5.614422702934435 10.648864483698105 1.9668059144280665 0.624882636073357 0.0 
3.0333789496795456 4.972339383594813 24.126993913140623 1.9668155646281213 6.2065948571037595 0.0 
4.129479511781388 3.2362396976103343 30.55044993962703 1.9668900133698515 8.366967409401028 0.0 
3.9441762435173553 3.340092090913033 18.982778381333144 1.967246316911685 8.155939934169847 0.0 
6.459695524809066 3.6809378921081093 4.630408969848858 1.9673931660000765 10.915794089845916 0.0 
3.4961897748060276 3.730959138929835 34.63225076661013 1.9677169258975364 7.561001729753613 0.0 
4.930581662715366 6.966836822132707 14.89333351497833 1.9680614803527987 3.1608564840102122 0.0 
3.034245536788851 5.101746831349875 0.37345337884175933 1.9683858939050263 6.082074468132339 0.0 
3.932350594108528 3.346196051955989 8.764701940655225 1.9684874275611655 8.147831153365725 0.0 
5.074100033456358 6.9672486299983305 3.4562817254103706 1.9686436922888146 3.0182207387470505 0.0 
3.5752126392329453 6.358767606773092 38.044483036694665 1.9688241243486997 4.68561994512738 0.0 
3.038616696176075 5.171547990459401 6.774498587999865 1.9688710413711485 6.013625008435494 0.0 
4.621023860839564 3.0670213489802194 36.716263429862664 1.9697790178979975 8.901010947367764 0.0 
3.1374424061894706 4.358007677191913 38.4336290436456 1.9700951583123574 6.843170999170454 0.0 
6.970056409651982 4.978115328505287 23.069433941526228 1.9701779605044034 12.357108092403543 0.0 
3.44547104188484 6.2110821076926 6.7921031265585725 1.9706040071997624 4.886598869654277 0.0 
4.754985526303996 3.043951302497214 38.775953709305135 1.971334218067266 9.044043929247488 0.0 
3.6532222977504736 3.5601711274265737 26.290210566445573 1.9715266575860904 7.807976413615657 0.0 
6.249052423955525 3.4728614484901836 35.59770097408492 1.9728872530625454 10.64955056082089 0.0 
3.414272057290069 6.174212034012395 21.765378821358397 1.97314647431725 4.9411677377759435 0.0 
6.570939189696012 6.194420896343093 34.2956971327415 1.9734465321725339 1.2828883282974477 0.0 
4.575410321936501 3.0725808665867964 9.59446996878139 1.973631401899902 8.87258393892205 0.0 
5.193529359064548 3.035838249005428 28.126333590864355 1.973672971109954 9.4945555951003 0.0 
3.0273556222248503 4.933569661477889 20.02457422042604 1.9737626075706445 6.267200994548713 0.0 
3.79287765357659 6.561701571238339 3.4243191516742257 1.973842991943141 4.399353418643605 0.0 
6.878166905357381 5.607626711262495 12.7756633372299 1.9740114347742266 0.617655832685239 0.0 
5.410676818520547 6.9309015455290295 7.611361368543143 1.9740912410009213 2.6871970278593302 0.0 
3.0909481008355657 5.502772450548121 19.01673064812409 1.9741477378183967 5.693595481783879 0.0 
3.208644932194198 4.170356146628657 10.659072401120177 1.9741483992826832 7.058208159575003 0.0 
6.618128003102339 3.868469045399608 11.78813147483752 1.9745127337251691 11.201292404989461 0.0 
3.3896628516933225 6.143078343187892 11.742492943133293 1.9747946297986705 4.984963303028236 0.0 
5.706410989941774 3.15472421427319 19.955578865264542 1.9758692295038676 10.03346205366085 0.0 
6.1692917407272345 6.593065074146906 28.306952662510575 1.9761324615014086 1.85286419624539 0.0 
6.408370952190562 6.386267953685148 7.697811611192122 1.9761699264963413 1.536450887766284 0.0 
3.8361758475769756 6.597163999011705 14.916203665653633 1.976213424077023 4.34868437706805 0.0 
4.890062846775151 3.026556497185834 5.767239146983602 1.976503335807614 9.204058619587485 0.0 
3.6323171065804605 3.572880538225945 3.6920715850953627 1.9766705479484215 7.804398257803838 0.0 
3.2703278600709664 4.042778092282226 2.555884192444097 1.9768761954815333 7.209770140908832 0.0 
6.836599592493397 5.731596691206737 21.01660713442719 1.9769501212047713 0.749416637456001 0.0 
6.878924480949977 5.6154464441331795 8.40755289120306 1.977152379233656 0.625845498765651 0.0 
5.160439387632285 6.970705873756578 5.520299893584301 1.977225945096438 2.945203277030128 0.0 
5.874622548507959 3.226714419787272 29.422657854239752 1.9772471649616679 10.223552388192907 0.0 
3.351637968945883 3.9079114141338325 6.757183242365599 1.977310007257339 7.368891904406778 0.0 
3.3637097327408076 3.8898859014522253 24.32903845841234 1.9773212057027287 7.390628196013523 0.0 
3.2604089239248717 5.940230899000248 23.76101955042138 1.9774254108297067 5.232426615542176 0.0 
3.3698409755901073 6.119831748620864 24.78925614937878 1.9777364814565848 5.02282050843186 0.0 
4.3266287421540754 3.139743683906797 32.54840678263474 1.978378733321217 8.63578881857751 0.0 
6.573957322697169 3.7995448998432595 20.078430430078257 1.9795034986491862 11.147784741587445 0.0 
6.117851822453406 3.3657952508442293 24.599702545248327 1.9799540042954733 10.518147343752958 0.0 
6.351262605723306 6.447261092159166 5.573449521494929 1.9800190146824042 1.622997782542269 0.0 
6.641909709449372 3.8933681810427156 32.37868572979191 1.980025625266711 11.266601958511089 0.0 
3.4687191153382075 6.255829208746413 4.514860072691576 1.980385858682909 4.861263379122866 0.0 
6.68364426855942 3.9571444985004574 38.73033402354063 1.9804559121729641 11.345280175034102 0.0 
6.843047141140569 4.274802139807876 33.59005976493513 1.9805894831826365 11.701945085401867 0.0 
3.658917629722361 6.458033425193485 8.82623139941775 1.9810006039501695 4.584901786682238 0.0 
6.575059577739627 3.7977845466911164 15.937901065400283 1.9814476196972801 11.158002015711862 0.0 
3.8470317980787074 6.612120694926891 19.174412679839072 1.9819860770583582 4.34380499155656 0.0 
5.744448596568948 6.836957007749214 2.662959325191629 1.9820733491100737 2.3502674923794853 0.0 
3.0953312531420627 5.548646180050398 8.822420393646183 1.9821139387384565 5.671089257431422 0.0 
6.858300960309481 5.690439575821995 16.949427301428194 1.9824200531038823 0.7052198534834933 0.0 
6.956023609324226 4.676121092631308 39.59184642599423 1.9826562755233461 12.132059832508077 0.0 
5.134295817747691 3.0216151427700675 2.4903893489010116 1.9829377221640658 9.478772564918662 0.0 
5.77974433413778 6.823485544801989 36.3792280367155 1.9832046688937024 2.3138353457697907 0.0 
6.7089989985013725 3.9936683867772738 36.63624329217648 1.9832752942166512 11.405836222034498 0.0 
5.685184333911626 6.861189988197354 11.759668427610343 1.983306769918358 2.415768112445594 0.0 
6.662921455531557 3.9185983026313176 29.31270749169385 1.9836172509683052 11.319705407157935 0.0 
3.306982101887484 3.965976216418661 28.49753138850918 1.9838131939124677 7.320042009295937 0.0 
6.545329925967388 3.755491550411066 9.764403223893979 1.9841486489647433 11.121549418442452 0.0 
6.9811791541674895 4.890642654221943 2.673391306016782 1.984195018132904 12.357652199370424 0.0 
4.428639310271747 6.900241230873646 9.62584042507845 1.9842806689777854 3.6964668565709005 0.0 
6.937926802728236 5.426564521874277 3.6017574855308894 1.984317914058712 0.42992012191248463 0.0 
6.895943314682053 5.5862651134983645 18.98656563955501 1.9845170283453892 0.5951460035565574 0.0 
3.015478197656937 5.024662206105298 2.38347932624184 1.9846750384848744 6.210377679821802 0.0 
3.5807254490317435 3.6122344595107405 9.813745777597504 1.9850021275544238 7.772804423773781 0.0 
4.678493580919967 3.0411109837037626 26.080676973008806 1.9850976186766507 9.031623294243966 0.0 
3.8902883864722044 3.354026372583731 16.85438967322343 1.9851168850595016 8.177075010207611 0.0 
5.469116216658896 6.92894280147831 6.503732186630245 1.9851675889222442 2.6446981106626435 0.0 
3.0199953887440136 4.8567875571824795 15.828426180050911 1.985177086401294 6.379954705630237 0.0 
6.3222270473425946 3.5187492270864924 10.791047569242927 1.985544816160335 10.803595814347272 0.0 
3.0245389291407774 5.201387801216625 4.693774801313019 1.98569974793752 6.036525091332116 0.0 
6.977420608721988 5.18379994188522 13.74041697396504 1.9859442797912157 0.18406335055593992 0.0 
5.522658558037617 6.916053662149662 38.6504711599159 1.986059818969985 2.5908079731841926 0.0 
3.2707503718881163 5.976803290185875 29.9832737181977 1.9860636807622851 5.218191183590617 0.0 
5.918722534363304 6.760833293035083 14.797404203583142 1.9860979283529068 2.164642247562133 0.0 
3.4519238599194226 3.755548714026564 32.59854223002824 1.9862524357814448 7.584879600905149 0.0 
3.8618562628749906 6.627957138615019 22.880750774890878 1.9863573725602561 4.332114448789161 0.0 
4.025078940147446 6.730688233760799 31.7830007351969 1.9863919138533814 4.139251390133111 0.0 
3.0136989319061422 5.02917451607533 28.21675650003302 1.9865153121733108 6.211646346030692 0.0 
6.749407561243836 4.058774210646917 27.233163027166732 1.986537893391526 11.501224166628491 0.0 
5.953783641664743 6.742758001429546 32.332425703228374 1.9866828349421992 2.1258314837705896 0.0 
4.560468216240074 6.937562792926964 34.18358208618279 1.9867908207635023 3.5640420622124402 0.0 
6.9853299545335705 4.9231834835677555 1.594592292401451 1.9868154935889366 12.406694250035544 0.0 
5.600221914805404 3.1059435439623195 39.517612967060224 1.9868860575460003 9.972727829725757 0.0 
6.941923018841338 4.579605969825933 0.6427254557692592 1.9869061758703783 12.06050410339545 0.0 
6.133859150184802 3.367963475095867 33.508606800987344 1.9872543347742277 10.571365351462397 0.0 
3.0175367007653495 4.86169170087694 9.861649110671252 1.9872820429970808 6.38165086412941 0.0 
6.971887857348671 5.248957277704187 11.68596640174487 1.9875415588311627 0.24961293221885406 0.0 
4.111863864708778 3.2217730686880346 28.401327603484596 1.9876812657096694 8.446017777626366 0.0 
3.019681028698124 4.827863488107863 32.81347036914982 1.987786257831689 6.417167089251519 0.0 
6.574684152338153 6.213309386871164 36.304506821798164 1.9879008647049312 1.3050541561801605 0.0 
3.883739564709715 3.354631723883572 37.677816710686635 1.9882842159622947 8.184353439573608 0.0 
5.655197403974923 3.1224737190865595 15.89201665037762 1.9885644504758015 10.03856072062535 0.0 
3.0842432144636325 5.533348304901616 21.050202661349374 1.9886137070004481 5.707455496536781 0.0 
3.1522422050861474 5.735400535241708 33.38133833118823 1.988723916459673 5.494476076906494 0.0 
4.926025634051903 6.987467486977017 10.531903555974004 1.9888436888323227 3.1980597941127726 0.0 
6.613199552829852 3.836687326869602 13.925992618534792 1.9888964710904957 11.254019774937824 0.0 
4.4770913475943255 6.919065678174747 4.48200948495851 1.9890315572934056 3.6534909588939986 0.0 
4.5825910231128075 6.944752336410487 38.24320970479056 1.9890429618185885 3.5449164074101454 0.0 
4.3632173722427945 6.88448578899071 11.902938688595505 1.9891653535896185 3.7727670214502655 0.0 
6.572286447727886 6.2186659033444185 25.058396930674732 1.9892790798887534 1.3116654718439786 0.0 
3.372683110680616 6.14415114545895 15.902282498098735 1.9892818055567554 5.030486872283305 0.0 
6.776882834570751 4.105080064518252 31.31307300518411 1.9895211229627203 11.57229860537983 0.0 
3.0818790910415546 5.529170538363366 35.69446221311858 1.9897761884330982 5.715450666873171 0.0 
3.487595939137843 6.293207886879862 27.292994103312353 1.9899127322575263 4.843773669839955 0.0 
3.107509183265736 5.615292923033107 26.020097755983237 1.9900017267726546 5.6262308051003895 0.0 
3.010206267941024 4.969261066424727 17.964283542197975 1.9900311500523131 6.2826073974752 0.0 
6.945518718967702 4.581434833887953 28.367080334695295 1.990035146457503 12.082045174935033 0.0 
4.980835987281194 6.989970298343415 16.944750591489935 1.9900625738082869 3.1451472899541173 0.0 
6.989893607782046 5.02857104850272 27.3117966729083 1.9900987098896368 0.028572030066067455 0.0 
5.176408191505193 3.0176430965263963 33.6446578172987 1.9901906297587642 9.555192406557182 0.0 
6.946724638063943 4.586018212396568 18.832284216100668 1.990255696364797 12.088118689396502 0.0 
5.077107983094252 3.0110737556617195 12.827991778485597 1.990420369287463 9.45676229736064 0.0 
6.211516124803064 6.57925969648057 20.982299041920072 1.9904352563159995 1.8240635856275134 0.0 
6.029218432295208 6.703763246623988 1.5398235989654339 1.9905023943524716 2.044998965273244 0.0 
3.4761760162862787 6.2813587930588115 0.34740781586146596 1.9909595399932885 4.862749287192674 0.0 
4.596675581008486 3.0502204311117653 18.002073615443905 1.9910577475826343 8.976503637656554 0.0 
3.413732854298561 3.795891105205439 11.872343092528887 1.991512412227242 7.549588102004998 0.0 
4.924420967656034 6.990083385373542 12.830129210585433 1.991518031771208 3.2038663951256865 0.0 
6.255102669518249 6.5462591816388835 3.5471242830860774 1.9915321156924337 1.7703928829885562 0.0 
3.1493014046452554 5.735802101758094 15.00173942810143 1.991604886467106 5.503150025677995 0.0 
3.1527945584441275 4.255374043825646 36.03064167561019 1.9916414732381413 7.020091474202751 0.0 
6.305605712972531 6.504953490190538 0.5558487652036845 1.9923582221536358 1.7058725181371326 0.0 
5.76831197282337 3.1617318577466422 1.60092648750053 1.9923687034300037 10.177570637904639 0.0 
3.933113098048497 3.3173404031213876 21.103717833909094 1.9923832413778666 8.263030345796109 0.0 
5.640437591912273 3.1133234869411135 27.05251399804544 1.9924127519322987 10.041036807242909 0.0 
6.925889185034513 4.489311398338718 26.17674049116473 1.9924487448613701 12.002472313503182 0.0 
6.931859174442402 4.512071675289673 10.694339153898596 1.99252450924246 12.02645939298779 0.0 
6.331213339613329 3.517407512935386 12.793594802436559 1.9925384408499904 10.84745944900196 0.0 
4.87339472592906 3.01132115039841 14.959409027365076 1.9927048106218048 9.263709585380436 0.0 
4.820235504750632 6.984766152635712 23.05082199563266 1.992890351825866 3.3104340140747723 0.0 
5.597198347312332 6.901518559968124 13.854069567098477 1.99309274744951 2.524226701222556 0.0 
5.7335422388858 3.14678149193123 22.059556638089568 1.9931139091577854 10.143529354751715 0.0 
4.689560864320022 6.968954055967504 36.18618802644837 1.9932768326232593 3.442739959894542 0.0 
6.7920384506524565 4.125821585525803 23.569466587358647 1.9938880883714305 11.623042223867856 0.0 
6.910116811120454 5.572105473864397 5.7845804917242845 1.9939535865587694 0.5802609545725055 0.0 
6.860032948686606 4.281248380323925 3.5024767694000474 1.9940728324178072 11.79382700324342 0.0 
6.79813914506376 5.8621448155843865 30.14267796934078 1.9941409348513133 0.8915506598138654 0.0 
6.993835714587283 5.040675895460435 36.7051458553632 1.9942505823580172 0.04067871632333109 0.0 
5.014058397003297 6.994582283094616 32.044541825949906 1.9946318263181382 3.119101832688809 0.0 
6.831171415348966 4.208247370551602 5.637572261504339 1.9950090171800197 11.720846833980321 0.0 
5.876394493712943 3.207750283270258 7.661319257363711 1.9950504644565283 10.308806596922114 0.0 
3.6773788047199156 6.4937574930981175 33.89888415147338 1.9951536969343717 4.579884192534946 0.0 
3.1097277493075826 5.638822417117538 7.75411939699131 1.9953002937777735 5.618148158592165 0.0 
3.1086058767722173 5.635874431017692 12.873096112081477 1.9954217652924058 5.621642179641594 0.0 
5.282087863735237 3.024601743449429 30.45656616865717 1.995437755193017 9.686314866045368 0.0 
3.6289706810529285 3.550075734379207 29.415641215678292 1.9954953694379909 7.892086412386352 0.0 
6.250049002931705 6.5556285890013 8.829750668753952 1.995645964756455 1.783878507737274 0.0 
6.6257963209995925 6.157414407634536 15.93411793518888 1.9957008263704794 1.234684337002415 0.0 
3.4761842523329296 3.711151340537704 20.015982029871967 1.995781876818184 7.671077770072808 0.0 
5.104713300526237 3.006953963716681 0.39580729022878103 1.9957949238465735 9.50972340853222 0.0 
5.0670819899929205 3.0051010897618156 19.012088374432693 1.9960264666208483 9.473147750258386 0.0 
4.09915868818241 6.7816151807686715 28.266273894171206 1.99641371499562 4.070566239314477 0.0 
3.3358690988987627 3.8970691210369566 13.980714518487275 1.9964438834513256 7.44052785736754 0.0 
3.8666246957991453 3.3563877196525365 14.657713706243445 1.9964971595976218 8.203011201478372 0.0 
6.6607399377917345 3.891872535685752 1.457896911045225 1.9964978382517766 11.36961494275405 0.0 
5.356941952940895 3.035548757739133 4.650916178475448 1.9966161977179113 9.7677033049414 0.0 
6.647006538721298 6.129013024128708 13.853670557732585 1.9968227130226057 1.1999384408649156 0.0 
6.531744358337518 3.7183380062434566 22.647934845865787 1.9972226329427603 11.157371716231118 0.0 
3.753175649924769 3.439430265201546 7.759481356784995 1.997485633767972 8.066417889388763 0.0 
6.594293419945158 3.796590729481501 6.739135819281827 1.9974897699989094 11.259060118130531 0.0 
3.0053365123675686 5.1085462312447945 30.810333877142316 1.9976147559555675 6.167092123897035 0.0 
4.023534084810547 6.742785368688523 1.4169675548348977 1.997695303303675 4.158214150479253 0.0 
3.233868168330737 5.933649944961411 37.117079053580596 1.997729678050028 5.304562692108046 0.0 
4.108176145006445 3.2123358540298916 24.11889333676524 1.99777198076322 8.489812670279274 0.0 
3.026438547104221 5.310935521323683 27.038390127021067 1.9979053297834035 5.964400112483537 0.0 
6.021338030704885 6.7171482255795585 16.869794389240987 1.9979312804936906 2.06629744869789 0.0 
6.878552467876093 5.680293729303933 37.711830796624675 1.9979386709039932 0.694176372875372 0.0 
3.1313099780561506 4.293054888197882 12.78493235255631 1.997942388862456 6.999316732628163 0.0 
3.4072136950945744 6.206854019505711 17.972166258198428 1.9983655415092036 4.982288590576953 0.0 
5.72444136424149 3.137438846614213 36.513597072661405 1.9984867626096163 10.158972738139292 0.0 
6.4993138310850265 6.321761763839085 38.49171016991654 1.9987486396317748 1.4441825339367345 0.0 
6.533151661907551 6.282704994588203 11.566551385320121 1.9989712658143457 1.3926633498712313 0.0 
3.9047662448779485 3.327669109127049 0.7661920042851378 1.9990566742658065 8.261235001251256 0.0 
4.33139640424171 6.883946731653316 0.3231712878965176 1.9990712983703527 3.8218753362931928 0.0 
3.8566936439083968 6.640033811084702 16.947812806835792 1.9992149272603164 4.357467353982409 0.0 
4.065750931236685 3.2324267632299453 2.767170712913696 1.9992839892898886 8.449301775927998 0.0 
6.969261303530056 4.654751419294129 8.671984458709446 1.9992965423018945 12.21496274344118 0.0 
5.140351766946951 6.9944433453495005 30.016031367751253 1.9993756216114176 3.000144589714008 0.0 
5.613827411858153 6.902975440674454 26.965410091137365 1.9995248483973918 2.516944224115557 0.0 
6.994902141186656 4.8613513088152684 30.35332790926838 1.9997144827395592 12.425816638126536 0.0 
6.484553411379085 3.660139570384419 8.767083283782249 1.9997811885521193 11.09672938563469 0.0 
4.458105977715491 3.074958135685277 13.856670998183837 1.9998588227052392 8.875358262546781 0.0 
6.998086861648125 5.084659113204429 15.76194151398186 1.9998795644086713 0.08468441857248621 0.0 
5.156669870983003 3.00625583041945 24.130392265488823 1.9998903125447318 9.581091634058941 0.0 
