84

3.849969729270791 5.3670184284394145 13.300933697573097 1.0836329212966174 2.3992987582648215 0.0 
3.500685420606448 5.051267165244476 1.8369510179967499 1.1412822245462309 3.010117206170901 0.0 
4.1446164368471825 3.3929193441325713 27.307946069696243 1.162723120762226 5.118040271972067 0.0 
4.85282096884389 3.3896081485821536 17.748791528610298 1.165097721116599 5.848842581783638 0.0 
4.868237728084768 3.3630100514446655 1.7001866710365583 1.1951339537896535 6.006264152983418 0.0 
3.616415619898909 3.676369572557417 25.397846049864413 1.2079273313274606 4.701116983266848 0.333653069372331 
4.536782821517738 5.748838796328337 26.353086426386895 1.2493803724941468 1.9257339626229122 0.34265967848030227 
4.765311503164758 3.278681899520712 36.816712331185784 1.2498032230194795 6.156904628314923 0.6542580486762657 
5.761142548497791 4.399284465512271 16.279388973487357 1.2651577555857008 7.8483984049058755 0.28469748303918296 
3.5330968251103165 5.352040650256382 5.125701412146771 1.2887494012805856 3.1178181702075305 0.24795205185685842 
4.386578891897363 5.79333839585185 22.321856359976945 1.2983021812921154 2.1529341742212154 0.16316523932959381 
3.4182213338387886 3.780167581459767 29.17007066679329 1.2993859293308558 4.845057536410865 0.314369765845662 
5.538604543523958 5.282908864402442 2.1056957615534984 1.3006328028265823 0.840123019281168 0.21185563712872812 
5.45834148757034 3.601185140813473 3.8042320324081977 1.3138822465856776 7.265543809512023 0.6352947249912618 
5.836253627549514 4.388752876163573 5.88065985412263 1.3408764595223195 8.313600122888854 0.18592575295936628 
5.178342274049745 5.665967550887635 14.809237612032621 1.3489360883621915 1.4081246938854663 0.5199443644453386 
3.1570928416833297 4.363781266393803 31.41385097355096 1.3497981994518407 4.376967124935934 0.5214777445729383 
4.489307815802945 3.1394343263095603 21.289827525511125 1.360607686009315 6.401020371928885 0.237257413529659 
4.913564757193409 3.1859941660664814 7.292426151736866 1.3775511387980366 6.911600402944489 0.37455726579021614 
4.8230293138300695 3.160832392590442 23.35227802176453 1.377576792171153 6.817743098898964 0.4108145471001105 
3.1261147435288974 4.701182683841975 20.932441779348316 1.388537061164205 4.16032452173709 0.32424452771254875 
5.804824117554589 4.982606592245907 12.91381862203226 1.3912135352386847 0.49285089002684757 0.28755024303299004 
3.372509354357425 5.32479484788409 19.013346547074224 1.3969687530892207 3.5064147343466505 0.48746463968166476 
3.1639246787135176 4.087830845341038 37.9211143455019 1.3982062352182028 4.8109792852999655 0.4039731490406391 
4.572466436137888 3.1008009405302284 39.3128237080503 1.4010743707553925 6.674906210551967 0.32061963983677527 
4.442988041903055 5.9122207164579725 5.946734858781028 1.4133710465971459 2.2771454787026064 0.1950972831876959 
5.915134769260327 4.370575013660088 27.111046947134902 1.4210409009801799 8.79905871955385 0.33642180027646784 
5.888943930256472 4.185253543838427 38.24223381565049 1.4241596023840035 8.63089201741472 0.1638242207193932 
5.068025785188698 5.809248932533083 28.32857735336384 1.4271601381688939 1.6575728078685144 0.5801388452476905 
4.59370305650189 5.927663885198406 11.531019846174182 1.4307356261369906 2.1536240929098316 0.321079077484147 
3.785279554604938 5.743616491258432 24.361355265744933 1.434366512574679 3.0012880138003695 0.7771875436962336 
5.887393759645096 4.866200223158304 33.51506042378311 1.434909072988022 0.3702966294677674 0.1568614851962363 
3.6381224897481887 3.349146891176262 19.35012638453705 1.437809347850794 5.851294874306664 0.468317181972613 
4.904271772917332 5.879839291818924 20.374664907589512 1.4378428765428692 1.8487610699313546 0.7236132576675016 
4.948940433371139 5.866456883539145 9.433428053517595 1.4383156563449409 1.802731425900502 0.6790555657503962 
5.499761792609547 3.464237622291569 28.85337330541723 1.4395580380929678 7.888926089814813 0.7155445933104687 
3.6172088382083034 5.638725022867903 29.88193062002582 1.44083826748287 3.2134433731350054 0.7559553889694639 
3.1713562921436242 3.940167431924876 11.982536408892507 1.441772037009987 5.104410965384133 0.5131122919803262 
4.440105869540886 5.941304871922539 30.419708113350865 1.44254880010733 2.325861708654048 0.31731128300081685 
4.129044682335223 5.894297015094369 38.20079519521058 1.4428000603010935 2.6415139058836026 0.5164445579168873 
5.339502978675384 5.673786979762665 25.6437878816334 1.443101217886397 1.3708534545814208 0.5945003148402965 
4.137917985030503 5.897733600849731 16.789145236160316 1.4438707021436268 2.634015416097796 0.5130545382773485 
4.56879168608704 3.055766924027859 30.738056783068103 1.4458704899840273 6.882321830237533 0.19869154997886704 
3.153744643279264 5.038020244604825 9.996152286677457 1.4497824902735965 4.003421968916683 0.2616324048354624 
3.052104261802997 4.38986255568887 23.041546399193464 1.4520786222957873 4.6720828531984715 0.5964643684175461 
4.148746504567985 3.089990593642936 33.68607374354589 1.4531020418637524 6.492814622425638 0.5918895908489844 
3.1298290166481584 4.9859459719941395 33.775962681178214 1.453792286166316 4.07174029331654 0.3498446377464524 
5.651292697619119 5.38869085984833 7.609312145162541 1.4543886413091491 0.9560784198971497 0.7119151637505317 
4.960820411854474 3.119999175926365 12.44604499358713 1.4549081505117911 7.324988690432976 0.5069612397116984 
3.963099132467873 3.1473227753446587 1.2737509863496115 1.455334399943198 6.308209542158822 0.7094087558346734 
5.602324731912032 3.5459356401659416 14.35912041504129 1.457860973238019 8.119935795349306 0.3965565316730104 
4.940425757295192 3.109595766966872 33.021794360307425 1.4584919536718346 7.320391322128994 0.5000782642993767 
5.248545010216073 5.75210806675185 4.046712821836579 1.4587989042854541 1.5054448213709923 0.5228831366863611 
5.902052519878577 4.927828719902047 23.85664363514097 1.465874715680332 0.4341479377706339 0.31589274010943397 
4.144714323790211 3.0765589991902544 15.904270439313088 1.4671101507746773 6.554740442787636 0.4667443763025623 
3.563348683476902 3.3648359452130947 13.881239997871631 1.4717041550613004 5.919952109188918 0.5524229846057361 
3.4654346083649656 5.547279015615471 36.28970418014016 1.472113747683059 3.4595963556197784 0.4523515565676271 
5.870825845933389 3.9606115262238895 19.70432892250536 1.473127090756773 8.703698596724129 0.5642921881723818 
3.197649175552205 5.190950116155124 27.762912021572724 1.4742895688956865 3.91248741515607 0.3507491486282108 
4.676412000985484 5.964512141426251 34.68702032598601 1.4750989819251472 2.140244807641227 0.506467976427978 
5.97395878587313 4.438848869847018 21.688510939836625 1.4752267497478404 9.207954382706989 0.7360482587453414 
5.469483745573579 5.611951966519678 18.43612106463643 1.4752409663435844 1.2594702500259825 0.4585990236135739 
5.623613208424378 5.456659721366178 36.421999867208214 1.4757047349080847 1.040835562643748 0.5699696848626116 
3.592825967316699 5.664148707901232 7.858115387158527 1.4758749742722075 3.2952777207021047 0.5679918471571351 
5.97588960925884 4.5076446614037256 10.969907570240423 1.4759094076420112 0.007644695586661143 0.9517491812982396 
3.084774679531141 4.922897565519925 15.211279094766553 1.4770595988716446 4.211420128327884 0.620765176311165 
5.977398831982801 4.484946073511468 0.2773017221110621 1.4774755258368468 9.268198328684914 0.5124070609073668 
3.343900249787544 3.577904544459475 8.568014189472812 1.4787922983197437 5.641390520648482 0.47745307056506814 
5.6216321430327705 3.5340270681845087 35.01843010874974 1.4802575347838978 8.248310208237058 0.6008968236564687 
3.0219390371267627 4.400796968347043 25.91837853283728 1.4813863275523025 4.753189731310247 0.3795610614096016 
3.992709916835918 3.1075244981473773 5.0798467065678565 1.4820024466026813 6.466013476924463 0.4122262667679777 
3.293292548188572 3.6370088765843 35.441638012940686 1.4835418947072305 5.581710718218687 0.5250358865028826 
5.983834558065831 4.41312514677257 29.447832151872063 1.4863755366103495 9.25224854090922 0.6113342978184999 
4.527347116394915 5.986674777384197 0.2815558076563178 1.4869262787661885 2.3083096785546964 0.41627438869869143 
4.285400399381678 3.0284889053156885 10.420841818609723 1.4870769618162207 6.792333569592158 0.41580953958430794 
3.020323981278847 4.315771614928119 17.313226598218392 1.491100673410309 4.869131265940027 0.6162788799708154 
3.087451891471251 4.01739997108889 6.626736965212366 1.4927139534462552 5.180928490073162 0.36665655617578075 
5.618780901244816 3.510178585668802 25.257586876431986 1.4937928695969782 8.303800091557054 0.6861099811850321 
3.320625539495464 3.581247980331904 3.2539321839094697 1.4950014688068263 5.686099204098299 0.34201205804541956 
3.0115634464722367 4.659512194505245 39.92809350992606 1.4969594229883068 4.54302111526129 0.47829902272989233 
5.879784900516906 3.917430277267327 9.05551816325108 1.4977295662232448 8.812151878967766 0.8499822318193582 
3.4377156445651185 5.556517593562106 2.8590385738137343 1.4982247752950717 3.5341866820800343 0.27525491277016034 
4.57058506624468 5.996902012864686 32.47430964756491 1.4985652764211221 2.2833296396055793 0.2327393327711631 
5.9328324667583985 4.940116341971168 31.441782246284085 1.498903356546725 0.4466992592751673 0.0 
