226

4.693160123304361 3.2469701108513522 19.907839721667912 1.2678307206937491 6.168426827487721 0.49144804252674074 
3.317550678417815 3.9592395764356967 17.173314450083524 1.3002339150336035 4.642510004893968 0.4406312173192757 
5.811913225030535 4.422025722286183 23.477229672959858 1.3142284040436092 8.179520501389371 0.353214715746485 
5.816868610949962 4.348279855840587 13.448704766722635 1.32557985072535 8.176810471015676 0.3245871701722279 
3.4646518587589643 3.6399131988584834 35.70280801088522 1.3459922284579195 5.161594871155019 0.5137227081356566 
4.282492071844746 3.1657687101777565 5.546761111079185 1.3518442342041923 6.1519583693432764 0.38326084640878055 
3.9310805634921717 5.726600762868835 7.860302283645673 1.3521163990969125 2.7111037802790463 0.5791225590180812 
5.851035696842518 4.601943283970065 6.08219606864899 1.3548763365301473 0.10203971882383289 0.7063415231269851 
3.1728542136028635 4.781396785597807 15.21008389955518 1.3566503194620392 3.978588032391504 0.43064604809988916 
5.31872441823979 5.601284163074991 20.652383993518875 1.3722742003192616 1.278294284184101 0.5322418261660745 
3.5759896329958325 5.517241777985309 5.774445525767732 1.3742547046344389 3.1720614894382138 0.61253206276166 
5.8609483330801515 4.292280968280248 35.09369171178677 1.376708960329752 8.44160217343109 0.4114942572442659 
5.474399269285622 3.520887479979022 12.89144912115534 1.3813454538406318 7.59101050245711 0.6664274464524671 
3.6964132122270366 3.3750998710300477 4.747206934772329 1.3824442215293478 5.657084050574369 0.4548661367709593 
3.7374248036462125 5.655867382011006 15.617317825741324 1.3847564171690951 2.982751699474636 0.6903259947301535 
3.1524749656845836 4.168053904362126 18.13773180014954 1.3878083183624428 4.695124023255474 0.6563768183843819 
4.717934704098231 5.873834163062019 31.63792645803536 1.3910125243313587 1.966161073471297 0.7537111836150028 
3.8254180722336892 5.716644058103607 23.435147599190714 1.3911446874382722 2.8894884692442973 0.6055676618503333 
4.201582555974224 3.1407629698884865 21.939707786807467 1.3916099578995702 6.257054215718989 0.5223966752998882 
3.311611381233596 5.227445427795268 25.314053522947162 1.3933572261389977 3.612004839551708 0.7338650766861806 
3.1293727528423263 4.2475120070302 3.0511552788482703 1.3936890748100677 4.6322933026583994 0.5447141713439773 
5.689001330456705 5.237709933765357 24.092066061789847 1.3992641316791843 0.7770353055710162 0.5912465954722842 
3.109796623459978 4.32822505768984 13.032234169543205 1.4007755205417245 4.572874484410098 0.5983258040037247 
3.1688366508176777 4.937104208407812 1.0878233284979473 1.4010909860584049 3.957132718380308 0.6187007219915658 
3.485125500053755 5.468072561137346 31.878409647037145 1.4025458046952217 3.337767737207587 0.6289014025247892 
3.803808612594813 3.2810323235853263 36.62300062223507 1.403768016461746 5.886654151890763 0.5908785828063263 
3.4995817007249395 3.5135855433573058 20.080868681701062 1.4049378113632325 5.50727558958732 0.4732900756105069 
3.644379898291583 5.615646433490883 27.531293157935366 1.4059703848262406 3.1283451296821596 0.5182537907959783 
5.5954136740038996 5.38305086233794 27.000270596076028 1.4070216567880172 0.954622508971946 0.5758092488885456 
5.287567962053704 3.3323353469449737 17.419625161835697 1.4084402851550153 7.472877413140706 0.6383484424762352 
3.2277236454302995 5.105389206821118 17.7645249700291 1.4089652991229662 3.800636102887 0.5881228321166474 
3.5779941772176764 3.433894354085533 31.14716601867751 1.4094949398615144 5.637056606628629 0.4642526040676179 
5.7089638997822325 5.225239727616173 15.254807319879475 1.4098107580414632 0.7617703663102127 0.511580150954285 
4.274186569484033 3.107965965612869 6.662502239611534 1.4102306401059015 6.418765612037101 0.5393847157794638 
5.820544241455726 3.9981937395639644 2.9417081938032084 1.4126735704523796 8.363082153929753 0.5240320531289633 
3.7578195283760367 3.297428079898287 8.974365679170347 1.4131564228623417 5.87794864873682 0.5561091840338276 
5.122122215046894 3.230349472281161 26.1695634718155 1.4138771208954404 7.306917636091614 0.8088390174258011 
5.784695766549826 3.907109429729709 4.0666715759509415 1.4149072198934032 8.278349080728209 0.5234952021544057 
5.534805380098795 5.467687709326833 6.678855157108671 1.4167715685542317 1.065261547323531 0.6912076211823635 
4.337454032091782 3.091885843519112 34.561499571872524 1.4174648741203795 6.516741511968586 0.43532102422560537 
5.914075867606582 4.623091541407949 36.548795466724705 1.4194231528735517 0.1232463458512818 0.6279344947567987 
4.731920990961018 3.0982136544224144 20.965279827462815 1.4208421111073886 6.928524102978784 0.5828485596686164 
3.1132707995329163 4.813370758183931 7.667641365352445 1.42169585619177 4.150423833532969 0.6122469385645388 
3.8115033930791844 5.74489664184819 37.782129548973074 1.4226015698804697 2.9532955115977373 0.5669696715067394 
5.91613338028609 4.63711737095604 11.15829166624276 1.4227561014377712 0.13733052163885517 0.6609603189810572 
5.224845855724452 5.725225822110716 10.949265700319977 1.4235799344356448 1.4756471230395505 0.7627250738358762 
5.914815092370721 4.3323976077247375 8.315871776639966 1.4247077972329496 8.783711700261861 0.5963311818949233 
3.235351029869471 5.163953170638476 9.819225151399564 1.4283454870769519 3.7967393128331466 0.6587316378765186 
3.442553414322677 3.5382300454406446 6.107148093962643 1.4294036263609131 5.54557603559029 0.41560455366520394 
5.74648506274685 3.798984048302704 9.294723640053476 1.430086842183048 8.252854166944132 0.568164113550623 
3.143052527806966 4.955936246129364 29.760872564401808 1.4314972241767014 4.033161500371204 0.6553903652632433 
4.287925453101333 3.0815485032562666 14.504821158908527 1.4342176480774502 6.545736358357043 0.5511747332672484 
5.712870410699984 3.733183116151138 35.91024711763875 1.4349434715371974 8.207017877957362 0.407038015516099 
4.662460395900167 3.07271007841185 2.493758259237964 1.4365061435660993 6.932184444668941 0.6572262721568184 
3.211677849568498 5.135764121159516 3.6949396807123094 1.4366523521876076 3.854786545577226 0.5897182420636792 
3.9525562645139676 3.170629242905198 0.49942238748538514 1.437679120437418 6.21328407798196 0.634907198131094 
4.31968324343333 3.0729384802508743 15.655279906464816 1.4384083960570462 6.597547474557661 0.6057325184994025 
3.294097139874279 5.285673291169479 32.964504163885664 1.4392651696322245 3.6904883587938224 0.5778965502043638 
5.883940029255948 4.896905762167869 30.097477389870985 1.4397305958473656 0.4021133636235703 0.6875785894695011 
3.062599611890227 4.607455016082058 14.009602162080213 1.4414112724060824 4.420772268603127 0.49533513228191955 
5.809594526510396 5.102565371162774 16.599279303326156 1.4415695787545328 0.6216544825202339 0.5234467129675157 
4.070891441008982 3.123734889997044 1.5906497867202773 1.441610144390916 6.357715797950145 0.6097556646305903 
4.348242782186361 5.935051117143983 12.813647164057013 1.4430530004039133 2.4187806972048245 0.779787152818701 
5.4828638012133055 5.557378347937311 19.47909477626839 1.4436309162739995 1.186526516649268 0.6187293941927927 
4.534827338296195 3.056709695990265 28.294479122347262 1.4437104436628942 6.83815590268477 0.6774411518908339 
4.48391599546994 5.944329412580262 35.69428321095705 1.444418965275025 2.2849723419432024 0.8402671617037953 
3.0529774214942 4.483592710510594 11.894112970316634 1.447115593812037 4.562655359447122 0.6243298356575924 
5.810523205285816 5.114165110710834 34.40146378309568 1.447297431355098 0.6342742208888072 0.5868664157285167 
5.842334972100694 3.953960957311809 29.662156557789785 1.4491452009596606 8.545384966095185 0.6515251368705679 
5.942405369617034 4.3574591205226065 31.057424140320208 1.4494313204226845 8.964273932451967 0.7269787744840218 
4.817806425623382 5.914276007301935 7.337629533869844 1.4495439106827384 1.9565290296643774 0.70891073980732 
4.157648513709287 5.909590454539094 17.96753668368028 1.4505687814416768 2.6241602660744228 0.7139989683220704 
3.1665358906575145 5.0742869341971595 38.29304130882231 1.4518718998913496 3.9707633515579275 0.6324564413601662 
5.068662447265478 5.836200814597289 26.09550818381731 1.452174092820973 1.6967683978289791 0.6336090495229352 
3.2055233951261615 3.8411781852653695 24.65040051010741 1.4524860977427405 5.246922056661446 0.6123590295012932 
4.820098078956106 3.0831427232001314 18.422172854903785 1.4525657723394598 7.167802080631149 0.7699633383577102 
4.995730908776598 3.134632010952629 33.662023857960165 1.4525766346157907 7.351002345806296 0.9463244832820191 
5.429179992607115 5.61751743843206 21.873880488923135 1.4533480945255701 1.2748186863950073 0.6293498374964694 
3.598527572478239 5.640191210936148 13.433202853974727 1.4535090419663779 3.2555685773135172 0.6891318615130819 
3.0464154566609922 4.49632532824587 36.31612250424773 1.4535891881293606 4.570259790432893 0.6388941006187614 
4.196914352092676 5.921750099002294 29.43758335629559 1.4536967544781918 2.5887870908667967 0.5399435783487913 
3.317925924455201 3.653415098494272 38.646693373979325 1.4539618686652525 5.471402897419811 0.4872804575439479 
5.347679219048697 3.3181567313804887 39.066141789593956 1.4544117608119982 7.7587046101469515 0.7508214926819735 
4.58134625914915 5.952156958816834 27.056017136186334 1.4544335828485682 2.2032302000132784 0.9090957890574163 
5.775221288551506 3.800362210991059 10.60579582452668 1.4545385421446482 8.409249654076177 0.5088198075281276 
5.716690731228493 5.297275840771187 22.811389227537877 1.4546426027498027 0.8438085276938114 0.7232770046421239 
3.9579066729241728 5.850105452811404 9.298144891782336 1.4548710970292955 2.840798347219023 0.695180535403163 
4.419075481860922 5.952767029548342 36.90739878147061 1.4550191819281135 2.366505083418554 0.8533096609946232 
5.319292608987377 3.297394238466607 37.97004772689147 1.4551635635950526 7.727543955594069 0.6425931536899145 
5.6086005540069035 3.5569023205812673 11.595807180868881 1.4554821954491288 8.119085972869104 0.6464156187600187 
3.0548445421253483 4.320801999571017 20.72304135602967 1.4562232729848268 4.754513711053512 0.6899659288099397 
5.779236839823721 3.801915608400913 18.304949656394484 1.4573155835838878 8.428598193069625 0.6202520945191506 
3.042412476374089 4.479943007063538 39.14345964829843 1.4577255132553484 4.5996373892249345 0.7719441799993214 
3.9201576231597155 5.838234377061896 16.783791511219334 1.4584541233545982 2.8872533820148796 0.664506974445083 
4.359717039321979 3.04771914469576 38.53104771419656 1.459040435265524 6.735066067433793 0.5368343143967845 
4.763028738248126 5.935409037586368 34.638068220911194 1.459309159269901 2.0278033204586627 0.8770590194296399 
5.0204995924098075 3.136452515979748 29.597948673368325 1.4595141543941046 7.410014808765684 0.8102940288003476 
5.851027324843011 5.054785309317202 10.247272108289486 1.4605004525527017 0.5690761979277053 0.5825160527099179 
5.851073549704536 5.0554107030618045 9.023620095975286 1.4607808821951398 0.5697464236827017 0.5784487340979995 
3.2704129359463696 3.7093735070718896 26.86494342006066 1.4618394574671414 5.427857220703055 0.5184977455295543 
5.742325731039587 5.272371009884795 38.490823180351654 1.4628500261180233 0.8136850056634435 0.7851917212205147 
5.049570239028063 3.1437831600552135 25.052386589895733 1.4633357661778055 7.459192819640485 0.7849064126336576 
4.797639579650433 5.933077421043457 30.394152650141592 1.4636598696688563 1.9993814743143332 0.829347248768806 
4.180211306032781 5.92879128831979 3.879268886616458 1.4641411661338468 2.62225500867945 0.6230483521302898 
5.099672599040821 3.1636391747268693 8.645729323832327 1.464741438399642 7.520262141411475 0.7226905669358444 
5.1025724617218495 5.835320079927007 4.492145242735454 1.464982350570069 1.6801847636217966 0.6739427193870425 
3.1292110760259773 3.9814855677292407 9.638529271619461 1.4655782103193706 5.134240288583253 0.7554131018147422 
5.8918916281903675 4.041060360138383 16.95126976377881 1.4656015480555262 8.74185441968304 0.8236873873563215 
5.953156820576516 4.698187926940838 4.839741655769217 1.4666094229798037 0.1987961243530254 0.7433791387056622 
3.1807319069789015 3.858607149749382 39.93140746167636 1.4669195920759046 5.272281817004362 0.6972965399189015 
3.2041972420569858 5.188532609397786 37.18370727673468 1.467372461816304 3.893197419158213 0.511992982700431 
4.626678248908477 3.0372438505093537 4.527674234889233 1.4682312255292813 7.04571259426338 0.6233991892523342 
5.7763820975609805 5.225903626959829 2.552014497326212 1.4683621265231546 0.7592924773295042 0.8395342833785832 
5.968482494836888 4.471701062367191 22.207738837700425 1.4687551421232583 9.200160040011976 0.6449241278592465 
4.874835633210334 5.921765525936101 38.91703247406308 1.4703465450921915 1.9305957198068668 0.8005346628828781 
4.651685261994397 3.0372788016120538 10.81144068751992 1.470565103257853 7.081830319576933 0.6294072939661242 
5.188023164094379 3.2001476469706347 16.351094892742772 1.4707113972518249 7.646534035526788 0.7219988820506216 
5.156521685975819 5.816045635814558 18.41480358993917 1.4707130378503743 1.6296407075023716 0.7460397956167891 
5.754707330933111 3.7281171525106123 37.078107181683976 1.4731237614489894 8.443461946227874 0.5321322111583444 
5.972285942730151 4.446448401089073 1.8350327024113824 1.473259539560742 9.20319929415706 0.5889230721092786 
5.036112730444172 3.127134904743171 9.72503180960274 1.473830190191137 7.493961675027055 0.7465315772215377 
3.162189149297662 3.8811617750678327 30.18050004707171 1.4740076732819656 5.269363453979487 0.7486222841894361 
3.0840413403488105 4.909644323466253 30.912345858870296 1.47402421879334 4.2156741435622695 0.49874866265247125 
3.4254569200346205 5.509586172503939 19.838665933515443 1.4744175359824756 3.519953376666466 0.6525980936215217 
4.856138452773357 5.930830336486396 14.996031218304992 1.4744863679782094 1.9564223527829014 0.6722402393321774 
5.701317223681529 5.354981734977305 1.4208126076779308 1.474502234334929 0.9120350535390074 0.7390577645570893 
5.801951226793338 3.806662799586789 39.911618745874804 1.4750571075133014 8.546256921012297 0.556142235775828 
5.912707988900549 4.924329614334246 0.5020458150636671 1.475059145764833 0.43041141497303137 0.617877517213901 
3.0400965280646846 4.714587052639077 6.3265395468667265 1.4755899669383474 4.4203518983252685 0.4787046101351566 
5.276143647370781 3.2445942850793568 3.447481919720957 1.4759547657057226 7.772545065012636 0.7068026949067453 
3.2947203562627427 3.6469990235618672 15.13463576116699 1.4765871750126442 5.548248719753939 0.5562346288810309 
4.860248008293536 5.931978835388464 16.051473828239352 1.476598121521211 1.9555138492948094 0.6443122646719556 
3.500642812987695 3.412943198966892 28.22778433370552 1.4766202206070052 5.860705281611988 0.6725510726797098 
4.239583806116249 5.953713642673021 20.289838661285252 1.4768547487585097 2.5816229607852765 0.623504013883122 
5.049446519154385 5.871516143225412 3.3205115859433363 1.4774802904061963 1.757849962628466 0.6920818056017868 
3.465582529094882 3.444717785432305 13.69250024426811 1.477714470558043 5.817725002863595 0.7267894382819149 
4.28543859162088 5.9622676810986395 5.1910749791998825 1.477925359803809 2.536842074344449 0.6698363438673506 
5.643195905271379 3.563069495248234 21.658187705479733 1.4780851289975323 8.272286818437188 0.6018781176699898 
3.795142239551688 3.1999048822800926 18.083544466938463 1.4788751730904641 6.234325413411556 0.6798266807039924 
4.05551276366249 3.089255631350337 19.078396720716 1.4791107385668223 6.518680479959798 0.5807549880194659 
5.073834498204341 3.1354321118772805 7.393989841139394 1.4803146802707632 7.565093265503934 0.7096994096301225 
3.04407371544782 4.2301059333107425 4.250071666491081 1.4807309523623728 4.923264775712674 0.7737945266188276 
5.647106297265028 5.437047605723615 14.264348896528823 1.4811856982220157 1.0145365215662352 0.7828960509921816 
5.058985465983944 5.871712914085274 17.256847532310374 1.4812363315317367 1.7535370632966005 0.6025089139841617 
3.9028276735146417 3.142859394406978 29.106981963333062 1.4827155529194818 6.372508762365602 0.6771056672739 
3.40763252842996 5.50265388028478 6.936681625247665 1.4827614429146894 3.557130799233388 0.6584402149458886 
5.574384201942425 3.4779328577356976 6.383174166537479 1.4828764805875698 8.189536836819087 0.44433352493616063 
3.189799537939056 3.8052326309557856 8.25367130509899 1.4830127942379088 5.382100187861912 0.525043619655616 
4.083082103446686 3.07662669032705 26.282785597231268 1.4831763587502893 6.566690561058774 0.6713877931285838 
4.31455741227337 3.0283996133774993 23.16618985682365 1.4832385685553904 6.803667947566062 0.6136193273505061 
5.560823346394727 3.46315793110782 27.611916363688785 1.4833703678045889 8.172212230884623 0.5206202191539919 
3.5324333794228773 3.375626729315198 32.25297058093142 1.4833746718497896 5.936181271884614 0.6913231301235759 
3.7406202105581725 5.774635186238337 34.907215952623766 1.4836955626440191 3.127769951215786 0.5997984463229621 
5.569701293567862 3.4715668750558297 31.678400018087984 1.4838920277241154 8.187305395800003 0.4407152649669046 
4.311994674918795 5.971994105996222 39.79897797097324 1.4839517008132406 2.5194978177231313 0.7041364456133304 
5.247179962027501 3.2173161666265617 15.016063480157378 1.484437843782283 7.778233300455794 0.7027272397042494 
3.0305964731890045 4.289075514432066 28.99361329381575 1.4844648406805372 4.875224574693078 0.7267255472824944 
5.0692740087041495 5.871101426460205 11.96502184023148 1.4845847967116275 1.747742453938514 0.5784616751316443 
5.981053797414911 4.604260303994812 27.635959768308936 1.4847190178031047 0.10434618213712632 0.7759843464388829 
5.672743840085628 3.589317873451164 20.345951476586087 1.4848131364162616 8.348976618665676 0.6051926498783551 
3.0422257643679886 4.782194221745308 21.67551370255451 1.4848364559300586 4.380830085050072 0.461604007261432 
4.298325835939527 5.971435393522186 11.327409096682587 1.485191767334872 2.535232912140934 0.7153837292613523 
3.0363528298301503 4.753130188444285 22.842584409829556 1.4853746769916496 4.412070486171147 0.5611100638422979 
3.2411361296678214 3.710505019347174 16.170156119206837 1.4859477004604567 5.500585636139623 0.5685119094129324 
5.236132648138148 5.7913951907121834 0.4800502530455333 1.486469917034798 1.5648157199671253 0.6719274811741927 
5.407775008009674 5.677151937704413 32.492451948836575 1.4865201477303358 1.3585135836487048 0.8122054495127631 
3.013420549715665 4.521470788958271 35.19445968436561 1.486734494382291 4.649242630040166 0.6012534887043166 
5.449222621298446 5.644706015046434 36.52185003687762 1.4870694152151 1.3063690528211993 0.7654965205554134 
5.871783397472029 3.925896217585078 0.9127901502467992 1.487072574746444 8.754136550569946 0.8438281377931771 
3.014270842402917 4.435440044832786 10.727667841418988 1.4871311702554462 4.7365406104716925 0.7735565392994459 
3.474782642472353 5.577267929135234 14.627747531180134 1.4871371225678167 3.4671752238499582 0.6386520508216635 
4.978106216786015 5.908275860287263 37.84978167088153 1.487221050549404 1.8493716703967262 0.6647277526712048 
5.344965403963135 3.2758646397464712 35.040656006029764 1.4874387093650683 7.90803425009293 0.7153379148723545 
3.6987589201412874 5.753261774683614 1.807591587007913 1.487498687036824 3.1826971523281866 0.5327875331859362 
5.2226278777489075 5.800214732968173 29.053695591668458 1.4875313111082364 1.5820334931981073 0.6839009074357612 
3.0735578431429413 4.922056015910848 34.07209108002158 1.4875713453228248 4.245409239504424 0.4337514555914764 
5.5842449376146845 5.518477229539329 13.112637039300921 1.4875762003451047 1.1218272449543063 0.667655841542206 
5.509466728127817 3.406943777095683 13.9304024156812 1.4878827176988558 8.12094022107752 0.57229709714792 
5.896859341213602 5.012696799383406 33.15479336389879 1.4879764874599617 0.523425149864801 0.5610555685450248 
3.1213524006904283 5.060402079065398 18.84279749585675 1.4881934327576058 4.100727017273684 0.6075020359298812 
5.6144097803249124 5.486831423199398 31.228219692674713 1.4885380130509165 1.0788281863170184 0.6960358709080292 
3.5002589177418653 5.603140382028133 22.433728200837507 1.4887581852053218 3.43466006464271 0.6374486512874407 
4.6124369858580305 3.0154476993735457 12.035371323606881 1.4888040868711159 7.128368115213236 0.6863146582176887 
4.444128528284029 3.011786363170625 31.57909081456195 1.489262048867368 6.962097481762396 0.6873350718249338 
5.911471145870932 4.976984236347702 28.942350439722453 1.4898874982193793 0.48553275729680045 0.5871195617157595 
5.0561168336314655 3.1175427488882574 0.4330005880496728 1.490118781775374 7.591928811586899 0.5837375313937132 
4.089595181028988 3.0674555226913043 7.950785741589904 1.49017307548562 6.606496693829372 0.5731934206778455 
3.068620742553567 4.083823975454091 25.681947063303546 1.4906539041825702 5.104808942630342 0.6850880385830236 
5.9410596845817345 4.881946713655595 20.066006450861224 1.4908173283803463 0.3862535624270702 0.6116924134755839 
3.1573824008192837 3.8518381129797206 33.06577012296543 1.4908842508442697 5.354292034569669 0.5297688213201649 
3.4790688651442956 3.413477998582855 12.415414070059114 1.4909159740512798 5.901200569234474 0.6984489242718542 
3.1909121864815386 3.786258263941841 1.0819686906685675 1.4910191713367942 5.428441631739407 0.3807700991148082 
5.987065174040304 4.380039800441864 32.07831213575888 1.4918958681226897 9.253768355638174 0.9037340131463281 
5.346687689480979 5.728371072632322 33.695067929590834 1.491903326492209 1.4431232345595815 0.7751156633546139 
5.161803769608833 5.8370915942550194 9.494917441597877 1.4919109091684706 1.6577975193040455 0.6427447691373235 
4.662931452993956 5.9830827970450855 22.519642190193736 1.4920057778929006 2.1803801581591014 0.8158865439658612 
3.721991779597837 3.2268707657709674 10.22140976902135 1.4920304413992183 6.212588373704447 0.6453871534312678 
3.89519085728268 3.135966812975754 33.612686132721024 1.4921061069568677 6.408654066809236 0.5372677196690928 
4.217930252172032 5.965314268313993 2.672431274190963 1.4922162201116522 2.6277448926160645 0.7364484995831566 
4.278424023365856 3.0240733320292597 24.28734921702615 1.492466228310908 6.810683281548803 0.5976973901899936 
5.265836611368025 3.2189513515122794 23.691345718257384 1.4925117604574758 7.83748381613805 0.6538221022270014 
4.148954685333429 3.0491633515804377 30.284205183505062 1.4927021783820986 6.679828814791687 0.5208130290896885 
5.820141913863571 3.802753337342347 25.567753834040875 1.492959336796084 8.655079430732073 0.6930731147448256 
4.17476434376526 5.9571060670661895 32.5434787646115 1.4929622643481477 2.6730042785690706 0.680012183951461 
3.739754634651284 5.7852598625182 24.501217078011933 1.493273561586926 3.143266994857866 0.6052011909034857 
5.747122620006397 3.6785556542229 32.97642761678938 1.4933471272750982 8.513180924798183 0.5711152162031278 
3.181331710791179 3.798459960600307 23.602443254200445 1.4936681304245067 5.422786602621413 0.3024368571540957 
3.7250833064729596 3.2230100664535257 37.70394218914238 1.4937199109223616 6.2242741667659445 0.6891501496579081 
5.976278498225436 4.271056435378912 38.59485490211707 1.4939254867978384 9.156761357983696 0.7504586652543944 
3.719582207272424 5.774066974130628 0.5999102116851276 1.494087877528012 3.168042852124376 0.5453930509445903 
3.5178177474090413 3.37395385164303 2.503256353943776 1.49420945838735 5.969552706750299 0.7211159052635832 
3.005960246369611 4.4471450058731925 27.710729713605986 1.4949743930355797 4.749466582109246 0.639937473787224 
3.0407615278234577 4.825080808305103 26.43165506755362 1.4950098496693682 4.369013324085316 0.3757172252151866 
3.2578767672438236 5.332573784569604 11.12357075582333 1.49534251330764 3.8147544979334675 0.47645086454598523 
5.945288059373512 4.8839874262827525 18.826399742270254 1.4954276706383705 0.3883373429004795 0.5445683928755 
3.406494518782411 3.4798453337322197 22.519756391774393 1.4954831261371155 5.820871240873423 0.6448175447860883 
5.601169244470755 5.5129160564593755 5.495895258967039 1.4961860320165763 1.1126792262140892 0.6342189295676373 
3.2951664487070227 5.388218995425792 20.86805275408998 1.4968489804106664 3.751590855507052 0.5155424616711424 
5.906783063415367 5.012019336825052 25.465094378201748 1.4970645907224878 0.5225667719993234 0.4822467821314595 
5.959888832627737 4.167694731794621 14.768022086323953 1.497231510124011 9.07228720586956 0.8134938524822286 
4.198541602261775 5.967325810153409 28.352635017135135 1.4979726962495867 2.65654121616047 0.6200135378873178 
3.748508001029305 5.7962926613389625 30.49239042957396 1.4983707446283852 3.140845181703641 0.6341416673090594 
5.978851550412082 4.258739203737361 7.107214154596043 1.4984020421667537 9.172422103962376 0.8228089307532096 
5.278877840464258 5.780464859576436 25.01441293321912 1.4987464585367234 1.535185061042684 0.6539877422396075 
4.42419746804387 3.002356729188844 35.76345738921951 1.4995603990693054 6.990677048004553 0.4315443863068463 
4.650266904634153 5.992370008323573 8.590163859565969 1.4999161257790488 2.2055433291031434 0.0 
