429

7.550350972180787 4.445553884883585 32.57807370708801 2.3056009452649877 13.391350608779636 0.31361496973915454 
4.596505995227689 7.624448406042667 20.277437660483805 2.3085888431240273 4.554632325239025 0.39901971717198714 
7.08514598927151 3.8033210226902048 27.73324358337024 2.321940429758816 12.686653339385694 0.4026880037198916 
6.587730269237561 3.4433740139584144 29.64365049326357 2.3265570238180593 12.095493332746328 0.4789964107459111 
3.256154783457063 4.880552648765735 18.36526213863342 2.3277792800765638 7.939935961618854 0.26584417535268035 
7.525768775846624 6.658027746090499 28.845298370567257 2.333402535764152 1.2117637385446667 0.41619963113704683 
7.449873677492009 4.203195510242455 6.552294345352678 2.341732103130401 13.339180924933197 0.23040380439446284 
7.795752389199082 5.964634776325961 5.0179527885790165 2.342298979183649 0.4677372201717418 0.39672372581669985 
4.434628488906684 3.4133019546986594 5.5199214162874455 2.3429308971699743 9.934809688575083 0.37196202624994124 
7.73376064150691 6.21164095035133 36.204519998409864 2.344380396983881 0.7230495128042946 0.3317716312365868 
3.843079833095077 3.839007762255874 32.459904439195824 2.346120127645318 9.216071586438826 0.4170139018801499 
3.2239323278596252 6.10237296890828 30.666344056878792 2.3544292815529357 6.787511654981575 0.3735510590979305 
6.3266026740960015 3.295399279167924 3.968649017389289 2.3544715583578353 11.9397863749455 0.5366071041930633 
7.833325555798712 5.182762805913907 23.563700455895884 2.354792472099183 14.477392732725262 0.5020064698767689 
5.823493426043486 7.840371825972472 24.253844260514036 2.3626231778468347 3.386686980652664 0.5174780378254791 
3.260993646720739 4.7398766195864415 1.8085663405871948 2.3645162303262435 8.202211671451277 0.4055465600420725 
7.374387637470452 4.049686969125662 37.05493558617092 2.3699655911059065 13.330238311714977 0.3180541557082587 
3.187879062876206 4.975091388379311 0.6021125741240141 2.370955984078947 7.9778719261006845 0.5798664146886902 
7.711263672138443 6.356812834882759 15.256144176122739 2.371458467217805 0.8766426008942343 0.5111860596289829 
7.049800801490534 7.295710117007364 28.233199786692992 2.3720154612951627 2.0370168468971457 0.36254239389726645 
3.2473657915653966 4.751997247644234 32.17607600405715 2.3735772569144635 8.217784905434698 0.38478546154318577 
4.296408787254784 7.555758984446414 8.63784861215639 2.382179004510293 5.003685202675719 0.4556333013290062 
3.1170329672602364 5.435560918672752 34.06683811508372 2.383838139288583 7.55349531736039 0.6671771873945199 
3.1216624455508066 5.306118467432585 27.108321776001077 2.3862270578413236 7.690648884960085 0.7661248536622427 
5.24463459630806 3.1274354938168996 9.863478782125377 2.386267760625913 10.989166554206445 0.30049479159558967 
7.877902444188509 5.275483047539768 15.58657396794807 2.388478154813168 14.782401936089947 0.45855968086128235 
5.842248188066502 7.868076778013413 5.561691027110754 2.3926808079644033 3.4149880724802824 0.6289053853812604 
7.168888843026007 3.783291606229633 18.048784019852405 2.3942175506036043 13.129083816351422 0.3175381847697317 
3.117048053205316 5.7394954780105705 38.427069748821026 2.3949567980905377 7.284082239103196 0.44799596527962054 
5.639204631209223 7.891669814097402 2.031578350191122 2.3957175186183384 3.6239011959376306 0.6410859820719008 
3.234468962655903 6.293648030541223 21.189707529947547 2.4005224592890992 6.732596072237776 0.595276371681231 
7.648715522897347 6.572686141815168 25.042833673822606 2.4015898811375624 1.1119962640401617 0.602731100487133 
7.70621769955302 4.550208882919711 39.224880710517674 2.4019782896407786 14.115609359480384 0.6101190522927534 
4.3800801590249225 3.3749339303136416 30.56389616452978 2.4021087091848834 10.154606424642521 0.6074909578104275 
5.85293090317546 3.123294284567228 34.61822315965071 2.402767213066437 11.676986218371157 0.43505279074637493 
3.3474493064141964 4.4271541214908146 13.005221712045582 2.405093089152864 8.667871029777105 0.4735284949385246 
7.136257578910184 3.7358454874221865 9.579063723023317 2.4061546103252955 13.138067786949987 0.36798272026425155 
3.1327940267217596 5.931734258830306 18.12532241842058 2.406254057694643 7.125385188009995 0.5090799448815885 
5.053785856937157 7.865183879839374 37.2105888841986 2.406907112233737 4.229571348772383 0.5009135709925564 
4.003081129452198 7.385100411357504 17.89093997612673 2.407149697443502 5.396628703832194 0.6473995130637976 
5.242920388597824 3.105721559037848 14.214613721640632 2.4080405269544047 11.090053168386673 0.3966706093681456 
6.828074742690948 3.490703668013187 37.718849585186334 2.4085377871043026 12.756661302398038 0.4499566939982912 
5.913238225691051 3.125475867641769 24.976999602373766 2.4102138258511214 11.77315515833819 0.4938842421140447 
3.0885661547376007 5.522492476973924 2.5272345446410505 2.411538741467245 7.553579590937973 0.5981714518120703 
3.3874175896996865 4.336064086113342 28.998555008644537 2.412001503304974 8.792150874537963 0.6001927485711928 
7.578999788452009 6.724868779567398 0.09391097534876991 2.4129947466876973 1.2847089554356952 0.6387741328209668 
3.7620968001485533 7.174200193262035 38.65090451002938 2.4131418978527814 5.730879088004674 0.5117820320967561 
3.133165044904473 5.97234765216105 8.157355863053475 2.4135078224783317 7.106842260674011 0.534482914667352 
5.2108196024855875 3.1033516892072655 8.813919422379442 2.414031571444802 11.085979250411942 0.36395972475365934 
4.171345616520262 3.484369448621525 8.61639237136778 2.4141435314393003 9.96942414102589 0.49940003822458096 
7.417438992656981 6.967063508948232 10.674872499925854 2.414300650260632 1.576792913452154 0.6156302412767486 
3.3313206991978976 4.438326787655156 5.671743098728697 2.4146055411884815 8.684959398639252 0.5263170553145098 
5.270590450037723 7.904117434128722 13.950388909867925 2.4150381733412765 4.023289063054458 0.5508378822221306 
3.661350297812854 7.065956061160967 39.909661691984745 2.4151296265086186 5.88354408732612 0.5884603675504817 
5.868517390664971 3.1129989636102344 18.300495591324236 2.4152803180890468 11.751702776624823 0.47961493257374876 
6.164182706437241 3.1771568430716526 38.51895731858354 2.415934394643023 12.057669822707682 0.6273670067201371 
3.129275305258089 5.024857846962003 39.356092549500666 2.417870063475852 8.074217492466964 0.5666819017003926 
5.079446037747921 7.881798453808295 39.99379551986407 2.418642079707024 4.221896613334472 0.5014946398795759 
5.094880807916796 3.112488564905841 25.63995531099657 2.42163837360154 11.004668954087183 0.49348879123061967 
7.70639402707892 4.49936119673184 33.79374151716457 2.4226953207812696 14.190719534390457 0.6369207472862295 
7.692535965010563 4.468737598360596 24.252042685422126 2.422956066233945 14.158632509152444 0.5683120200827105 
4.0931592134083274 7.472769987593372 16.776984629361337 2.4230192782491513 5.307090416202481 0.6433206166834345 
6.276082261654404 7.795373566763968 37.025112768387366 2.4230236251125072 3.0160719591242664 0.49158902971005475 
3.09670430709045 5.819863995624233 5.297931415795297 2.4244882270809844 7.295955155750072 0.4932045460507063 
7.833108277959514 6.16168826807585 2.0416350137238624 2.4251238320532065 0.6701861105162781 0.4842735809190128 
3.5014652708990095 6.874376124959059 23.086203738906498 2.42550011261188 6.158769290178309 0.594321000134879 
6.450274713829365 7.7318065997433365 27.466980811130327 2.425692216749974 2.8338369846325264 0.5708243892545397 
6.571013177696092 7.677221746770925 24.959675938588497 2.4263890375228234 2.7021134796787702 0.6494597289919192 
7.441079700133439 4.042556476662421 5.475733967847475 2.4273302259867284 13.688068921109648 0.4243617149172481 
3.5354290582888632 6.926353364841941 18.709799045997777 2.4277608832856075 6.102430318975877 0.6325619841469168 
3.665928202574868 7.090964851911021 15.91748334446865 2.4279597439262677 5.892791885045032 0.6325019053740922 
4.3180104822843495 3.378765996961045 22.329609282189615 2.428318948498804 10.208704107707094 0.7197152429256974 
7.722846453243147 4.521663047468678 17.520232730174506 2.4286188559310666 14.25252268167388 0.6663463215489384 
5.534464162174374 7.928532236133179 11.931034806936445 2.4287767703954195 3.780648310679924 0.7603872637157647 
3.399863513209154 6.720729992406103 24.334760469126685 2.4291469649879147 6.35237693171695 0.6450977620072911 
3.8325883886101257 7.267257737820802 20.866332138515993 2.4297039724388796 5.654243300285376 0.6334425511754266 
4.671477473604598 3.2155477149310663 35.710786745594355 2.430055929294899 10.605891437804193 0.5292189308741113 
7.894098764029629 5.9180573463849315 0.6865434367571908 2.430325253293189 0.42014700219882073 0.4366919778967484 
3.4324349303578847 4.222490036876361 15.435275102459997 2.430402646288134 8.98047528499137 0.5941479318017265 
7.303921891683113 3.8712815681121207 34.49716133845413 2.4304028311506083 13.48577870733319 0.5810492277934468 
4.268863652711719 7.5956340265549835 0.5765105694796091 2.4305099627175735 5.1088266763695085 0.41161220854659736 
5.8252949968156145 7.909960142038057 33.72020254485854 2.431815108343019 3.493613239889683 0.7591261098882575 
5.789422948530131 7.914556948779292 37.90321279068759 2.431841051967466 3.529816404932605 0.6754487655120699 
7.264232000616308 7.1765987246095015 2.136572751476301 2.4338237067135364 1.8495478888865513 0.672464090474873 
7.857987247072352 6.1056950410013275 33.66565246156598 2.4345369867901896 0.6121243160903127 0.5217042901753148 
5.665748051576135 7.928901225794744 39.11465454140132 2.4345499751018673 3.6583057956604588 0.708040975461552 
7.075803809017436 7.356022268147347 36.468320458312334 2.4347435808258515 2.1106068833416884 0.6290893975750208 
5.135655993384659 3.0922521813614576 22.87797227419128 2.435158334341973 11.109696071415444 0.5373601942205628 
6.6421622596928716 7.650882722953819 33.13564411283125 2.43532977548585 2.636589278680285 0.5781908465128499 
3.486308402119426 6.871956616330712 5.213358035421145 2.4366408862342497 6.197639725700903 0.6762520970511443 
4.199338386580382 7.561306541819755 37.72795664037427 2.4373562094967256 5.200564283106313 0.7246708945622741 
3.491065663449973 6.880252329774635 31.27219635538472 2.4373989542990295 6.190033520282386 0.6409255461386778 
7.904050042623435 5.9027948944344715 32.35220951445201 2.4375603242628094 0.40465090790891445 0.4718197473011656 
3.5594360014594955 6.975132229554982 8.16598198301159 2.4375815324011953 6.073534321368198 0.6930374062468287 
7.823583433865109 4.760624832748428 10.044166532589184 2.4383838114785505 14.56961576037765 0.6245335172032657 
6.878583589880226 3.487919465134585 12.46769506480205 2.439049157575826 12.958865872438903 0.5663788204844323 
7.9383338201734945 5.562918856496498 9.347488969731707 2.439145465343281 0.06292583634319016 0.7872344545611084 
7.243455243442111 3.792762753740849 23.569833443088292 2.440142455042392 13.44099427992251 0.5985930866523981 
7.907874466378112 5.10398760822941 7.121431837460463 2.4402223792661895 14.934597811948205 0.5404003387515809 
7.313002763942012 7.133463865795651 23.10548908061586 2.440324409360657 1.7896158026414781 0.5547461106709184 
4.34487675861222 3.3500771990071048 26.306649113718414 2.4405896322453193 10.297724893619463 0.6335255029527965 
3.505764885263546 6.908254867796217 13.634633147879427 2.4413429635181645 6.168644958922709 0.6995833332405632 
4.5265551906450545 7.73898250976217 25.835961175495093 2.441441679803348 4.836285902376082 0.6063460751202812 
3.1220474601355432 4.944550239998664 22.72086643080668 2.4419628821366954 8.232007147994661 0.582293232883313 
7.317958153255305 7.131561067868098 6.951903420742006 2.4427368595840058 1.7866543621741506 0.5500560554541901 
6.608462547878028 3.32183309025619 24.275965240481256 2.4439926977696036 12.667528960877558 0.5946415327863609 
3.5584186829637146 4.015287703773261 16.55630781636188 2.4441989716942496 9.27434366013108 0.5653076738257085 
3.8216102959227145 3.7226068389215676 28.25301440656458 2.4446100809333613 9.669976926597737 0.5704219289799929 
3.2557764629128334 4.53042714456153 26.376215299469585 2.4447107817529536 8.677263867343363 0.6249555082295274 
5.849203178704927 3.080200354999576 13.362794031852339 2.4448667002439635 11.871564443906141 0.5650591680849623 
7.656124638383374 6.654149145114076 19.6108033830996 2.4455947549443637 1.2019570727639284 0.4628805448175774 
6.535330046994734 3.284330761517671 28.401436505839705 2.445628442868415 12.593804641290149 0.6387348719314865 
6.474183894405315 3.256316551501701 0.9215207311344287 2.4460477667420815 12.528699309029316 0.6926800028566957 
5.08705782126436 3.088739995566324 21.565201365893664 2.4463638429228833 11.113289272913653 0.6040474146809238 
6.30579969609382 3.1900906659716437 16.93368388100898 2.4464247958308913 12.34963612218362 0.5866098746492532 
7.820885112463028 6.274833100789299 12.626322085439973 2.446808950312895 0.7884050435069803 0.6247386262610727 
4.948637721185304 3.11606103155696 28.466647756522285 2.4468684819092754 10.97445790784533 0.5639749593497257 
7.616420530464838 4.27174874132151 25.829888257907996 2.4470057245986085 14.088254682490117 0.6590885937521712 
3.442038306719427 6.825069345559003 32.598681471624005 2.4476550209436 6.289336577406839 0.7046022962669826 
6.777468575428228 3.412053972082674 6.145954654027193 2.447742751332818 12.87870504432928 0.48132086851124495 
7.937095819138373 5.7283413784749175 24.443480238525694 2.4477695595757334 0.2286738601709697 0.7985703649931075 
3.3594832935355177 4.312404369773088 2.8151377337269423 2.447896066336887 8.930235286518066 0.6062858696396793 
5.898662379299446 3.084404926666071 22.208719825652224 2.4482710738363602 11.93765112231494 0.5267853321816643 
4.076760609966722 7.492343127939181 1.8311620417597538 2.44847738416935 5.364837728523149 0.6972732923644532 
7.929388749324983 5.808621867613148 20.229735004728063 2.4489134636642085 0.30944468647525625 0.6875734326380767 
6.344341560653338 7.799010712618198 7.883335766976749 2.4491555540185166 2.985094411245335 0.6874801657006122 
3.788544791959999 3.747909182617743 6.263885896154875 2.4492654330395602 9.646977237976632 0.5341057552510747 
3.1470152841134036 6.1808894743272305 26.601364479138525 2.449519861002467 7.005416122165325 0.6109049533495696 
7.947335766452579 5.377026754876933 39.78815622581074 2.4504233864322593 15.273439296620701 0.27769009910185166 
3.570908678779449 3.988845284499652 17.77937652546229 2.4505064578138516 9.326869472766898 0.5959865811650745 
7.901004542901149 5.990969336034027 22.912691525209162 2.4506884142945733 0.4943143560986183 0.5025748285302677 
5.766527748581923 7.936247893606531 3.380920820377355 2.450783719520433 3.5826261288942973 0.6226126108028298 
5.767478145650791 7.936892390589888 25.545527699964367 2.4515279075947074 3.5828393345977965 0.6139987467991493 
6.054014745311918 3.1118519837858827 15.473564950773259 2.45156751597227 12.11158174138109 0.534436127221322 
3.641252499741163 7.098685091127418 22.007056831564782 2.451680299368488 5.96070037252683 0.6112463471389171 
7.911561114092259 5.942871995323884 26.948193231471222 2.451889600133751 0.4453161915323651 0.6210049645756456 
5.16286551081748 7.928838159285442 35.96880119632668 2.452124480485743 4.189993872750021 0.6747497251818173 
3.226209064469109 6.4208021299661695 2.0057163964375633 2.4531615888588902 6.762912203959065 0.7441943679459457 
7.717368713844128 4.449314773279163 14.02174580046698 2.4537040283587963 14.331302957684517 0.7075543248515883 
3.046981982807174 5.423492444546149 12.368369326047691 2.4542108301273036 7.786650667067207 0.6433449813958687 
3.070728277770727 5.850417754872051 37.219685814874666 2.454415144866969 7.359153329726805 0.5092181336099195 
7.7286343372771045 6.528570192093801 30.42572728100326 2.4545402113948827 1.0613347877786907 0.6490839988704292 
5.267487132671929 7.943961271926511 4.5549067615687235 2.4549967275232305 4.0891617263664095 0.5810292138628738 
3.7786212054684105 3.7494514134299646 18.78570640958874 2.455110039938204 9.661820981934085 0.549645710171393 
6.501331836216315 3.2581669456797755 11.47298876499832 2.4552964973019202 12.601710849647848 0.7130525033675531 
3.0464794727353226 5.404235198889273 29.918194530997447 2.4553887421019356 7.809620330369322 0.6766073133388202 
3.804564230551464 7.276319414276124 34.54479118787445 2.455567777492571 5.72859672152504 0.6971491939398237 
7.948428103088326 5.311900945657307 2.636081260622234 2.455642773335998 15.240975110541779 0.2805960981572974 
7.95513716005886 5.429934615382665 35.56857701629534 2.4561367292607006 15.362287318758863 0.6390418558826132 
6.479686697741128 3.247647795487733 27.16107424024605 2.456191458111964 12.582250530466467 0.6741664422532724 
6.993184497010685 3.549717901641836 39.003327105395286 2.456257357299796 13.17982317527725 0.6341030150214629 
3.069149287193694 5.145297981138256 21.626279064191955 2.456592906880486 8.073560417345327 0.7268813368190196 
5.993830584468306 7.907452718993763 20.003845738494924 2.4575795491391075 3.3631411833061975 0.7359942405524874 
3.062548497312952 5.826792566487304 4.242912890490452 2.459260703842256 7.398233334183999 0.6568636948232495 
5.964072579991406 7.915252810208855 17.454627149826706 2.4594327591381013 3.396396457690555 0.801052032394808 
7.684937008669284 6.630327961183195 20.823027764454018 2.459998177171122 1.1744358701176605 0.6115631012783788 
5.1647216411329335 7.938298223996214 31.716464583106657 2.4612415174191415 4.202433197434267 0.683703638533019 
4.428670350459495 3.283834580440928 23.57813238282244 2.461531308928249 10.491283822841496 0.62977009251372 
3.9323352807762735 3.601666751295193 29.470645641254052 2.4619589344741213 9.902261017675066 0.6322273288151128 
4.558232668919713 3.2244836104845493 18.11977344329202 2.4627018790027178 10.638831290983301 0.5815719590766396 
7.953973941150512 5.291349120244094 34.37714113535061 2.462828311813209 15.265505375485446 0.40294081227564066 
7.949267401910154 5.241256104794225 1.4605051813922572 2.4628965080502203 15.215612921793646 0.4916309598919107 
5.613156460557287 3.0395358519105766 5.829983501366918 2.463064799918846 11.72011572429308 0.6722377757264211 
5.509759229234936 3.0369040508262533 4.57258912704085 2.463115283008772 11.616916571837187 0.6831935135814174 
7.954000588717385 5.2875910162864255 38.53255050955822 2.463176093134127 15.26391871390408 0.39381135833538056 
7.1258719072077366 3.649484333558151 8.459488337305544 2.4633042220550116 13.383764860488398 0.6367592624795283 
3.0658933303033447 5.880661923814724 11.455136134508784 2.4636921032677916 7.357723995623214 0.5855876353826361 
5.268550681677274 7.953655399316226 26.500732679639015 2.464547342930487 4.103092795254298 0.6232446175120068 
7.0072251100361385 3.549991863826941 3.0880079275818275 2.464601238225887 13.235909808358606 0.6075339574837644 
3.044237014347301 5.713508888398458 10.346015688983563 2.465026954645123 7.530333813543486 0.7637706960568575 
3.1677229021962283 4.701853104916829 33.366877880359155 2.465066921418339 8.557030840270649 0.6692407736400274 
3.0438792106245582 5.710399350870006 1.309294076444651 2.4651160659994833 7.533734880513535 0.7546585810145933 
6.57199272460579 3.279975502098628 22.98997359351887 2.4652945407983173 12.726447971963221 0.6886286103251531 
5.010033321283451 7.916195295882359 30.245472912216407 2.4653736134907787 4.365850602509525 0.6299501560706554 
7.420126058877548 3.953478056926391 1.1549064590100393 2.4654845776010834 13.81939556255362 0.4749271127011431 
6.650370067208799 7.680703949121202 23.678330538800132 2.465526516840323 2.6760184654688146 0.7154846356395839 
7.87490038918188 6.164482743747433 39.15071669819089 2.4661081029173006 0.6727977337434901 0.511992362945046 
3.4415376307372725 4.140791879038531 35.71686462103421 2.4667213141654916 9.1889721154792 0.6290142599217645 
3.034399076316335 5.414855108612168 25.882606334171747 2.467070644995636 7.83569281756516 0.6325395813495531 
5.090400598207729 3.0671636775559294 3.6227466897091958 2.4670760510676955 11.214317114616698 0.5183698234501859 
5.094267855723098 7.934162926202947 12.917161298234397 2.467745473949944 4.283908228978184 0.652347555369707 
3.035317082328456 5.375358287314911 35.26929764359042 2.467832539132869 7.877619340506326 0.7512446546362751 
7.628541452690827 6.749307922466624 1.2304586616039117 2.468088126660199 1.3099497435893284 0.7039806498042115 
7.752106749414075 6.510084069122351 23.843805443304866 2.468249306178612 1.0406412341369027 0.6577328330036252 
7.96758872081052 5.5669014862565 36.962114740573185 2.4684954737521028 0.06690967910579992 0.7804220315188645 
5.71861497936472 3.0410715318948007 27.818086157490953 2.468627497307122 11.852034751662593 0.6115742358313937 
3.230129198127358 6.4704826393306245 6.206441332230497 2.468633227200043 6.758042313679919 0.7543110944611722 
3.7859895623164306 7.276635217761434 26.341490058965775 2.468656411386251 5.7723498529114785 0.6739284471256525 
7.780155558164297 4.553846599588809 35.08285387775819 2.46866677106028 14.540093604199058 0.7223324358445654 
7.629348576281333 6.749156883705009 37.06098249133934 2.4687078157244433 1.309739833483107 0.6771364605677229 
3.5322154078742516 4.009157070503088 31.41192058467572 2.4687626134236615 9.356501604492916 0.6189249819107728 
4.562490425880224 7.7841783144194405 11.636771990532253 2.4690878424289164 4.840071337496042 0.6197653401391904 
4.5451873865246055 3.222732490902869 1.4705368604403546 2.46933481626959 10.656101345030873 0.6058393932898678 
6.64763548699333 3.313382845551857 21.585110379657245 2.4694861390850753 12.830745214294868 0.643230199488935 
6.534792176111221 7.7424384561734065 10.987774769021808 2.4696811691929716 2.811619673390119 0.7147587737218353 
6.111089877190578 3.1070433954719476 31.686433403049826 2.469751434691197 12.255932938307954 0.7429907188248235 
3.2750060830838876 4.428009046093429 11.944908369791193 2.469769733309404 8.867882310500665 0.6245739127571098 
3.9094685148287116 3.6103285734648782 12.659438420967362 2.4699490896746172 9.911250685517007 0.633132122371562 
7.942823634827551 5.134745372443895 27.61522619654118 2.46997940352207 15.152739178476768 0.7313758940531953 
4.450021081316017 3.264280515708456 37.30510768435284 2.4699994619678836 10.555109471356406 0.6952315144430197 
6.128435251305632 7.8888991569683435 14.64216698818236 2.470176116645862 3.2447237738432104 0.7275830978868045 
6.755483971592213 7.627822977489903 8.879486695954377 2.470601268205567 2.563837724843758 0.683917362472294 
6.118479001272128 7.891967544890835 13.220270084987867 2.470632512298351 3.255732589838015 0.7384681331014835 
6.808270033710931 3.4036961327374247 32.37868669162058 2.471044391549056 13.023218008156036 0.6730657683552453 
6.200239296314322 3.1301936356821143 2.633790964294292 2.471096371342959 12.354733863585128 0.7301989112668695 
7.410183306432373 7.0676727378629645 8.105917781683004 2.4711127204584744 1.698226420869286 0.7241618927757217 
5.964733821346583 3.0729471200858667 35.86851790631028 2.471146132182976 12.1125196229302 0.6276354393231784 
6.023503917993848 3.0847926373608052 30.447781990135027 2.471291758716783 12.173188468209213 0.6608307198672108 
3.7830129713924583 3.7221311966003015 37.93803702604203 2.4716112029420048 9.749046589953466 0.722308276213124 
4.509751375623352 3.235422507077036 11.751583217132577 2.471619622743982 10.628373103508565 0.686048553015977 
4.25897500820053 7.63792285955121 7.481916709614737 2.472014802476413 5.183173440519447 0.5561608718316573 
7.692638312245209 4.358068793108474 15.1010513124575 2.4721791297554176 14.346141131924501 0.7849078382161769 
7.386285092030584 3.9019711153902925 31.666248888953767 2.4721989734776173 13.795683287551842 0.511619506279252 
3.1561307827523732 6.286663643230877 3.286698858640655 2.4723597220352636 6.966565891820727 0.6191490452138608 
3.3353876727614837 6.695305728630039 33.717935972135855 2.4727115303101437 6.5206875418069785 0.7840649607143203 
6.852600312159329 7.570219417715283 13.90518210073278 2.472920549055088 2.453290751229652 0.7088338540632286 
7.716335676819228 4.402553339696475 16.10013087381669 2.4731625511787767 14.40225203755405 0.7167336494194307 
3.1302480068093717 6.207726451971027 15.479075778999594 2.4731763463308596 7.051952817484775 0.6826499606937443 
6.083764630154405 3.096620144020468 9.304067725512681 2.4732601714230347 12.244289466053935 0.7500783945795808 
7.960254940422376 5.244560529459232 30.238654238201 2.4734800777412476 15.285437976638299 0.5063193109944931 
3.7163522787261725 7.2138758218485926 27.597906909058118 2.4736146681167837 5.877656706686956 0.7013495373368633 
3.2681092245394536 6.568002100802385 20.085231598719616 2.4742604795987395 6.6688175168327355 0.7978808148691612 
5.055652975177071 3.0657074402812263 24.39229724780391 2.4745150120318877 11.214106913040599 0.5418931619897276 
3.7141842857996457 3.786815643654535 0.9143586894231674 2.474699659334795 9.666761023984105 0.6406781781076957 
6.506411490898339 7.760887010053455 1.5230492685252415 2.4747674964005517 2.8509104550262503 0.7114682443860777 
5.077325083109143 7.9384718288272005 33.01293261594622 2.474833114646839 4.312215964503729 0.6523814872640791 
5.525301676776431 3.02527977222581 0.4441341103443648 2.474849567267158 11.687755946453562 0.5820360000254934 
3.385439291157299 6.786130477711982 36.7134746462125 2.4749744639250313 6.422921763540973 0.8104762794737878 
7.512327780988457 4.059144940797841 38.26391713891666 2.4749800806807283 14.012823130780646 0.6596612093301174 
4.938434505642434 7.910910188033693 34.24438628319232 2.4754481895644087 4.454922122622008 0.7151888103293097 
7.247906179407044 7.253275507963847 4.896253054562493 2.4757122245598784 1.9482165243910803 0.7885104678151176 
3.7000543379234676 7.199921258561604 35.76201205340539 2.4757901105985933 5.904180575429205 0.6861532187257324 
7.209280486584526 3.7087517006137496 22.349345166562266 2.475926140229705 13.554149611442991 0.6634387236267971 
4.902559116031719 7.902980676383692 1.34262365508728 2.4761364544205198 4.492901017239959 0.7317702547996537 
7.462542119688968 7.010672610947466 14.540736806199192 2.4766314439213812 1.6247287077311885 0.771764190330357 
4.892132760384766 3.099000816409049 38.23025607730415 2.476751836701016 11.0572766917073 0.7075477073089891 
6.858492296196604 7.57109226243184 31.984295424602536 2.476877970011958 2.4527616636956857 0.7160784906197668 
6.547673743807661 7.744415567268494 34.41176173577112 2.4768975578455232 2.808967278585902 0.7388949408684966 
3.2777735238775945 6.595547692408244 29.77895042640054 2.477602723908826 6.648806257495462 0.7769044470844855 
3.2855462492932093 6.611508096169873 37.96205832208126 2.47775213890949 6.631454820279199 0.7809384249475034 
7.297159602652436 7.205748852224303 17.277128602220785 2.477773553872587 1.881394303625088 0.7879434081230382 
4.598402874734622 7.808006305294443 5.480329282686114 2.4778560251890553 4.814986835335816 0.7848187626802007 
5.486580695977573 3.0219667645139623 16.29631101628226 2.4780695700270075 11.664208364812517 0.5530432271466406 
7.476868853366143 6.994588652344689 35.621797640603305 2.478266673125934 1.6043169855306996 0.789341827876547 
3.108062541036438 6.1485134138621245 9.44692089251533 2.478292649295513 7.129633585312069 0.6134552312371683 
6.4565540553829415 7.786250200263865 16.112863696397888 2.4782928880735855 2.9108393656680462 0.6835419908658328 
4.43186128683114 7.7363121127076155 15.863842678925892 2.478308329488652 4.997240050236886 0.6529480403605078 
3.679022189865435 7.181093792208186 11.628751504523237 2.478313241542194 5.938327221245737 0.7762418239763287 
7.267294355699912 7.237652581000288 24.3424813602891 2.478460375302725 1.9256180770770648 0.8124153103966671 
3.2789850712639685 4.399903390279087 6.909981710122466 2.4785317961220037 8.926390850106452 0.7073534010304318 
7.486770241260701 6.982309797440045 18.48624926631122 2.478809861031267 1.5889025807475559 0.7745138523209086 
7.936332091403101 5.9574439599035145 21.554500921535606 2.4789048057666156 0.460080797239641 0.7539905897410596 
3.1603021246486493 6.319113125717649 34.75809041514538 2.478937768611098 6.95301017539666 0.631090525633343 
7.742968280809124 4.444248613048115 2.1053261609459284 2.4790154698522255 14.485522656107909 0.6181339351377018 
3.9545049893014044 7.4383813962175775 6.1686942919637815 2.479087990632172 5.562816064830049 0.7083634809136502 
5.049744764591698 3.062133763977256 39.52328349738116 2.4790969246385433 11.229700953787273 0.5779363655297277 
3.023743055311548 5.618839239394811 32.86548244078201 2.479106940197965 7.66945935102034 0.6700565847860859 
5.696118751388883 3.0285587691634053 37.52789035924099 2.47921042312375 11.879327748009224 0.5946168046098212 
3.3115819238465045 6.665437178533574 17.45479369366604 2.4793986152177436 6.57597783706143 0.8123854141086501 
4.464849120943424 7.7532325595789064 14.828012190908993 2.479635922864102 4.962856276005251 0.7061502229107742 
3.0205288278255766 5.4552030178605895 20.40990186024743 2.479875816094992 7.835559064480886 0.6236572521913447 
6.2336137735550645 3.1306423473918237 14.37925247615292 2.480331601766713 12.43304173205188 0.7681001282459039 
5.3383190300188454 7.975129418954092 29.264999376874208 2.480404478432111 4.058005926533683 0.6063265462648002 
7.96897185953338 5.262012844752924 28.865020923427352 2.480415273543992 15.346554985299543 0.7315740083710265 
4.830003591413139 7.888376955655806 38.485744882723665 2.480572448010134 4.574896490813929 0.7122759742023872 
5.275616695392901 3.0294866437677577 31.132730159130382 2.4806821865584285 11.465248993672 0.6418943622705552 
7.3929969278631775 3.896642436613382 4.172106945671068 2.4807645686297017 13.843754878615508 0.5144221142448561 
7.898060318628793 6.1365430275509105 11.52262171485792 2.4811046567417727 0.6437413429796912 0.5527915617182725 
6.693973162581309 3.3250472126214365 25.58650838620241 2.481127070564946 12.937681520419376 0.6800784819437607 
4.289508493779951 3.334114512289535 13.737641965028722 2.4811992327311567 10.427850514635962 0.6290820169803042 
7.667541490899281 6.707723053575777 22.22715482101674 2.4812962517418744 1.26135031074163 0.6571957094369961 
3.599290848927285 3.904922268113128 23.145669971587807 2.481323890130614 9.5277479129856 0.7145538714433304 
4.2496139620063795 3.3567522898272397 3.0289396811654257 2.4813254504740336 10.382509485016497 0.5763615382576515 
3.049577296636321 5.109092717982574 16.17569606371064 2.481406844573137 8.188111989703096 0.7067495750406014 
6.794555178944689 7.616988100427039 10.003520967452197 2.4814334020243614 2.5359207113028788 0.7690011701337058 
3.2311245361684504 4.4947328893562535 19.70921213452573 2.481603883402597 8.831202743613868 0.62408536533149 
7.941690095412453 5.056690237764709 26.40941470838579 2.481607154109689 15.1466955438732 0.6043877028827395 
6.715744175342134 7.663410035652392 19.325816188340205 2.481607721264546 2.627573855418092 0.7287706641288059 
7.030643616969072 7.453368330573237 37.64493920789413 2.481636096822948 2.248711474680121 0.7663641173137301 
7.345668937700576 3.840902460486568 35.790779793578984 2.4817531048056125 13.776138426543689 0.5921524640949057 
3.920274890791971 7.414098939789221 33.26393751599051 2.4817949496210474 5.610794455601461 0.7742784362344315 
7.927042252933612 6.018474369764873 17.7026835239485 2.4818037330998077 0.5223217611447382 0.6148663256136158 
3.0780016390071054 6.042625327375892 31.81927082879843 2.482039142834388 7.250512442094262 0.5989665041720914 
4.439797325013125 3.2557127328209265 27.542056603901415 2.4821069778862137 10.601236883986022 0.5706511508561353 
7.957236937250598 5.851749712036515 25.72833895396225 2.4822854843281963 0.3529376679860867 0.5550575421277663 
7.871142887992792 4.765410811671557 0.5816259770302281 2.48232549656322 14.85115421879806 0.7625672499650581 
6.907746457330589 7.544608773223705 20.34336557319496 2.4823728816739354 2.402488131187548 0.8099430875372913 
6.300531426757552 7.849796613748584 39.89238417492772 2.4824171066141956 3.084272613115063 0.8299909461193984 
5.9893473661539955 7.933739970885085 32.33019636969063 2.4824486078558774 3.4068479275534305 0.7438085677075692 
4.302584358513006 3.3249161498003943 4.28558032888494 2.482900314929469 10.4509015720375 0.6732732037079732 
7.742674934838505 4.434366425236753 28.315498865271465 2.4829751869512497 14.499594124403275 0.6805834516641043 
7.981277636586534 5.5960186361205375 10.659209226013857 2.483134770467948 0.09604258069623839 0.7907625285604615 
6.664060080103229 3.3065484694677343 33.96803928041589 2.483196626706043 12.913348146443232 0.6850684738724683 
7.697418918866389 6.656615431126916 31.687660859854333 2.4832255557062934 1.203138022951869 0.6216960246331694 
7.540175668317651 4.084316820910737 18.94394913642047 2.4832389375876955 14.096263012521986 0.6307924514635507 
7.228635543462379 7.283181480757508 25.613458696553998 2.4835291493030702 1.9891305853535801 0.8286241349583797 
6.202656545620582 7.882117603219907 29.997072540254813 2.483588230096448 3.188826193149099 0.737988132191888 
6.701671424778389 7.673650805441384 29.10702410828756 2.4837012777556184 2.647075973413024 0.7104906460082613 
7.687679532607265 6.676111627251263 26.287428368358142 2.483783464222345 1.2251972231080295 0.6811539515572798 
5.120147306860237 7.95457807843248 23.551987732792377 2.4837958071481694 4.2828865125343025 0.6528702581601304 
3.4006748033677967 4.17253607348329 22.030980938401143 2.4838129473488957 9.20363180949015 0.6001105568048944 
3.9075674875055 7.406321623958321 9.633959864636843 2.4839290329678567 5.630370354272641 0.7755215648100954 
5.939001245708902 3.055125306412573 26.20850478543776 2.4839755153942606 12.146778167044365 0.5819751720277035 
7.29646550418371 3.784506772872577 24.89984586026742 2.483989798699281 13.71370829804322 0.7303987037259396 
7.702959779085652 4.352281076675966 21.677205995386338 2.4840069474993793 14.414412713420562 0.6539802245922393 
3.073326621550012 6.031124559335054 16.679666411727318 2.484116942337203 7.268826761822966 0.5577832954715084 
6.762993629165853 7.639238325586563 22.391524946279617 2.4842490859356134 2.577333773354143 0.73828580690961 
5.763787802398817 7.9702109288263525 8.889461646455032 2.4842556304832115 3.6379735831143254 0.6640578853440797 
7.255782527488478 3.742230230720497 10.909112196292966 2.48445705248184 13.657610850192311 0.6868581764637565 
4.840662604239642 7.895372657204595 6.532155537532667 2.4844588884365653 4.569911797436006 0.694233544245778 
6.721476520816356 3.336480422878167 35.18833051338288 2.484516422061859 12.984967104034492 0.7276785077512304 
7.728061534241621 4.4005182142566275 22.922831156461257 2.484576100172535 14.47209734298866 0.6667418071513858 
4.5073736143025895 3.222245309525654 31.822488857217728 2.484647574920956 10.687496284977982 0.5417505149340935 
5.378549677863444 7.981691430808468 20.876002331700988 2.484661453497286 4.024395821366328 0.7052121301051717 
7.704490110071465 6.646517555228079 2.930687863836482 2.4848096808103963 1.1916762716057594 0.6698798483067158 
3.0776261631237354 6.054603011433012 27.83516857248886 2.4850512078975755 7.247705363909356 0.5867555102631147 
6.29421505765319 3.145125577314869 39.707606054762756 2.485198403431745 12.519617435087538 0.7275427619789592 
7.899811323111045 6.146205800320243 37.896510307123584 2.4852919995243026 0.65371792131163 0.5716371567214404 
7.789509677188588 4.532598345692178 29.5566210482186 2.4855020665245275 14.623210372619466 0.8116520598140917 
7.92655848545409 6.038111255450809 29.52603476936297 2.4855079574549945 0.5424062063194626 0.6169141395928275 
7.613263463378153 6.808686437842251 32.943051766321744 2.4856674472344986 1.3782285892592938 0.6888829616295906 
6.1071901631250585 7.910524811828913 31.14271495791095 2.4858217479615554 3.2913235388287614 0.698495677931692 
7.637530342039888 6.769022402558401 27.57427069685253 2.4858507238642185 1.33182960882408 0.6494445462011569 
3.2594582477350302 4.423168644321106 27.644922668360646 2.4858787404489036 8.923335052653181 0.7105371310460411 
7.9720620182380975 5.2381698860198505 33.172603999266336 2.4858893037708407 15.35698649201698 0.7097364860486146 
7.334761136380632 7.17761685580944 29.73057391490459 2.4861107663313584 1.84143201384353 0.7453270138033706 
3.2869098472994738 4.367255741255795 38.59846061902055 2.486137079828463 8.986555106619871 0.718010911538304 
6.21264962086397 7.882019437847137 21.43121740668032 2.4863398971981168 3.1827466312668715 0.7293744738284036 
4.091032251498294 3.451257282855008 21.19141740375379 2.4864707594043045 10.219270837072756 0.7023092843100726 
6.883825154652404 3.4340236376569138 20.03448961709347 2.486610220442503 13.185422522884622 0.738020638931833 
3.0361805814361666 5.164029352377545 8.836168576561647 2.4866206794274186 8.148950590700895 0.7025194016303491 
7.715891257880603 4.370568106988829 8.993664597115043 2.487124940107047 14.454699258973765 0.6801295359674449 
4.7000611036342015 3.1446562710089774 19.258936887143058 2.487477903342314 10.907552406463708 0.6407739972668269 
7.946201911561285 5.952350736448493 6.484754140397655 2.4876746131460976 0.4548813742478277 0.7850758780530847 
6.517348650231765 7.7702412977540565 26.19117433791081 2.4877688450007582 2.8597000670050736 0.602425165312379 
3.474078231132328 6.944020379795217 4.055980530559438 2.4878814020840787 6.275298168788375 0.7409438921174836 
4.30817212828554 7.683840207245487 39.38651358586759 2.487893029568882 5.150858336465015 0.5879821955354796 
4.897479890620176 3.086060945075535 12.864026074962936 2.487997637277151 11.11584216629125 0.6549215271064582 
7.6930636226054245 4.324983203186122 7.728181713633724 2.488009751908134 14.408858122134951 0.6672533785367626 
3.594615073029347 3.90009338800452 11.080327190973357 2.488009824545277 9.554113664166213 0.632421052139743 
5.7160903654180615 3.0212908193552668 1.6328128203563708 2.4881105779765895 11.941307814963977 0.6275361633983797 
5.371356770720731 3.0151397740007964 33.72979414337657 2.4881879798745548 11.596609007473965 0.6539720176238548 
4.0756472770046175 7.5403564960915315 4.655464559027635 2.48833987040502 5.425176491625399 0.7363781320655526 
3.505400770462418 6.987797466346427 1.1783453008557885 2.488366409381616 6.222688659743081 0.7165995295400017 
6.888584759295877 7.565009764725124 5.93723180350468 2.4884599579175264 2.4357317650057198 0.6879385333393979 
7.38687973545177 3.8775493428339782 39.99850893425714 2.488505831015268 13.868431343595363 0.5267801442114832 
7.972138341926473 5.214894685836594 12.123096920181581 2.4885242658626394 15.350126369173088 0.7396104087148652 
7.009284951075103 7.478599311493717 0.5326430779133915 2.488532961201276 2.287336116702752 0.7456954063674848 
7.957996661061217 5.110896841542745 20.964780558549712 2.488603796049003 15.245652576405321 0.6411185832863899 
7.3216663135399935 3.8044272099494867 28.987664462162527 2.488661335787991 13.771310968054953 0.5422552862180503 
4.206152301831859 3.374011680247431 17.122183997358583 2.488748320296639 10.367328651228014 0.54196932524728 
6.936626459669603 3.4675299201406666 15.998521582875327 2.4889415843177636 13.260307380635243 0.7372147080587295 
4.56222439588094 7.805613064469178 21.631462069119586 2.4890308729969206 4.871272347528059 0.7184079197952128 
4.426133051066922 7.745462725702492 27.12482576588853 2.489034567162558 5.020093374408042 0.6510300605478755 
3.0119620669700327 5.571078335906145 19.242953688491994 2.4890530098877384 7.748502650470501 0.6644823858778991 
5.806411471431114 3.029802234340372 23.635189280798343 2.4891293641139662 12.03693645438223 0.746617251469852 
4.547171383699728 3.200389922116976 33.03970795709534 2.489194424375456 10.752271831954271 0.6436991958232011 
7.9652455116950795 5.154928859952986 22.26857280011874 2.4892789165993583 15.294414740616743 0.6597845762631301 
4.747884905130188 7.872950112853543 2.5726731916058725 2.489290933985556 4.674224760529313 0.7794838049193782 
5.398420283797516 3.0127755924808737 11.184716212425087 2.489297831136854 11.628931739637665 0.6570473447699399 
3.0561465704240076 5.974973910295145 13.240829485380438 2.489582254257006 7.3433497557560266 0.666664957432225 
7.741631702435542 4.416888384167157 20.27452001784208 2.489587006255479 14.52197016056357 0.7634620487368169 
3.7279973994794515 3.751125599996504 24.262095983719554 2.489689716257664 9.760634427858353 0.6459599247185598 
3.0118784985559213 5.588807973576262 24.68891765357941 2.4897058987195777 7.732814944125222 0.6433111361858748 
4.186959124569369 3.3846348196736535 14.737791028666514 2.4897482175289856 10.34957529456704 0.6453948388854321 
7.852919477543469 4.685773820453377 3.4362898903968073 2.4898181337725287 14.814503428553898 0.8387860514217141 
3.8525359411409728 7.367121257095343 3.2111725076746893 2.4900360667929196 5.711587266748317 0.7596240273848621 
7.942853261681157 5.017331567531143 18.366659293629233 2.4900804954475286 15.15989395717685 0.4837591629446292 
3.1832151273979514 4.587289390816729 25.200402533830818 2.490086906522219 8.757330846094781 0.6594799310894514 
4.775522328709747 3.1175878139205553 6.4848084389961755 2.4901316673176117 10.999360560871224 0.6244629002536888 
3.475075824390383 4.050659189598558 13.989882070042313 2.4901619830170487 9.370010140813353 0.6938063007979267 
4.615282366400544 3.1721985574156735 34.381691813724835 2.490257988100729 10.830591457332762 0.6393105552343017 
3.0554699758079407 5.024175991172654 3.4596682357535897 2.49040870672927 8.30261730920233 0.6320596848076152 
7.801247411330388 6.452184584242212 13.751750914049481 2.4904608269602093 0.9770562701961722 0.70725500077404 
3.0689191250717816 6.040833635490806 14.321274788303214 2.4905130478919304 7.279000322567754 0.5084969144010444 
6.7437622109981294 3.3419594279217577 18.894932277787134 2.4907997808420363 13.039906539864837 0.7120255293508457 
3.91870627794904 3.575481353312842 20.01161935886887 2.490835574028192 10.024570764120757 0.7516360211619977 
3.436901771440196 4.104301238487887 9.054712252775268 2.49085313368192 9.306764736162691 0.6839846018123081 
6.495666028515602 7.783231269430395 35.64870596593041 2.490882548424307 2.888378546560004 0.5200260427657502 
3.403646996163343 4.154642024262916 30.194082002014653 2.490920311767189 9.246680455291639 0.5858339794718485 
7.98546414587097 5.664992870994425 14.533963038838174 2.4909344969085563 0.16511375769045245 0.7133453667002111 
7.87193874600606 4.739087153426193 11.177225335782595 2.4910001555370997 14.8781430812385 0.7724355971180003 
5.434957102721245 7.990163985028645 22.099235822488595 2.491013298001469 3.9779248289275824 0.6630638937954871 
7.937851274948064 6.012950853766941 28.171539529118206 2.491232108244058 0.5166462954166846 0.5932761453507343 
5.814832676340955 7.971380429033987 9.947738017076524 2.4913532144407418 3.5977317731649734 0.816468419849393 
5.857560861545479 3.034274304459731 19.640794628689882 2.491516200099188 12.099793221866866 0.7694388397154518 
5.764171214371433 7.977477801224297 0.7381698294836809 2.4915221624664827 3.6490051593011117 0.686224520525031 
7.172026881746436 7.347213442774287 12.956222792569342 2.491560032680076 2.0807933702350336 0.8665717135131009 
7.96311556974926 5.124248108209249 19.49784210063249 2.4916114853896367 15.278065740017487 0.7207137090423611 
7.554390357211242 4.090160063113617 11.926348093076847 2.491619631372802 14.156741020231049 0.6933556018663202 
3.8752620466178778 3.610470341053082 33.703251130714676 2.4920063702166546 9.973498755929176 0.7271527373118338 
3.8663031771570493 7.381917248530797 19.608844585898943 2.4921030956372725 5.696215806199513 0.7752820800576242 
3.5871950293678987 7.097630931937928 14.826840370357132 2.492237438600049 6.095355908502755 0.6110372450322809 
5.018842764090238 7.9454026062445955 24.84509950204783 2.492289347627235 4.399076370570089 0.6461533446439992 
7.14765267484876 3.6297359117592816 13.86887106057015 2.492518223945245 13.54581978587123 0.7125856433420316 
6.427799252122353 7.813604456026205 4.6604137458965695 2.492704762137528 2.964852569939854 0.7633765358793562 
4.923085991742844 3.0749141308228047 20.30090845292999 2.4927637765753605 11.16468015235685 0.6507529330437767 
3.066614341275403 4.959111460174799 13.874336978200631 2.492774794601547 8.376508346993415 0.5719928523765991 
6.498974851238489 7.783865653926277 2.634856400171941 2.492788213746018 2.8878089127097315 0.48535557896203946 
4.264957139465208 3.3344882162115566 0.1701930208558764 2.4929444745289775 10.455598857256469 0.6115332740119463 
3.8993063337259146 3.5887654208873805 34.99028189067126 2.4929977596551827 10.009849823495736 0.735451217839351 
3.0730025740381937 4.928769011518083 30.951681992116193 2.4933153326098294 8.409331213629068 0.5766549241671807 
4.257606093872252 7.6617457248021665 29.54422126251889 2.4933285376547962 5.217086896525064 0.6645215872960405 
7.8847177426112 4.772040515602377 4.646990087416356 2.493351905136761 14.927472527984916 0.779142505844454 
3.037340366971118 5.8902451222244885 23.48914438156092 2.4933880010078573 7.441353240263055 0.6277543455573973 
3.3061469035935103 4.315003478621382 34.502776959525725 2.4934330077809923 9.068210359366816 0.7001271406734612 
4.195262797289986 3.37515432862215 38.90631285052467 2.493453086646857 10.377030886559675 0.5633198831943957 
7.98566996027815 5.302460239728259 16.947359914520426 2.4935069898272575 15.46941950686821 0.9594385755243479 
4.7426104524281545 3.1242785233588206 7.7132008874798075 2.4935299198816994 10.980935505244783 0.5877552279335401 
3.2385263563937423 6.550600475053769 7.264602053611114 2.493596679278541 6.749400871732121 0.7458133564035925 
7.261839780679398 3.7351188770596355 16.98863957359316 2.4937691935894284 13.70806165807272 0.643804004573629 
3.5324238542899318 7.032206498468248 28.80623509767183 2.493794827790695 6.184505784025365 0.6096286749942635 
5.5030170528437 7.993825526884275 15.43477078436208 2.4938273519126177 3.914277790465306 0.7236832027632336 
7.337223292584105 7.186429012327128 16.087304788477685 2.4938789546472053 1.852027778976641 0.6894666204164778 
5.193688487060912 3.0249412293113744 26.881964379525485 2.493941190429663 11.445334061173437 0.6518474928774657 
3.204754182761887 6.475806646993024 12.356767474049555 2.494063346000824 6.8327391248065545 0.6717130676593608 
3.661390201392332 3.8147579414200337 25.719143394906478 2.4940983917125186 9.68581991017331 0.6812355861295011 
3.0923430015612077 6.150998963865883 22.373094319924327 2.494115449029125 7.176867642521438 0.6053391749253287 
7.565391910544529 4.101822243589055 13.066781607317878 2.494142093519355 14.186913847623076 0.6922508986378878 
7.982386458532386 5.7421555143459 3.665754893569826 2.4941695657338716 0.24253757167690182 0.6656701610683889 
7.892599297530423 4.795398422084509 37.65379236551444 2.494192210344677 14.95714507397736 0.8295965351566512 
6.499559538635945 7.785187664264302 12.289390054938522 2.494233736477767 2.8894776068333474 0.5096996730805764 
7.390906892867386 3.8734441269470627 30.242408348356825 2.494235932235841 13.899878057488952 0.5224260616538271 
7.167143971241459 7.355260589289299 26.879395110657377 2.4942655983308635 2.092073289205434 0.8469772922892184 
3.352569451256321 4.231173774632409 37.07505409954166 2.4942690215488277 9.16709433433792 0.6484045704061321 
3.753832709402256 7.281129670110965 30.370811580770322 2.4942981194121616 5.8523289454264 0.6193269959192884 
6.5089706064641755 3.2188579314504073 5.039089336241787 2.494319711186881 12.792939358993898 0.542332155561374 
7.5171919264106695 6.967253791854903 38.394383032382834 2.494373059044894 1.5686184028726338 0.6874851732180467 
7.847231896614422 6.344057147846343 16.61682500584073 2.4943796914893763 0.8610564278373225 0.7139249182223729 
