444

6.75744076378535 5.626540384696076 18.88763062002554 0.9106082837451384 4.552140152869157 0.0 
6.966908066566063 5.67903510819753 4.238526400868526 0.9444503672489626 4.939002317023203 0.0 
5.677397653531273 7.102392297442075 38.69570894324137 1.0195837878435472 2.5586614629090088 0.0 
6.929993183765678 7.438125255791027 7.444626926175339 1.0319753551504638 1.1775016460244139 0.0 
5.716900129346602 5.773572365328818 20.97014668019424 1.0681491074898375 4.154529007456889 0.0 
5.528796034142374 6.006552315112849 13.168123004919131 1.089370350715528 3.934459306968968 0.0 
6.393656916932914 5.393691607993155 37.2630353003903 1.1114077152606896 5.1308794480549995 0.0 
7.424971521951251 7.2994064252529665 23.760411073276174 1.2225477287846678 0.8713205725798865 0.0 
7.736156143799768 6.439039297512526 38.55664421585168 1.2376583612215766 7.7154514522257 0.0 
5.445938889862351 7.153874261246759 27.399971045140262 1.2404016984129005 3.208116338089411 0.0 
5.331717350975893 7.038107533990926 3.8147696672773534 1.2862519450514303 3.485692931259276 0.5318465782035002 
5.263639270320494 6.014670895910907 22.186840756585127 1.3282063819939889 4.669518264358297 0.45136462290400153 
7.646529997359671 5.827072730236974 6.290106206676924 1.3294217334000085 7.647412317611693 0.4132419142670499 
5.16751326074791 6.537137055313654 31.933186929965103 1.3330041527167271 4.15061419233035 0.5071717801857561 
7.092884161108774 5.302444068099259 9.057551882937688 1.3362828437588747 6.911377300081849 0.1896744699183605 
6.148013207037099 5.19492881180015 28.329601025399455 1.35170466770285 6.013666870220318 0.19645575014210306 
7.72985966402257 7.070032778604402 36.514223015649264 1.3555412800328723 0.5883304520054864 0.27942708657460397 
5.793175652303134 5.343288496728714 16.719345819231236 1.3555744761160182 5.644441503332953 0.29349769126326625 
7.422819609289181 7.50342131641283 3.4115187259428765 1.3632499292207187 1.1277046203759848 0.29751444888395395 
6.5645410845285035 7.863283740295222 18.665194841574902 1.3648106491911038 2.079274390343837 0.4071871526952583 
5.143970843645439 6.2534649261094355 32.9376081425637 1.3782578189663524 4.577793702313578 0.3265946544217008 
7.488123884457238 5.532586189707459 38.99148119173254 1.3828515073497936 7.617267746476379 0.6313461557461373 
7.377853662653031 5.427625764002432 12.285336696933307 1.3858620259840833 7.4814007871572485 0.35612316770527036 
7.486300120835351 7.477062320538371 0.5692314264288072 1.3883222632284102 1.0838536204092435 0.13495545927284947 
7.844524093301079 6.115127617786801 5.083131914944076 1.3985248614370613 8.397287032143332 0.4425463124438807 
6.1203548379082235 5.151878707450022 12.839372553293927 1.4005575563061714 6.215516804258904 0.39935681444113935 
7.807887672542455 7.011895604155603 7.895588491098337 1.4044953803919578 0.5239652016532723 0.06300691674699123 
7.889207209611108 6.261362507591899 12.66070271673511 1.4095547254428649 8.616701098974369 0.1765919893202015 
5.0933221921632175 6.3731379445138145 26.864387403954098 1.4123867870320348 4.564177215319543 0.5598293325025261 
5.2948204491554804 7.249539766173026 36.24653974618292 1.4192489601364928 3.6690460458579572 0.6593789472278925 
5.084243033428049 6.382605384761524 9.984358626327484 1.420615811570463 4.580524835012509 0.49484987390066704 
5.116916558048494 6.160558522838443 3.23712446470833 1.424127916943575 4.816770332066078 0.5603162058400403 
6.389269008988665 7.920236632245674 15.748756580117671 1.4245467503535583 2.348515605285609 0.48250628202201207 
5.681130242718925 7.667911879045007 4.580453568357989 1.4263820794597777 3.1127750619387538 0.3220794309199528 
7.897666679383086 6.191619046861502 21.60152152373452 1.4312829765341135 8.682198006243567 0.28295559908254736 
7.115931051099418 5.2052093595905955 27.893310138293444 1.433824906395555 7.393385873186677 0.17552758301327956 
7.918010635053198 6.234705199095972 20.52970496168726 1.4426141176734313 8.797398480237621 0.3108451398239633 
5.371141726981568 5.597178696625164 24.21728759457485 1.4454782275736968 5.516219945666179 0.6160547646343654 
5.276410933405039 5.727275458490768 5.356184716428615 1.4471604682761967 5.361539759515441 0.425485792819091 
7.645945350924698 7.386741067017361 31.3550512783424 1.4489653091917072 0.9542372515531659 0.10488130374927655 
6.013349780503393 7.866648543717002 30.274274273121698 1.4507090260213782 2.775041596465641 0.550702607968185 
5.14897692749873 5.955108686912227 16.20809858778425 1.456766929027871 5.1350389049497185 0.5351872922189287 
6.43339137417477 7.956171363945602 10.641559163930296 1.4576939837323595 2.356372182550343 0.4963523921440347 
5.083747760880037 6.1534278195035625 20.142636036663546 1.4580406993998358 4.930491560746745 0.3169117559477584 
6.271448668941144 7.941203375231851 5.362024118916715 1.4592131029114461 2.5216228461682597 0.5484384859803045 
7.051328876299429 7.851916133774906 13.591635747933516 1.4600139597286326 1.7280329055544073 0.42253641939839903 
5.042313532002709 6.602552088158822 18.149432347785428 1.4612894202614881 4.488139652016663 0.5002474327781022 
5.042177908537383 6.387492833458644 6.088713284553897 1.4621570069180683 4.706120194726047 0.4861011050585802 
5.844329489095411 7.808087613581831 7.371487572883353 1.4632146198272138 2.9782830787058376 0.47153244147018747 
6.091830248815991 5.094219011196188 4.955300215057505 1.4638383566035693 6.484522754449717 0.4994040604377195 
6.767172615356678 5.059559417650785 32.25343439882279 1.465008627167455 7.172366702783597 0.26462662202104326 
7.655982088213552 5.596915735819254 1.2895858410655023 1.4669205078944954 8.244088384639383 0.6376568467324467 
7.966674907922472 6.446275982544538 10.60224236823391 1.4676585282622607 9.167834478168675 0.34953384776953617 
6.365304787643612 7.9620465203560755 14.500801404387694 1.468238001114614 2.4411877254686116 0.3805326033483281 
7.969801728921832 6.522762404952992 0.7613272840824834 1.4699779758284977 0.022763314716256033 0.6507289738912259 
5.490539396570782 5.430641091769699 2.247234446867104 1.4705574400502646 5.817225918384358 0.6373505444902708 
6.607018741597864 5.031852785193458 14.85196443120848 1.4720425453761177 7.043950309063241 0.5479032530936135 
7.746317832383218 5.713705776554983 35.013899610454104 1.473623678263691 8.429656409416078 0.6910215486369435 
6.98080626064073 7.893925615100597 9.600046852973982 1.4745179824962804 1.826405290104427 0.5162759026581845 
7.72501056676981 7.320943023431573 26.047674510115797 1.4746519373800253 0.8706514644570937 0.26655263106679344 
5.050169131712901 6.2165303668457685 30.91832813642918 1.4772828366831847 4.926259577782232 0.5981304043354448 
7.631480685813151 7.450296543126864 28.997045397623666 1.4776034861379657 1.0322294556420584 0.5486834624216553 
7.9587090134129905 6.751457727138959 26.933121316671738 1.48022396087558 0.2526831613311238 0.7387879455591496 
7.067330954465183 7.873524252546623 4.47840562358823 1.4860798377705478 1.7522260815256274 0.4458094271059503 
5.8048648456590515 7.813708892390245 17.797822508799158 1.4862852810768943 3.058006412371153 0.5469041853619826 
6.005517104333614 7.905291265065724 39.29374623512918 1.4897506079128262 2.8441395476238327 0.3883810284386148 
5.876218837340158 7.853857649943258 21.597944997945945 1.4906486759794029 2.9850963840213005 0.33956654749562504 
5.871554533524915 7.852129526908156 36.800093094791904 1.4910392221098538 2.9908379149462085 0.4059487981318915 
5.009761519181044 6.565838387164325 24.41922772510486 1.4916921341007283 4.620429267911852 0.4020575883250908 
5.810502608088257 7.822864636253913 16.712999301199673 1.4917699217051856 3.060025620695793 0.588933640447303 
6.010374980398257 7.911076214904552 20.58914494017546 1.4936093010186329 2.84500367985304 0.44029804498046393 
5.205160538775479 5.751242701764612 30.02146444063517 1.4957428662724643 5.483207044739434 0.5104151468967929 
7.868640116475893 7.1039997056173245 37.61679362366874 1.495991782334701 0.621744664624142 0.5169720579559833 
6.850884832922269 5.038843134302745 16.920404755227324 1.5026974253485355 7.435449088362308 0.7101567877049807 
7.320790150711453 5.24004249817996 33.11652147083598 1.503725167009423 7.954371933096084 0.5155026798103892 
5.166818471495596 7.195797835578432 1.3554641517740862 1.5038309798447984 4.001051807570805 0.4563440938957231 
7.3115050929313945 5.231800027912362 3.280857685522271 1.5056133916303591 7.9520811685007935 0.5104836446128369 
5.013461918438889 6.245484111624723 14.132278356786472 1.5081690241371635 4.993792438587359 0.513578623448142 
7.794046220730223 7.2760741499451544 13.027614191927803 1.5089223663261366 0.8151478766686537 0.346692645748564 
6.651901281546065 4.997305375800424 39.44403462556115 1.510352651844474 7.2695277276734345 0.2971322896184027 
5.071509191356423 6.9932398872277926 13.303430982476115 1.5112483504479548 4.245281424904366 0.5067023865923828 
6.643357802041956 8.005513486998755 34.87534226663986 1.5123234835647614 2.2319788023502696 0.5222117616316685 
5.964770406199854 7.921333319264626 2.01602181070605 1.518768949686316 2.932654080808959 0.2784887707667196 
5.066392581624205 5.9908090263830704 9.021130231898809 1.5213499523893477 5.298673415110649 0.2789113905696968 
7.924403241720945 5.957501809179707 33.61669007525039 1.5242141851027498 9.022261277358357 0.41178895782767533 
5.971593481494397 5.0690719681536365 0.23330469657684816 1.5253748657700235 6.648569912037269 0.06596825840908488 
8.025400463296842 6.466794594459483 24.253240287495334 1.5257618334403733 9.55343630681977 0.9351336949067742 
6.503333120637826 8.028680596664586 23.518180212057445 1.5286842304125425 2.397918450682484 0.5069524165027303 
5.351507675201976 7.517356155183167 32.66259727728065 1.534290769902841 3.707871275130019 0.6422700161102521 
7.806706512668768 5.693449679129738 19.56344389114075 1.5355798026631153 8.799158435042667 0.5767061709061575 
4.987639777712227 6.790800768646325 35.07233903954385 1.5400644561198118 4.545698028739643 0.5430163175780616 
7.070857199517544 7.931434560760482 28.283639687066582 1.5410654898415475 1.8359086107465306 0.38887658928120106 
6.145465176125194 4.999463717570915 23.848277550284145 1.5418508605653267 6.9080652064624495 0.05668484477621797 
6.6626783879630445 8.033662004476248 6.492245462826677 1.5422656716287104 2.2596036820159924 0.4919861056364445 
6.22371244516815 8.01849157656057 27.540702867677737 1.5434220035493733 2.7021864435234857 0.12147375386726961 
7.85879933406461 5.7666014683381475 18.522426306830827 1.5440884160235742 8.937574814318264 0.31667463908637256 
7.913492505297551 7.125527351654928 21.09847792909525 1.5457184511419833 0.6439975019497144 0.37337015805190804 
4.972306265136822 6.2537430086534345 35.93873507575542 1.5474141828635504 5.108653492686564 0.2785750952504234 
8.036535095829569 6.683220062396226 16.442346075782993 1.5474203346151496 0.18365089187330597 0.4507474739456527 
6.086779591052389 5.003360707959249 7.332961069248718 1.5526365565872364 6.8983664742278865 0.0 
7.435665987099053 7.741427807184694 19.150494159225147 1.5545461845392206 1.4378471342912942 0.0 
5.28422451532238 5.527953232018597 28.942443817461225 1.556594021665954 5.940034138140199 0.0 
8.056777655130364 6.5390930044661655 35.6429859852619 1.5572684195447453 0.039097111630994164 0.0 
6.516789816038552 8.063263030631589 19.6734313337787 1.5633531913365162 2.4389193116246375 0.0 
7.767334525894576 5.577907597984896 16.45136017503355 1.5672878479648888 8.861736100953735 0.0 
7.770730667060924 5.58174232051741 22.447651745616092 1.5677862080455545 8.86965282272931 0.0 
6.977790662087047 5.0050379270047145 23.08218719677262 1.5694570769766032 7.881388923879844 0.0 
5.347045090670979 7.57843492231596 23.623399643905543 1.57871051957492 3.7724524049041808 0.0 
8.000299021825974 6.006663907796246 27.62703338276863 1.579328228951423 9.421478704804509 0.0 
5.448865384170013 7.680726693010764 29.430356570931004 1.5808224138669669 3.6330382288304257 0.0 
7.02981186061735 7.993261187966577 30.852472009163307 1.5844650779168874 1.948654525543617 0.0 
5.3617291022827445 5.396726673216084 8.043940842826203 1.5852042991939217 6.200334700953682 0.0 
4.912915023827303 6.541074448545975 19.217128847774617 1.5876163994858614 4.946564985229623 0.0 
7.84420888421319 5.654382174736008 24.888405335616945 1.5880702222514826 9.086391343809932 0.0 
4.9122731299797255 6.455243028420717 11.094883686333432 1.5883575794792932 5.034735399560574 0.0 
6.766964207855473 4.9329139698996025 35.051823540994135 1.5896630190111747 7.759345766821651 0.0 
5.9045362173085945 7.978093895529274 13.551015537587105 1.5935302571642782 3.113383854448056 0.0 
7.076669248042398 5.01422965939646 30.107635949580157 1.5937568593279687 8.10045932506614 0.0 
5.695261445495664 5.121784916003727 1.2542871333894823 1.5959576933178967 6.677315432166392 0.0 
7.003901085749831 8.016193875744012 25.634448196557102 1.597735952234756 1.9970653949890398 0.0 
7.338122815493492 5.139340850228368 36.983625362401824 1.598074834201452 8.413012491914841 0.0 
7.3682669995342565 7.844177486067938 8.669996637900404 1.6002189526849562 1.5958596553373514 0.0 
8.081560792776548 6.762044216927578 5.853354679417436 1.6031224884185167 0.2632253891229226 0.0 
6.616786303367112 8.10028108861292 11.623368031433586 1.6045368812296932 2.403510973507542 0.0 
6.858235811987935 4.935365181842778 31.16743845772192 1.6051214942117413 7.925235353822966 0.0 
6.735822334028793 8.0878545662568 0.14097594906918687 1.6052707861321567 2.2848745585457415 0.0 
8.017490081791987 7.0236168516490345 2.7057267773705505 1.6052883714983737 0.5333767974741903 0.0 
8.100673244262634 6.687821992211429 29.530352235084926 1.6116550299789743 0.1882497634907132 0.0 
7.984967113603904 5.873579947434951 8.489158934957949 1.6116852703740578 9.483145458087744 0.0 
8.111173888719588 6.451770520812481 31.601080855101294 1.6118955866787656 10.079601988483144 0.0 
6.456548409900595 4.887760168379597 20.975573643332865 1.6128252587759002 7.556803128491545 0.0 
5.161794995314505 7.400755307387614 25.089854901117533 1.6131189535655026 4.112073345789536 0.0 
5.327287614820518 5.38561947054273 26.36964062153362 1.6177448200463562 6.3116177315977815 0.0 
7.103385200949077 4.989552879820186 6.7356732204345064 1.6265067487052889 8.282891786539233 0.0 
7.205398841237358 7.968589146276182 15.148372002947319 1.629215027483851 1.8296295411250743 0.0 
7.389600671110625 7.867073722670273 22.934839328089836 1.6310364549132634 1.621096325227132 0.0 
4.8754999940823325 6.671015578510556 15.267622441456542 1.6334768432150475 4.960389307356113 0.0 
5.295279620320855 5.393036518667341 33.6153673736827 1.6360682572002867 6.355679874039339 0.0 
6.030380526996824 4.928624978465942 18.781771279001767 1.6400493613684137 7.252264423038863 0.0 
7.4423841612378165 7.843688483085744 32.98980964850156 1.6412149910749538 1.57420543239461 0.0 
4.962028255992326 7.0735853069057395 6.948982994359994 1.6414497219422102 4.570815645468272 0.0 
5.777508479542096 5.025325100430489 34.452491858138 1.6421510455965729 6.990353833061043 0.0 
4.983869967380388 5.854138347892286 17.30246117642652 1.6479646687579366 5.840888700978255 0.0 
8.003442335888732 7.179624619712209 33.56175267878206 1.6499177194822585 0.7004788639427062 0.0 
7.807557178968899 7.5145883455614655 17.127735697591277 1.6550212346741229 1.092145584701278 0.0 
4.965735759921811 7.124667524340079 9.074106568739857 1.6565555452045255 4.563714915979254 0.0 
6.177130489509555 8.14225397146337 32.65888182676281 1.6736913776415183 2.9539346058977216 0.0 
4.844280727241145 6.750684278211729 38.13828990774739 1.6745891787323948 5.009246916904274 0.0 
5.823426264232211 8.03437164605182 25.525839427110903 1.67691632711312 3.330514753192869 0.0 
7.884485574892075 7.470219724883215 38.59945811068822 1.6905994858737836 1.0333776264732464 0.0 
7.486760533177733 5.1267822844119415 14.316157326259088 1.6909829225163944 9.022194074322417 0.0 
5.505480128382551 5.131182279901189 39.25596877606577 1.691960911457027 6.910074952041413 0.0 
4.922730065009397 5.881133586826966 38.675060833199204 1.6943364734251927 5.956440461050892 0.0 
7.656207129895588 7.756060770341485 35.73513302582237 1.7071917250303885 1.4114525766038017 0.0 
5.13475636563278 5.472087465545567 10.973300879861334 1.708945393998519 6.4717023998621315 0.0 
7.518397521167309 5.125163232159743 2.23840680813759 1.710938236560621 9.153413040482533 0.0 
6.093511897727375 4.82936573720991 26.027438927523207 1.7193752985597377 7.691991961091059 0.0 
7.981496747778017 5.616248314235156 4.197907501237431 1.7250651163851902 9.91105793966313 0.0 
4.793555424323504 6.796171329256364 0.5152424126415411 1.7319556998171803 5.143465183451395 0.0 
6.651998399507448 4.74914303621356 12.058160105186182 1.7574423521391234 8.43394051167185 0.0 
6.514492328474642 4.731690416817997 9.645590041023127 1.768368968727375 8.347734932189557 0.0 
5.22953074007145 5.1991442541675035 36.42218134705929 1.8183283014595633 7.162045532405465 0.0 
5.926390301142712 4.58589055270193 31.74753778880443 1.998209964658089 8.83454760236592 0.0 
4.499319914483852 6.83689701035782 27.5900162328591 2.0288470617986314 6.035346230081714 0.0 
5.051834415961634 5.0488228665846115 3.219749881664775 2.050146002444922 8.053034012453601 0.0 
6.4872893393906494 8.55124448876889 37.31534416621627 2.0512838695797035 3.2348599094996935 0.0 
4.985346341071988 7.937087426144419 21.05073131809685 2.0879166594685743 4.974391648228593 0.0 
8.099358172038805 5.044202953664387 25.801993505331268 2.16270469611244 11.991640431778755 0.0 
4.22697677852851 6.097346758101796 22.59816763847535 2.3084116180958216 7.656812507527075 0.0 
7.329609510149794 4.30664363827055 20.9541292606185 2.3450083302346774 11.898560389626393 0.0 
8.68921808465307 7.4691776148744005 10.951880332587947 2.3941556071704477 0.9978141448708229 0.0 
8.729881309800549 5.586864069797896 31.625589459781605 2.409603262535947 14.203445890216596 0.0 
5.491938236369609 4.309728716302434 14.870756709326049 2.4111152638320275 10.322099966178161 0.0 
8.596718547734401 7.7072400598138096 18.208400554332382 2.4194332457070824 1.2639535708266791 0.0 
5.055211431041359 8.45523931265057 9.108296367141122 2.431126236691101 5.365923712740422 0.0 
8.345731458519326 4.906322669059948 37.20715802204967 2.438551219909088 13.585023791489316 0.0 
4.0693444761183475 6.9806994748773 6.365950930509129 2.4777324837285613 7.300258933076961 0.0 
4.197639593852358 5.574520832972411 24.62302800119854 2.481405877400635 8.743967883627043 0.0 
8.711873334799403 7.625633193318981 6.070728167329719 2.481820649260967 1.1683074663013997 0.0 
5.921641334307438 8.915767953383208 2.506015158359048 2.484035738626756 4.485630086688502 0.0 
6.245672123000132 4.0284586674023295 22.957823899712956 2.484592366517681 11.453591563931116 0.0 
9.062789314083467 6.307486112465652 14.673681413835268 2.5700098570382948 15.955153790897274 0.0 
4.104309847965171 4.674346410544484 6.634328252466666 3.012032923666085 11.423936038515123 0.0 
8.740756820794173 4.485616275687821 26.374475154636258 3.013093579480965 16.72549248438068 0.0 
4.091016427639461 8.381569454070203 12.092969116773347 3.0567148153520916 7.57608418750945 0.0 
4.974957734067443 9.168155414423216 34.10926848615725 3.0732405093641217 6.423227466211383 0.0 
4.844469758699772 9.102095677504938 11.882601517117877 3.0841015376847554 6.592051526839072 0.0 
6.287064250886814 3.370309040745486 38.145931165545775 3.1369263832117302 14.56931770577912 0.0 
6.929951390857916 3.369968276779076 1.1133354128483433 3.159423489636994 15.319722072307322 0.0 
7.856253299562297 9.354228632200144 21.522634831598182 3.160070267801768 3.5620520151296162 0.0 
6.790610546495433 9.668996340575484 21.510760028796327 3.1822935591040595 4.707719036972893 0.0 
8.290361797325446 9.138215020032495 12.129304462373163 3.1883497074893574 3.1072371122442384 0.0 
9.364127132139018 5.087553182008429 15.033435752673896 3.1934668062639067 18.602046308091957 0.0 
9.507179615398876 5.400369098320189 37.2570378557302 3.201924008967057 18.995800518116056 0.0 
3.3127655240231135 5.963382101300407 8.010295263194187 3.232092568918845 10.69303260024514 0.0 
5.715312144912046 9.636153641684356 28.80107321418282 3.2328307555720555 5.87072328649441 0.0 
8.004370989868104 9.36579740158145 2.698550955376387 3.2366536456759993 3.519526017994451 0.0 
8.703330222675675 8.875993063525616 24.81122908097447 3.2403714460039743 2.6671017540676623 0.0 
7.387072861295485 3.3786901322282183 24.59612104532487 3.2449150299963883 16.189812606545587 0.0 
9.746935520172812 6.653155778695712 22.39424895030197 3.250545641074398 0.15321250318502067 0.5175201584427283 
3.3732213690303325 7.3971993914125775 12.277266444840258 3.252954250376054 9.310474567550525 0.14251940851752534 
6.357116035375393 9.75114272962273 37.77860702012802 3.2542810074923723 5.254742565502301 0.43464589193331227 
3.3653270718673394 7.427242847581049 16.344426555157703 3.268937696677318 9.329520647377194 0.20496916440653903 
5.0056258957862845 9.417498542739514 0.43432147454134906 3.2779493147746717 6.7006684262890275 0.32597822313504904 
3.8170712444462325 8.384030768553057 18.66819230016143 3.2783652396021883 8.29220584719935 0.38794253170478216 
3.3600104082112523 7.4505000296107475 36.72427284354832 3.2806988497623037 9.342292883724978 0.1965473298922731 
7.867209606681678 9.485743670511368 5.7872126967437225 3.283889062468672 3.748171234849938 0.45334987777206964 
7.982467711971989 9.430555123071024 29.696893651624833 3.284183893511031 3.6207045925671544 0.6318261986879832 
3.8593071434982598 8.48079724160116 14.631882663689268 3.3010326376323618 8.246059641786674 0.23682801768528952 
7.575823579092596 3.3780700206920926 5.28075900204135 3.302096783716836 16.65659145296322 0.3962778449061565 
4.767764058570489 3.688700986354842 15.630677428503951 3.3021271176171316 13.73739399322212 0.2519443137117495 
4.840872662470735 3.643411034109837 9.325120673060674 3.303453350992319 13.828921089584618 0.3330969070341202 
5.612244565910396 3.3178401204586017 35.82030688627147 3.3036723823222163 14.669387007182436 0.13264864123236897 
3.228248344299038 6.977513392737508 17.247443721238085 3.3064146649846675 9.908218918709565 0.19195050671880093 
9.536894797426385 7.815108511258231 0.5702297902628466 3.309416928556943 1.3524397449699777 0.45703574768500577 
4.507802272985678 3.852097341387026 4.809043685087239 3.3136445604516296 13.477831574426506 0.40975101275387144 
8.89297610471203 4.203636898384518 27.504344277962197 3.316567221116412 18.30210117125994 0.18122687612454338 
7.944766887047233 3.513842148554531 1.0471189286656255 3.317301625064802 17.1272617662016 0.35802700470135695 
3.521949389333212 5.033264481336603 27.16817879025487 3.3196533736825025 11.948211289519783 0.33527338367282133 
8.402237827470554 9.221253892317183 39.416122305673184 3.3202005208588394 3.1897888054868098 0.29385999475708025 
4.194127712032083 8.890997201199346 0.8415802198412834 3.3217336775487416 7.766454890889829 0.28586505656384864 
8.316611130655694 9.28140790344047 31.74726051568095 3.3220936057467227 3.2962688923157017 0.19882467551941427 
9.212306029498656 4.578926702694982 13.037260255517154 3.3237218011249254 18.83527749715251 0.13407260394722362 
3.2122100091180528 7.009321485894963 3.658717562650857 3.3270063721216045 9.940766634972984 0.15140126608739748 
4.893848834399776 9.413706119719347 35.2538498136624 3.3270715229536223 6.902312647925559 0.25510868048002916 
6.615166993066595 3.173907729517172 36.16868790168576 3.3280855199435018 15.798423520387473 0.23404123540850902 
5.428488618912425 9.653470318199112 23.055005473418916 3.3305422512802645 6.322517535509007 0.2461716226466948 
8.125397136952301 3.5927945691861236 18.605826830709574 3.3307295401708092 17.393690127905664 0.35792282504599177 
9.584331998473907 5.239495167383499 29.332732365848187 3.3319628314042777 19.64264936130111 0.5403296317105438 
6.679518906184452 3.170229111131654 5.683091527551561 3.334606604988473 15.893569152917344 0.42826589594306663 
9.83154536855039 6.323853558095799 36.582139430109365 3.3361987518289538 20.785726594408622 0.35910784253536787 
5.719633274781602 3.2555356078279107 31.356380624447006 3.3369928705199063 14.937548049152731 0.32505263657555794 
3.3313135832378222 7.55423531586778 29.053653078657604 3.3394588946408614 9.418637970136249 0.209073458092475 
5.1060571176491365 3.463483401633553 10.57413905671416 3.341183893683729 14.307037861614099 0.2810017825099476 
3.167711351020312 6.7561282748292335 26.05193559034217 3.3421174924418633 10.24319210831667 0.22914727070293134 
6.4355023665774755 3.1571544693462332 24.904123785942907 3.343467688871685 15.69121865898068 0.28906755970206316 
3.2428972721457114 5.743242596777744 22.622678611332752 3.3438600370122464 11.268416971530943 0.523979148615924 
3.315795789958777 5.476432358683381 4.972225381447892 3.3446744486713076 11.547862587675429 0.30570935497612944 
9.784390062306896 7.141231306238998 15.234038494057923 3.3464004048352116 0.6452216698798097 0.1803115762873605 
7.3221448448287525 9.74540196063311 10.320383045411063 3.347918163868368 4.428256958867806 0.425372999502104 
4.7248074023115 3.660831857007894 12.55117207933651 3.348460019631306 13.908194417499029 0.27897036569211997 
9.825554499667103 6.891887023677381 38.70787625630544 3.3485650911372233 0.392787151724427 0.43920411442798946 
4.028629347536304 8.763601034077169 38.21734471667625 3.3513523454471428 8.04340033328593 0.3060392370435915 
9.50955354795517 5.024875382727032 39.47371855870284 3.3516272457560476 19.531443078940754 0.28526547881623615 
3.372981149835697 5.289217257986854 39.921400582907225 3.3532434653093346 11.773292706073246 0.10162219808040428 
8.948926372265298 8.791131416099082 3.0183082149278704 3.3535836865378297 2.52229998874229 0.26969957775474523 
5.719696814064353 3.2374731191966575 16.79892675685251 3.3545423994854655 15.020391634027831 0.32162366166044165 
7.054863779224915 3.18925584912399 18.30327919144856 3.3569183257945774 16.376526823382477 0.3982715795922765 
9.852948819619034 6.330203588335014 4.756224893061358 3.357245389958705 20.92432602341465 0.26713616988735717 
9.285983707042918 4.6240198729475175 28.56289659837035 3.358720984691111 19.113005495155228 0.3275908152861299 
5.156422013688408 3.4173249762114715 29.017076359251682 3.3627499323605257 14.464417923479488 0.2891468338479659 
3.1427184258731415 6.305465315103399 16.328434604012493 3.362912920609087 10.759545869374897 0.7537033320818944 
4.678382834633924 3.670613292531627 20.193023646762008 3.3650732885860086 13.932648981928622 0.34246682698782366 
9.223394468070158 4.5214807480331025 7.525186801501434 3.366216846716621 19.03562321483058 0.401866280846275 
5.80684766782052 9.795865637556481 35.82842438342551 3.3679653288642153 5.988528864000024 0.3606707851941177 
3.838912001609904 4.43437597856963 25.264544423195225 3.3687077541820067 12.80672368411669 0.4492344359994867 
5.495891518195332 9.719293057681297 4.54558878467077 3.3722517157630874 6.31669145208955 0.37302781401279084 
9.062590706030958 4.306536027392157 33.43798731042679 3.373152134986626 18.806145632805368 0.3503953419780624 
9.797262608543017 5.779068928835809 2.784824674345227 3.3751566362268077 20.480205768958847 0.47333378880497373 
3.992769687999738 4.24017496452551 13.030440834309317 3.375353763440242 13.079962866058906 0.29488742363577725 
7.525269581508905 3.283262522195555 38.05917264137159 3.3761779745563083 16.95158414539229 0.48682737439509965 
9.234072632852918 8.485907551961148 14.923747166930795 3.3791984207281485 2.122798373222036 0.4057815257097457 
4.496749822730065 9.22292566515118 12.84058732486578 3.3804342103746103 7.4541311048553105 0.31688460594367074 
3.1177974930951002 6.5377718178969655 33.24719019103503 3.382413414699779 10.588392532030266 0.3382312040555583 
8.936858632247034 4.153986997899349 11.840534201730833 3.3826109737275734 18.66111654662669 0.25005799840632426 
3.9472439195194067 4.279447334759805 31.807541739770315 3.383403278584446 13.051501191085752 0.38783913064795794 
9.427567635551533 8.196659096085776 19.027651976507755 3.38368206973696 1.7772578522348752 0.51960996244042 
8.517374001399372 3.7814573364743485 35.358269256167276 3.385302360931925 18.114080892446836 0.41687654126565815 
6.133431675549684 3.1319625653425494 17.716015138215482 3.387926873140011 15.59794191488324 0.10229621764674145 
6.5595096892814215 9.89150913991433 7.31548924761109 3.3920311981526345 5.268677403971328 0.4135362307114624 
4.4537438647174366 9.205462574748601 19.58816365578525 3.3921515170385383 7.524959806150086 0.24816045264073322 
3.1463138198983085 7.009639758964877 31.145603229239093 3.392188626613038 10.145298120491848 0.42481567338629417 
9.869175109614197 6.927650139606346 12.70560013794028 3.3962075262193814 0.4287884042848731 0.4440263955332624 
3.4477998774135674 7.992325720848861 3.4289172839395974 3.3974934356704356 9.128509796583298 0.36709245576017563 
5.034093591718083 3.433424277642658 33.258455923099895 3.398936342268481 14.501472418231533 0.1658196998999789 
9.886946960551906 6.212019683174251 9.838696350473434 3.399167894716417 21.069275836251506 0.5131304015727144 
9.780986322579729 7.3885482006602246 1.5571876403146234 3.399174775420023 0.8989917939769683 0.2767271590065399 
6.686155026345297 3.105750110060569 16.254207841249737 3.3993508217286803 16.205311547342554 0.5565674047642816 
7.081459797965898 3.1507172216237063 33.196534958392355 3.3993809180759027 16.603538329703238 0.633058016850851 
9.39245394461685 4.710349468151787 21.281776303882488 3.401343682704552 19.486661360695482 0.37855939597102567 
9.138196829378224 4.35235533741259 9.590914665284707 3.401831875222744 19.050024224306732 0.34616875935233066 
5.857449484745649 9.840892843679969 18.277487223734376 3.402122301976464 5.990474449191417 0.4846447614912198 
9.862119707971383 5.979727134432242 15.215967027190423 3.402136503048587 20.853931716826548 0.37107343522475883 
3.4356912701669735 7.979097961176931 35.79543047267581 3.402604703824506 9.159445034015366 0.38542914828282565 
3.112173631391599 6.180858396046837 20.631907844062077 3.4028251302722254 11.009901760468818 0.7308470234668103 
9.202526899708303 4.431350288216816 37.42404768083542 3.403375276649291 19.16055760297002 0.3277531263138866 
6.107419477700494 9.881388203374858 33.72196445500715 3.4041012982006857 5.740605809421851 0.5465983628186434 
3.8319132672495595 8.614740372241743 26.602873652670773 3.404528404268066 8.413872544681201 0.4805583895786141 
3.6344562177555098 4.660959604620762 37.614635020407114 3.4049097996564717 12.63958883893066 0.46400883203746934 
9.14798977374841 8.641083656197987 37.5202836218669 3.40530307971468 2.3154168364236867 0.2932579258034354 
3.1213182890815627 6.925987016089014 8.247345999753414 3.405430228557203 10.2713687276053 0.4413613370896938 
7.3272921426683 3.1956348426634857 25.715071903222025 3.4063530912605464 16.887709595869218 0.5261700135468602 
5.585162344338231 9.784766920288483 31.503878354998378 3.4097832272504083 6.282259749921074 0.4225158281459166 
3.938104545252809 8.750823092786458 2.95525637682848 3.4102071661520994 8.255225518035282 0.5444588866492333 
6.059844353551187 3.1178681096500647 3.7528988084523576 3.4106528871790522 15.63093640775103 0.263115929371343 
6.590756847292461 9.91139357949693 8.420483697686286 3.412600615302551 5.269732962305547 0.4147193798424207 
5.560954695905881 9.78194233676409 7.646789237230045 3.4136419825438273 6.313447334267444 0.38403734241464194 
8.622600806957117 9.174176430510833 1.8613689202384407 3.4141842022941087 3.072370177697291 0.4741628958717191 
9.779530897686119 5.546341440548604 35.09370829333196 3.4153751707378848 20.49292817167246 0.655632636692541 
3.3878109049902356 5.092282681064752 5.981275236920084 3.4157559943778106 12.181874998009945 0.476434654111781 
9.91538748768145 6.3919130237606465 17.229195666372846 3.417097377225821 21.36215102530482 0.5301579341494547 
3.1340874497470335 5.907332513665777 10.250380627723715 3.4176925030359526 11.332676484708323 0.3977562734747857 
7.177766572700229 3.1494296198613405 14.309426953816285 3.418433764069787 16.79127714302991 0.6895703581101205 
9.725645641067167 5.363080239221163 5.21790029674392 3.4201427373992783 20.330416842507816 0.6772429637061038 
9.684161905182364 7.7484743674871615 8.473843800112789 3.420171820930499 1.2780083121797752 0.468258455478926 
3.2194405435408324 5.530924905330071 37.27171889928776 3.420698303924683 11.72897015600283 0.41044537954811106 
3.3771845081598713 7.896302217966969 31.604968274548014 3.420765481581014 9.30834275148245 0.25024420258993074 
4.992413927148013 9.571584773399419 30.673886266678565 3.421614938481016 6.9358550395601135 0.5186872613593854 
3.15204336153138 7.21480210131301 39.17074201877031 3.423412872720378 10.03486818039854 0.4477993573111991 
9.923406758753618 6.539249910451016 20.336132921413572 3.423631754635766 0.03925077028846147 0.48692295411614794 
9.7431678739459 5.402137581341751 17.244575132295402 3.423950897559267 20.39571580636695 0.5120955739201392 
9.861231050773764 5.846871372687305 10.886967294193667 3.424098593863948 20.857090542334817 0.5694346070308763 
3.743746618554658 4.467332541005598 0.7142073413946832 3.4247145430799977 12.93524729392405 0.4985486517638686 
7.428865445709322 9.7970910859942 27.408568694356077 3.4254343732693493 4.440016753704656 0.37306642082147995 
9.055278337892842 8.783208317741959 29.890024519024223 3.426731329752958 2.4988647315345247 0.5806923252804498 
6.088243128627505 3.097829711615626 1.7342918823298064 3.4269967015285974 15.736587424889805 0.28914750803343037 
3.1589230427410264 7.265035025396362 24.06821265050978 3.427546327099035 9.996420328533723 0.4188848463502254 
7.755839973031783 9.68944406504973 1.550446010226537 3.4277817144540306 4.098565860474185 0.5506752136868306 
7.607777635219877 3.2547728144672625 36.02785860756745 3.4290918294519424 17.287226158002923 0.5577025868069098 
4.179181000891289 3.9743910270923166 3.7137234219816193 3.4300002202122015 13.614430797909034 0.5175726770480835 
6.224727725982598 3.080896755440925 10.793529171200362 3.430166442287765 15.88870994511695 0.5367215888624715 
3.804297093811414 4.378617048879818 12.056682853766638 3.4303177380145073 13.06376605851537 0.48905368594336895 
6.4198444503382674 9.929753793094786 30.868538043643348 3.4306903085807163 5.469078579212294 0.5389175121722782 
3.3358308844196287 7.827300532682498 26.082029145560902 3.431281523870041 9.416836974804419 0.509215044857301 
9.704473306603196 7.728088060034111 23.44123099479763 3.43174146111428 1.2559373855579832 0.5917402537989419 
9.909155300737071 6.894313508234703 30.416813756807375 3.43188330327825 0.395186281364694 0.5834559597945016 
6.458073878505502 9.93221515605963 12.793962973563637 3.4324712201486833 5.433640348534311 0.5179549143036504 
8.75036036405035 9.092195654023593 20.848785436852477 3.4327248763668226 2.9379700571721443 0.6911292125273283 
9.18247296806281 8.643728890562663 8.212768290879922 3.433836743443219 2.3151936878309662 0.38936239749365276 
4.037698458255887 8.893813039085597 27.630883714131592 3.434133041769296 8.139915641586672 0.6318088687757153 
4.147780598353135 3.997744204028699 23.26938611302881 3.4342714193779 13.592460960287191 0.5122060734867343 
5.930022741426368 9.886645364954083 0.7275221016072564 3.4342744362173634 5.967172589156171 0.6273946546659617 
8.51316589124466 9.283289499273504 27.53752546824373 3.4350454643915636 3.2447451861991468 0.662426760030325 
9.824456969861476 5.633154871745161 0.33334211407137104 3.4356126994816676 20.710274789366242 0.5743845925367478 
8.56010367115675 9.249479092575037 14.16117214764601 3.435645851426011 3.1874624874523683 0.5967917292906573 
7.984660793371095 9.599893214298984 24.404650710421638 3.4370853366522875 3.863760839868945 0.7064339265092165 
6.276729990930852 9.929904769605411 16.19715646341244 3.437163980014873 5.622511876729035 0.5706384943229831 
9.92485888888008 6.207871158532644 34.3052622713609 3.4372951093494954 21.30468046553866 0.43289424132362514 
4.182343864635586 9.03966817739635 30.172400532722655 3.438232745622672 7.9441042335869625 0.6025911891042998 
3.0616906827449952 6.55032879244256 28.963021201751033 3.43867764532695 10.752593839142211 0.6957925586181734 
7.495824352823352 3.2079063159277474 7.564356566052695 3.4394108458258468 17.218132017112083 0.5347138202416564 
3.7702547615584585 8.593715188405238 22.574868164540007 3.4402256258787784 8.556872819935723 0.35202425507772556 
7.408905807488404 3.1817491960810464 0.08235903484218454 3.4404793509909233 17.132701555562882 0.6737680634079719 
8.038238138405564 3.4224961249841908 23.73392529230292 3.44052418552504 17.80781951505413 0.4077101278941193 
4.578885476256911 3.645646971941641 24.236530409814264 3.4406412515870586 14.175380136459673 0.4261675687324019 
6.470793186387967 9.941145622271339 4.37616826114656 3.441269566837008 5.434740759364008 0.4963316406593208 
8.42296508328187 9.353936690896859 9.944230731930856 3.4413295900231007 3.3651926313839793 0.6356658623897528 
5.753633868300428 3.138257092072001 6.438212212786432 3.4435995384992695 15.475243705151158 0.3721555943962519 
9.171201076483086 8.674743400191536 19.945675712191175 3.4445353892333643 2.3536726210568837 0.36266674819536154 
9.917742878774629 6.0653191736775405 27.04348444150063 3.445274126421158 21.21145338290166 0.4113477108556101 
9.86123206488709 7.256659561766721 36.20263513188882 3.4453468165684193 0.7628780310307732 0.39740954550014124 
9.92423685668912 6.116261726302101 24.92279188866158 3.44567164909961 21.265257501865943 0.3546678037797102 
9.77007475984508 7.5860690576893255 39.485505203595615 3.4457125435889213 1.1049070599947157 0.4696959587821698 
3.8356300731138973 8.68516878608596 5.276061750762942 3.445842383362803 8.458469696813381 0.4608703555819315 
5.0358335726305725 3.3804372947737384 17.65375393394067 3.4460781765471227 14.727024287458647 0.5224512949815233 
9.803971987596329 5.520303359893848 20.480410380755643 3.446162561670083 20.659480670064575 0.5759325114436289 
4.612537511578672 9.384475274777753 4.9771385993423465 3.4471310181079327 7.412107110638008 0.2906825738812624 
7.242457807655526 3.133700397061773 15.32768470106226 3.4472041733687204 16.992888250765322 0.6160646950488554 
5.887454085596129 9.894221585206438 6.535360648135871 3.44905098059367 6.033569177900073 0.46829361727590874 
6.588240408453091 3.051800935807922 4.610170444795244 3.4493279281592066 16.342824954270778 0.6461290514053261 
3.1145865779913677 7.1617110681192155 28.066098299744908 3.4494761306012354 10.171010756490475 0.2825450787198035 
3.3592901763000604 7.927073049145477 10.196981434539893 3.4497240011749755 9.3663559838146 0.45063645803667696 
6.832719211982461 3.066178557095041 34.174216123897466 3.4499031545503023 16.590522776607358 0.6482569130047846 
4.508593996472552 3.6826781014921455 0.48021865233586425 3.450072542816608 14.135239552133637 0.5333319287872408 
3.0498476927049225 6.486631692251677 18.31915820809681 3.450178206293929 10.852422847667082 0.7465101546735013 
3.2366022640706156 5.379060742746523 29.244851219736972 3.4505462757831564 11.981865818926437 0.5548014349219583 
3.2167009774267186 7.561993497544549 33.69018085200151 3.4507800075428694 9.761429969597156 0.5505384787462096 
9.475521036884498 8.248596442873582 28.9936616192386 3.451277294129281 1.833653249930272 0.6876226070217334 
9.884433419979665 7.179058722902479 32.51607056026662 3.451885039138064 0.6835166393518346 0.54933809131 
9.73314435587773 7.709347428041051 22.349512615823016 3.451918832715151 1.2355617423018295 0.7995201759073542 
7.202783550885787 9.880334324664172 30.189144389434503 3.452617103864606 4.715628861053688 0.8112095404072107 
4.267600285193399 3.865818071922 18.100522881535987 3.4529006526225627 13.843933621711297 0.6074977193098364 
9.254050647151203 8.583316937681154 10.26114207389599 3.4532599713753296 2.236399822600127 0.37846082328301434 
9.784688369842417 7.568531839960247 19.924439765285264 3.454118987525887 1.086353125364358 0.480100495922935 
7.746273060381569 9.721533966782655 35.000317912425366 3.4541971049966484 4.1508091387930826 0.44700914706955924 
4.664111998153048 9.425947270530926 2.71799741238765 3.4542223705565 7.361487026004088 0.3744587019664364 
7.8656908894817725 9.673177394711193 18.67093290424347 3.454586282598775 4.022425650378665 0.5690875408673629 
3.2893217525841294 5.22387694874454 7.189511465308598 3.4549884009031055 12.161245833790993 0.6280332541823005 
9.368376324936424 4.573244042167833 35.42140961407074 3.4554263503217006 19.667215407946067 0.5857488497566273 
6.962753134416008 9.924422692449609 35.718395533401555 3.455547892878302 4.963814390125496 0.7623202219619578 
7.378734317735553 3.157788747428995 11.03020089330495 3.455799481737678 17.173561772133894 0.6599019259643645 
9.574720925077113 8.078040183220097 3.4921818877310358 3.456026560511998 1.6387641719038228 0.7446033886740986 
9.539513128839062 4.854744292163719 0.9974533695169825 3.4562271922651275 20.001374849787247 0.697635870686943 
3.939830534506111 4.177729912450861 27.548968037412095 3.4565019964659003 13.405364858338253 0.5404877037035929 
7.580234352940941 9.783382235716301 26.409893255123997 3.456516333404359 4.330843488523044 0.4992698413675422 
8.631198535304272 9.222309098056007 28.90275508239347 3.457307336966383 3.134366077907277 0.5938974981529823 
8.531902543488183 3.7024350521994336 12.66630380905552 3.4575999744614947 18.46550642394091 0.7605254949823543 
5.579071835004292 9.833022034574146 5.5568718873242915 3.4579104337792117 6.363850832112334 0.41523528506603113 
7.676789336030243 3.248356986338621 13.177729868705391 3.458036354593073 17.496387654194105 0.5046865626154328 
4.841794444634369 9.53475181724884 36.25372023497226 3.4582313768949255 7.161567587385171 0.5025208333015125 
8.254450890285382 9.48089977295368 16.583443250849086 3.458881521940075 3.593182767466285 0.7816248725648958 
3.0568104524905433 6.169756396695808 39.44625423625876 3.458990473765679 11.197486444295372 0.5802730176010665 
9.73152423568935 5.265561254655756 31.740887639547125 3.4592756325356184 20.473005954243373 0.5181943068064042 
4.452425813032139 9.288738763326322 16.933703984411864 3.459714430587578 7.625652276610104 0.6373995611259358 
9.229882299363616 4.374511090990271 20.16861804168044 3.4597630656884775 19.449505950522667 0.5214932167090488 
8.2994505151709 3.5450069803071464 11.271933158286132 3.4597696314902686 18.196192144925625 0.6132270608486221 
9.272241168099871 8.570034821473321 13.920788609141837 3.459821564216833 2.219082163665199 0.4057576149012026 
4.154798505198698 3.9559525431102927 22.26178783799071 3.4600791196337184 13.728342983260625 0.4884988569629713 
9.882687539459484 7.229322680638003 24.310395946644228 3.460417108111021 0.7348330230124045 0.3792311800398199 
8.509650686445985 9.317090528415655 7.865466035281337 3.4604472148585064 3.2913977492908515 0.5672676851125382 
4.459884931606176 3.704824108110266 29.842775084059753 3.460502529819781 14.125411523109634 0.48662762410543753 
9.939239511710792 6.883370027781396 9.019353540622603 3.4605405642924927 0.3841585697878891 0.7010036035760274 
3.0396266177888585 6.548224212221921 14.322026828070662 3.4607093953349803 10.823913439555065 0.5963202815720748 
5.900933238701038 3.091534424977798 21.78915877070589 3.4607107016629772 15.706115257526397 0.24917749867728695 
9.797297258541464 7.551549105816431 31.54093652122272 3.4609138580912937 1.0684398030004445 0.4874131501077319 
8.859941532531808 3.9682623494304448 3.1845890731941253 3.461072025872914 18.906734132168296 0.5581737377409248 
9.543271616364224 4.850702564450675 32.64729108669459 3.461456942080561 20.029874415727736 0.6617860832612139 
9.649513996578262 7.936814900382352 10.924665679718657 3.4617734577241075 1.4816376882574431 0.7035886832645937 
7.47890472417353 9.820494485562673 12.335858569209357 3.461782501495634 4.445311663028573 0.6506373088756308 
7.674241323514051 9.756878930770135 32.43353306564401 3.462095182912001 4.240239505177215 0.629052714835025 
6.743000403855822 9.95363502465004 20.487298239567274 3.4621733174067977 5.195168768843267 0.6705031609835557 
5.88338989809527 3.0929623206259986 22.811273840429948 3.462385560050345 15.696190701436226 0.23701316685784374 
5.742267143897207 3.120820327384344 27.02295193528593 3.4630931753327907 15.555529163526515 0.2550023178786538 
3.5491951176876864 4.6868115867913005 28.337241290456916 3.4633656571711384 12.788774775597265 0.5832505320220126 
9.682872672686 5.134321063854696 10.0790901502953 3.4634891954735907 20.35794406133006 0.5412599486006534 
6.347771381425709 9.960908515297099 17.395855410376384 3.464254797726205 5.593916363736085 0.5817001014904937 
7.45819922126276 3.170456588701107 28.81087688328327 3.4646796497443195 17.29777294768021 0.6387139212643631 
4.302504873001137 9.17901505501461 33.16613976312249 3.46498290012789 7.823137262446849 0.50283315940961 
9.104532662856359 4.2147115835260305 38.96613250236977 3.4649868020463974 19.27565965800293 0.4631257112793896 
7.87725174032782 9.679543032668917 36.24547485028392 3.4650131677714398 4.026463820775135 0.6244742193273788 
9.964855018424869 6.5755833072212475 2.173432413664983 3.4656793179742555 0.07558930019871113 0.7599768367212136 
7.888596694438252 3.324612651476695 21.61714902428595 3.46573016736253 17.7605899506771 0.5426120290519395 
5.402214076750321 3.2125548048019557 11.693065638787637 3.4658952443367155 15.215623119901657 0.42575088064706207 
5.857762579184987 9.906002721100968 21.071365634821746 3.4660241546824677 6.090388529563139 0.35539063890122624 
4.563070273433313 9.374425868996767 26.701749141844168 3.466124758576287 7.499844847107198 0.4820625684338715 
6.626338340832289 9.964112495860526 14.141447128134175 3.466415549287377 5.3186664843657105 0.6758462871016321 
7.86503776907213 9.686472832178552 6.785106930592619 3.4665454304257173 4.042206518982905 0.5879011534364464 
8.467404886875629 3.645635926100768 9.281177836432526 3.4667097160374905 18.42858464951042 0.7732587924878508 
6.588948561431346 9.965591386039662 9.424328723154638 3.4667326838931523 5.3565726420771576 0.5991446866250316 
8.530837831380222 3.690310368702951 16.989589514123544 3.4667936370057086 18.506618997658087 0.7734869257144149 
8.571562738985776 3.7199590952411903 5.2541394320916055 3.46698710895879 18.5580275271707 0.7784965503191117 
9.212299994323233 8.659514597158154 39.911209099862035 3.4669979167205973 2.331262652269558 0.5230425585362454 
3.8267128296640998 8.70767857755606 7.533055144260246 3.467031727123718 8.498732889305831 0.327510900835965 
5.563101591426236 9.838257819223223 26.47122988873315 3.4672386557018315 6.395017323732731 0.40435199235770486 
5.385002939231654 3.215779320094649 24.760021149321773 3.4683315758214377 15.208972472324358 0.344747304363076 
3.376825057951489 4.991512673787252 35.217724653612265 3.468393825963857 12.456897370120995 0.7203284538853914 
9.475414771886154 8.282829447021932 17.997260296290243 3.468655921524482 1.8724546673986957 0.6925049636398515 
3.3359272749993156 7.923924358724838 5.6982430578184236 3.4697142228810693 9.433162869330523 0.4827022045375963 
3.0306851451965553 6.556970334027927 37.23544414664738 3.4697825840705216 10.843670581622696 0.5647823514337109 
5.726417744305598 3.117460829398695 38.96226313516516 3.4698704222171473 15.57124088095972 0.16476365791377579 
9.557045895945503 4.857774404079517 3.1464203151080135 3.470221105032594 20.093369238799216 0.6561792570363427 
8.91333755917779 4.006311180925238 1.117351287074797 3.4702567773749413 19.021913636826998 0.5442032885792882 
9.540321501773668 4.825774763654554 23.337753040198095 3.470819064163856 20.060726695225735 0.5688882333039209 
5.4906920960507435 9.821166198441063 39.59774214855092 3.471144964221734 6.476562126007252 0.4652849753657048 
