197

4.555303645902228 5.740957382824618 7.814402127028352 1.2421890835283502 1.8959041175387465 0.0 
4.810684592274494 3.267324630820526 8.293955069970593 1.2712251892007655 6.304371258035083 0.351658040963255 
3.9561677980867644 5.662009613396006 35.55699252865613 1.2829730338017722 2.5768847973056452 0.5530274892774606 
4.902647756278026 3.26714868594538 39.76265258333638 1.2969377695949538 6.521089036151821 0.36771885295409334 
4.650456821747308 3.199915562775664 13.195033168501709 1.3087615516675353 6.318183730657861 0.4577779076481977 
5.796261233285102 4.712526707141174 32.45566630368542 1.3135679602388608 0.21346502583623916 0.5145891356634316 
5.774384031041385 4.838372000023681 9.418152029374752 1.3185409621901463 0.3422006098281347 0.5205731359062985 
3.883717895172915 3.3294206424124644 23.98121681919293 1.322898206643333 5.592929843129408 0.24753669802039963 
5.002223216440158 3.275751832504839 28.86088039452823 1.3232580000690568 6.750842870119405 0.43611064524361887 
3.8961288989927674 3.306202374348615 29.404333544041123 1.3378389580373908 5.677895502545232 0.4539003052914567 
5.211641298471201 3.365788357163697 3.0791778382558235 1.338980727432327 7.060091389413106 0.3790355935294593 
4.903299261077837 5.783599335564812 3.176609481980222 1.3454655507475293 1.70385570102873 0.41107139804708787 
3.2349944711815324 4.969664368251304 38.535509928561 1.3493789707662507 3.759494114790493 0.5584719991961912 
3.153381940120526 4.391820867150451 25.551828293157065 1.3509562998030846 4.35244946482956 0.5150653158136371 
5.559246178072612 3.6421462784399106 11.41737796192421 1.3630537309130277 7.636445594785481 0.5683740665987044 
5.706208670611873 5.136168770563006 5.29954362995116 1.3636898700580389 0.6618475962302952 0.38254187290420566 
3.173547250359138 4.837767117536402 21.521682893821904 1.3687817659213084 3.958862204969977 0.42388425862584417 
3.1367969804528073 4.376422681298241 0.5184829694033475 1.368792835384557 4.4239353297703055 0.6438822959004915 
5.22614486045977 5.665668266018873 32.1306045307411 1.3733422242018138 1.3921262310333367 0.5675483896084688 
5.838342300732912 4.183936271103845 19.049830008331185 1.3751568618360617 8.321450641389585 0.45019753459994777 
3.8773117130931984 3.2735911434480798 9.000514720024121 1.3754342536377082 5.8353817422407195 0.37416772755634886 
3.1180531274889285 4.469378896429725 12.814662664819522 1.3822860812534403 4.3732034066161996 0.5799461453512647 
3.1776977182820776 4.9031846878019625 2.5519472957247213 1.3824041437706955 3.93381947391312 0.3630710087603733 
3.5125945342621296 3.522359199421283 16.151038110978746 1.389514695397359 5.4497067595287625 0.2848964854502056 
3.1271939311654906 4.279460882149791 29.37842813556326 1.3904078556779709 4.5895695949935345 0.7460534272214814 
5.657207453411947 3.716192339257211 31.782167719311865 1.3976707549602825 7.949726023415472 0.5009278021026241 
5.779961877524804 5.064451101488856 39.232059218317346 1.398895083231336 0.5810121343480255 0.5029912913403295 
3.6908515515946805 3.3569815430960075 32.719381927441134 1.400432934624118 5.736701746436801 0.5034210871251056 
5.446810221277757 3.4659693097775346 26.847608549262716 1.402023203601845 7.646331051023977 0.6170769001879263 
5.85543269321854 4.122104534398683 14.551112105817893 1.4071257117854463 8.458639511846005 0.43418409667310826 
4.286000643098939 5.893663690201252 4.097972782062627 1.4099979454380214 2.4296491640340996 0.6123903044297667 
4.65056352451823 3.0973222453436913 3.995417837617385 1.4107353608395208 6.798784604349117 0.45456245083621344 
4.963063444748046 5.832896060579642 39.1421176263413 1.4110420483354331 1.7446538204766373 0.6075835160971049 
5.762536203496249 3.8687600398602155 10.053420185873051 1.411545802450632 8.214569180687167 0.5071854775205008 
3.1084883583251406 4.739060843783991 19.06718687751212 1.4118975656708868 4.19538891606287 0.5106916228756382 
3.413016832348384 5.402416622795019 8.276492053839696 1.4127590622093726 3.4594297109952237 0.6352277981865614 
3.24888445666711 3.8436155438238186 2.4433971107609054 1.4128448807561473 5.121219224180759 0.5578772967423435 
3.2452014254383004 3.849024673824651 9.595000777302872 1.413608268938455 5.117485279085987 0.5923148303703306 
4.009076911420096 3.1710136358985688 0.34766338499801464 1.4167604719459004 6.175007014065738 0.6450688152631092 
5.842304440077196 4.033929877938934 8.75496641910675 1.4209161018613896 8.45301916814736 0.4626647014927342 
3.527066758248485 3.4636987386930187 31.534783375770132 1.421449751870094 5.626835502867884 0.4334977882581264 
3.624495452172143 5.620758179723347 6.036844885643198 1.4221839229452868 3.1770887432216313 0.6794574096390696 
3.2093290053136876 3.8938064802671972 17.152952610945015 1.4259390589680199 5.105839740047887 0.588162258673851 
5.677594679823002 3.6957969813456426 30.728289068043537 1.425998501107284 8.105396309447361 0.3812835365638402 
3.9946063683761004 5.834094650894219 9.055971320781516 1.4266153162049542 2.7575327388376456 0.6457134621277872 
4.176918538746337 5.890359460312261 17.665578719215233 1.4274036077737815 2.568066027692244 0.6961150985279084 
5.055082638702908 5.8156982922093 23.77819238347731 1.427998155430128 1.6729870761269572 0.5497096391054526 
4.64150029793357 5.921428640067283 13.797907560505713 1.4284543090763604 2.1020780427219634 0.6092655943084927 
4.793307574669569 5.899252902211553 10.950165007318105 1.4296636029870795 1.9503052329572306 0.7442838325986706 
4.328961602362874 3.077494114858764 15.451514371499492 1.4327515928198187 6.580235547658479 0.38794657822156897 
4.759267775698107 5.909280641525587 31.227010479268145 1.432931158881757 1.9901393368119793 0.6254713756563052 
5.839119529211583 5.011992472029703 16.467658045744905 1.4336587477258802 0.5235520054095399 0.5579119134849754 
5.460303066766488 5.56509231071204 20.52216736914267 1.4340863329587359 1.2004589655290978 0.4813864440462767 
3.481882812396277 3.4887314598584718 38.31701067586692 1.4350005811755242 5.630391370393032 0.46932252101173777 
4.710470895508691 3.0803950280671364 21.504347528053636 1.4351223899698358 6.974087707544559 0.5745675161815174 
5.902647827593387 4.816984519664032 25.290060458426098 1.438019510979975 0.31960937265630385 0.6551511706127778 
5.519559328777156 5.516303727023695 13.046682363022487 1.4395744129633505 1.1283370409575237 0.5645724151437946 
4.588040876622139 5.937751437186816 14.89010401089628 1.4404445116314462 2.1745491626658495 0.6396684834843839 
4.307474308922955 3.071462442953922 6.355457356239903 1.4414526331502795 6.5995827495049095 0.49575032171298106 
3.6877476633483335 5.691028862278373 27.207656606769923 1.4416322725217434 3.127365340060482 0.6125179781461978 
5.899046350337029 4.150620166716885 39.82615262662384 1.442011427935401 8.707533341035717 0.56247119673418 
5.63105958690278 3.6012818912662548 35.04277621108371 1.4446418338434788 8.10697974399147 0.4020257627210181 
3.07170406693772 4.2690463385562225 37.704878016148626 1.4468479070505436 4.777352629989998 0.7572755682443718 
3.130420307661237 4.031584462128738 23.41883996329144 1.447467322527857 5.02435510523521 0.6814600890667235 
5.806664434701392 5.12301468688058 18.581877353367098 1.4475908417030046 0.6440536228083822 0.6864985730162273 
4.748927510418405 3.0732276608497084 1.0744380655985353 1.4483246228686104 7.075238650038756 0.4607135991122849 
5.210848992084229 5.7619971493664 29.984339792457554 1.448427800946974 1.5321756248508578 0.47863491580024153 
5.6175751714058135 3.5781722112370353 37.86932017865208 1.4487031220641278 8.103287158731105 0.435037852118703 
4.788756562067731 3.0796776366734173 38.34784546624629 1.4493777864665889 7.120733628877138 0.7068579048192741 
4.36009050952586 5.944155668379 1.1401012273852302 1.4509170410591814 2.4192223842384486 0.7716121477033603 
5.446817427327833 5.599668588896096 25.800105546209096 1.4511148287080609 1.2478851969277684 0.4671852374500464 
5.945492763879296 4.368155335247887 27.297224234995817 1.451493143645881 8.987973748786864 0.5783960299296343 
3.3417606678236336 3.6249737511822193 27.42269449285 1.451616094813113 5.499580435953529 0.5208406096051699 
5.143230740564277 5.803503296694255 4.734396719588528 1.4535703044915518 1.6169398653744018 0.6390218822591021 
3.871354112176034 3.1892959817122994 10.182856992415452 1.4536645678537765 6.20013254570928 0.6671431612495143 
5.332228108142784 3.3073270728440898 1.8660920360791735 1.4543288263503416 7.739394327839376 0.6409633733668387 
3.6422045610463094 3.3249003444921588 33.766713933571836 1.454878763149839 5.938562521358362 0.6729086229273145 
3.050647290084699 4.6370893555766335 6.458560835774506 1.4558216817836043 4.436305930184923 0.6852192899046711 
4.237783050611098 5.932063811025858 20.218936373344818 1.4558724145325124 2.5505347945587395 0.7310098556227297 
3.0615660184916393 4.2724741771883705 7.450306281669384 1.4563173827171414 4.803617742361624 0.665065417170588 
3.05640942074601 4.696966533024306 11.438311321964697 1.4569658800543297 4.3796218167011745 0.7271348281939299 
3.059472456224242 4.2739619512702145 32.06626204127558 1.4581539026626036 4.80787885668482 0.6559920852685512 
3.4399756386397273 5.501606718658037 26.13996890648283 1.458378437010838 3.4775362744494247 0.6841541241448694 
4.686960672932175 3.053486205804261 24.66282156227637 1.4585460054526231 7.060712606830688 0.4313840114041304 
5.551781576134118 5.510531990413964 24.633138231109378 1.4585675807260976 1.1163864929006557 0.5903791442511518 
5.390144720894295 3.3444056277023453 15.083861539060244 1.4586829598723614 7.831305278499087 0.4943745910750874 
3.853458096806879 3.1921868132870532 20.445610308455393 1.4589008752910047 6.2050797071144785 0.6804453155664882 
5.892832882407909 4.061964088698394 35.910031350396935 1.4600886609745845 8.729119569908264 0.5068556874814985 
3.4483386346104385 5.513389700465473 13.271690260623572 1.4604623625628077 3.4681970744946824 0.6244000980736253 
5.050845238856034 5.852666708538058 36.26073405244561 1.4605265151846931 1.7293708129962884 0.545423316692015 
3.560081592869878 3.379911162796297 13.13564484596936 1.4622057363074357 5.869629974761397 0.5310638791917406 
3.066264038113367 4.209968895372725 13.993954197236611 1.462777101973608 4.887415645873152 0.7409548513312821 
5.404656048293543 5.649845380821102 1.1833454655051696 1.4630608208511757 1.3228686806634133 0.7198387046921962 
5.358708506045787 3.3152607518264112 33.94283420264358 1.4632113259944048 7.812921235427952 0.4701279124738661 
3.0650052322005514 4.212240925078214 31.01495218141332 1.4635625264441685 4.887563385779943 0.7470751835234642 
3.0965909329343813 4.916385542387903 22.814882182917678 1.4638763367961307 4.176688058343762 0.708639099146018 
5.949745921148544 4.295299848091223 15.74143173478803 1.464126151695378 8.994002959380252 0.6753034440954638 
5.47904718326007 5.5889676679153215 37.153472034297295 1.4643715269064776 1.2278767695142516 0.4979704951034335 
5.876739344324118 4.000916461699029 2.503784909202132 1.4644096422835453 8.691869221265353 0.710085741630023 
5.928565748173591 4.82581807552506 23.79498618485465 1.4652499838572355 0.3285646791171608 0.5911882288079835 
5.6610636276942685 5.395959971762787 2.56136686687276 1.466565040683756 0.9638666627137731 0.7322754573655533 
4.579359757515909 3.035274027229418 33.34137852664008 1.4668742776467625 6.991880703823809 0.5851731675297785 
3.4478672605213347 5.522731003342271 0.5026778571214265 1.467297518119746 3.4780291903730385 0.6996614106326801 
3.1252359917567 5.017837367759478 39.65051345712526 1.4690580716259132 4.0859727289984225 0.6516702652857534 
5.526623582983017 5.551236278053111 38.18657155098178 1.469371870369051 1.1714461788769945 0.48579031352965296 
5.5400027456702166 5.539002378864547 7.325524460881994 1.4700787918638158 1.1538898170001204 0.38940619566153656 
3.4669957982764155 5.54749649188428 15.50918475534342 1.4711718394832243 3.4561193027989283 0.6293141377656183 
5.948473485502143 4.758310670702498 30.09266311911758 1.47132587851961 0.2596563813409771 0.6751894875244664 
4.202737616745246 5.941578359514867 30.29356078628379 1.4719079764441365 2.6113887660427046 0.7270205693838128 
3.1852945154116146 5.163436257310489 30.159561520302255 1.4726161002518394 3.938143714622502 0.6825185996127252 
3.5159569920822813 5.595869595167572 19.58352797225435 1.4728444626112065 3.3911966340557864 0.7979111272247675 
5.6655850475889284 3.5982316401120285 7.836033212544727 1.4736942281416199 8.28910556799868 0.475004934206688 
4.593745492483056 3.0289195779758566 25.923111770578053 1.474064389849922 7.040173587596589 0.45127738661984945 
3.0473788824427785 4.24867472686181 4.473728903993496 1.474202328071415 4.883902107881852 0.6846102810836853 
3.222117528208873 3.764341017093736 10.924900259526957 1.474509325450903 5.402517073245054 0.5906455678238308 
5.9752191783249256 4.5023990938419365 12.089992156135516 1.475221129101984 0.0023990948994274675 0.8286653625129966 
4.175804891875043 5.939211875949437 32.302238511787785 1.4752739718459253 2.644217724615231 0.7324245795349441 
3.4934122988987797 3.420953061482325 21.404888460082468 1.4756561576236533 5.846134898467893 0.45577359460675904 
3.2915790109221454 5.34776562168816 32.70426356738218 1.4761395043017485 3.734379574743773 0.6336272832914901 
4.644910959731216 5.969233389567353 6.79444495987946 1.4763624010620826 2.1739199782880547 0.6524993682683593 
4.826209532931128 5.940328188993965 2.0548618985812084 1.4768066736664571 1.9908402518546566 0.6411175779186046 
5.375959048466657 3.3096086826671334 22.45316143801641 1.4779498445387422 7.902269186655534 0.6675922933731587 
4.1167934094545275 3.0721849097227762 36.294433224380974 1.4783447578494138 6.578902389157706 0.5676429216354356 
5.66370388891987 3.5871716929655815 25.390438468554372 1.4790071870043597 8.309090642943222 0.5311989133569801 
4.911061354895305 3.0790700931562 31.138830475567957 1.479193441592915 7.387079783312306 0.7652854152010166 
3.404139049493568 3.506017976019172 1.0941454367887289 1.4794970384701287 5.737903507468696 0.5552253829990751 
3.120788595874595 3.96338761903644 34.6653810006595 1.479924641552046 5.1984467685156766 0.5977792338215674 
3.679450731542862 5.73174521738374 3.1702596600581856 1.4800328991320633 3.194582386064015 0.6559145098564538 
3.7253729974539613 5.761836576235094 33.508342039340945 1.4806345052706855 3.140966871873614 0.8137090030516575 
5.2013671329751805 5.804508090610533 9.709772886785302 1.4811000012443984 1.5958634433972652 0.5903189705351812 
5.643522836948131 3.5583549974882818 21.28610236676691 1.4813304119531185 8.287010344267005 0.5390562236927545 
5.882624879130445 3.965450788545904 23.25670076787293 1.4823610949619108 8.767079492477674 0.5500116800957464 
5.96785679306794 4.293062489241583 5.819190854775798 1.4823719837863183 9.106402265957716 0.8868048539737192 
3.3693367910058827 3.5408050898096226 6.837233444011218 1.4827185059572168 5.701240026330511 0.5456606050554766 
3.298322448090799 3.6306722043599082 19.24168279942348 1.4831587086468372 5.588349219061136 0.6636586388802995 
5.812033574837981 5.1920562394234135 28.014851932489165 1.4833657472204904 0.7199961853408681 0.5520500350747127 
4.9562398222011 3.0879607672140406 23.506098405474965 1.4839169687987455 7.456545971495494 0.7588720002602108 
3.2436268671134716 3.7101467739896936 35.72377545582201 1.4840288298001485 5.495109329634161 0.41196732158622923 
5.78108248194053 3.7504422455471964 18.127525216340345 1.4842537359883037 8.54009296322396 0.6399291312752482 
5.979336430550702 4.628029129203317 21.05333415866187 1.4848662339345777 0.12818829780123764 0.7557767874107172 
3.4476757347501037 3.4518116390839237 26.42800684175291 1.4852896011194794 5.829794096272353 0.4382172776627349 
5.2031356514593465 3.19147411579009 5.917699362568207 1.48547626504111 7.7325988919900634 0.6435128789377413 
4.523098128376732 3.014576463023353 5.12401073326955 1.4856031124559206 7.023838795462902 0.46593688680138773 
5.867898039850458 5.0795632286462835 6.45387085799446 1.485610508654819 0.5953726999091042 0.5688913069918425 
3.6279388843085236 3.2967594679048364 4.342818451637299 1.4860277142697298 6.0707766526269324 0.5634684084096511 
4.141407386397252 5.942302272589427 24.271487126426187 1.4862114614169402 2.6967018523591726 0.7359758182512951 
3.3912588126916825 5.4897158113317115 37.630928624598965 1.4862181561378678 3.5860277301646732 0.6818649447869328 
3.0762809144757846 4.927234371564621 5.386808284168286 1.4864404605405925 4.236443616852778 0.7292393877876531 
5.951235848615376 4.822041723562194 0.6008236506554283 1.4865383816172717 0.3246154872405622 0.6458249148590645 
3.4847578264812684 5.588188446993454 20.88089574638797 1.4882441893254816 3.455001621952455 0.657595788886896 
4.199625923986428 3.0419124728805125 16.88014246057226 1.4887054182350619 6.712908596931177 0.3967673995942414 
5.484393054597145 3.3826514318527945 13.797570501419194 1.4891264246798224 8.092823801642623 0.6481727806824773 
4.299947132763458 3.0240206213004583 11.194153651474338 1.4894751679822813 6.81832709164792 0.45559955315701417 
5.013806733726095 5.898580774038597 35.11866251673656 1.4899750135934093 1.8158702770328343 0.6090505415051094 
5.529441821172474 5.577733034117535 12.035154686390815 1.4903888606692859 1.2046987062756056 0.4724031094186674 
3.2497904371523543 5.311532855458576 24.96887367216402 1.4905064664483847 3.8243982772674308 0.6234467201143428 
3.8879350802489405 5.859414780209199 23.11425330438715 1.4908494258781122 2.9725316902289514 0.6604782805940633 
5.644561349391991 3.5443283609049976 12.629635475864518 1.4910831513676706 8.331402240866026 0.5463317270688953 
3.3439145184018617 3.558085553431016 15.12402505917133 1.491219791116439 5.7043031019263815 0.37435037908804625 
4.598543957999386 5.98796400079562 26.34430789557618 1.4912235846183144 2.243792707701605 0.5602949858982677 
5.1631704495118225 3.1643130488403495 17.397754005640234 1.491259426325236 7.714633667873626 0.7088844674077618 
4.709842041468692 3.023384221488099 29.924579845093206 1.4914515881241512 7.238840632657647 0.7518928227396073 
5.605320494474546 5.501533653044185 34.31055010184433 1.4915773710020832 1.0980641060288745 0.486087405346378 
5.212243912801673 5.81085669147389 28.522437223166463 1.4918567816331798 1.600880102489512 0.5766029340879092 
4.008590666747724 5.908842584528272 36.85081213062952 1.4920859763390797 2.844520006600032 0.6520358148719727 
3.007860035384746 4.520558861711179 15.011676505549712 1.4922815889760463 4.667581364901853 0.7301085941278452 
3.0319977191775305 4.768451040004632 35.41935193222585 1.4923460246804492 4.418422982736693 0.7014787594742093 
3.6726005568824203 5.7430273590675105 11.223150359854344 1.493220296494 3.22249280893832 0.6255293276791162 
3.3397349061643604 3.5598356601088277 37.000187071116144 1.4933599947689857 5.708493130241964 0.34866585018792284 
5.940782243867601 4.892943111740706 19.770036913190438 1.4934047553522198 0.39762448801849715 0.5597740949420285 
5.98763545995009 4.631665463525576 4.433912027289466 1.4934507209768668 0.13183662497940585 0.6544621272969424 
3.749020872174726 5.790945140643808 16.764614128430168 1.4934888705916325 3.1328502168935266 0.701349822669278 
5.186007931768243 3.1732925202751012 35.93619293676901 1.4935727699737082 7.7510504531267905 0.5675771503458085 
4.921409094107888 5.933580829969838 22.418229350585293 1.494235463591278 1.9199342549530822 0.6398763605889797 
5.184742574773754 3.1718228420259305 10.594558138024958 1.4942981485205244 7.753015858227041 0.5082172197636935 
3.1658681282362675 5.173132065258866 9.326346167440697 1.4943274836980898 3.9963011569820495 0.5866275557432968 
3.958023500523063 5.892953853154456 28.28685511558473 1.4946768757838997 2.9024492923867076 0.6647831041375575 
4.023630402806632 5.916844661733251 10.156547088524995 1.4947831911726128 2.8328255292460227 0.6713368817590006 
5.80791589371074 3.77504327658726 3.785894868118369 1.4953950099697724 8.638985295981701 0.6216851714397468 
3.1020260558523436 5.031207572368297 17.681962501030824 1.4954974535107621 4.155179442103254 0.7406841946419386 
5.014526911548727 5.90457453871201 16.905507023121814 1.4958501186636073 1.824421318927337 0.5763376482254314 
5.570877809785681 5.544625174259553 21.731238907040293 1.496001683885475 1.1563930819403243 0.47568381378153735 
5.838347668260041 5.169051929378044 33.35936625607301 1.496263668389222 0.6936300373584618 0.586734159765399 
5.993107137003521 4.401158681592376 37.31455199405247 1.4963751297035799 9.303088893172925 0.9829644074671361 
5.172233363483039 3.1629135964909665 18.685234354664587 1.496561975137829 7.7495601252612705 0.5342868948017152 
4.245584113507747 3.024910679343039 19.469210052772397 1.49686871408813 6.798170605997207 0.3369303659779583 
3.2840247726751324 5.373346432347647 12.160064571415376 1.4971071252125299 3.7708208376965917 0.46118686912807283 
5.941453333351043 4.095110794802474 16.853848886491164 1.4972384515214392 8.997432730278494 0.7683367615653627 
3.0559869953964265 4.104245520814697 18.225367988383056 1.4972625572221698 5.104302922632991 0.5766777850361673 
5.855671448624915 5.135812078875686 29.150878880455586 1.4973650444233688 0.6566586829996748 0.6761083974382166 
3.1170340702338857 3.923935532700673 28.42487835776057 1.4981472001705005 5.297865291663484 0.5024260570108073 
5.687318208803118 5.4145993883555406 14.04377104459811 1.4987383261049192 0.9837288925555789 0.6363171702538913 
5.127764959587777 5.861004792072109 18.214378358360193 1.4988071552169375 1.7065800073596051 0.6387485866010304 
3.0787152568798284 4.024160643842647 22.245530002317054 1.4988240103142256 5.192913107207855 0.6449358394597601 
5.286608417996528 3.22385838665633 27.821722816141232 1.4990964680668108 7.892408779490111 0.5501606692887491 
4.011790535016155 3.0826110175767667 39.116161975219605 1.4991130741857261 6.567124807292505 0.5421971914256357 
4.273292629031068 5.982117318868527 34.3865411560141 1.4993558546728243 2.582762896031962 0.0 
