153

6.132837845879687 6.822907547323396 11.653591948068486 0.4889553471807817 1.1833880289579852 0.0 
6.989710619057982 6.527939012648876 35.415391362255285 0.49050696105758496 0.027954142211825683 0.0 
5.884714103845241 6.11216881496879 6.785694469407439 0.7273168237361758 2.6939911912087524 0.0 
6.129433117311905 5.621720182963271 17.241785081045656 0.9532550821051227 4.11151028075005 0.0 
7.465817721043827 6.701979386853488 18.42921102248514 0.9867114791042018 0.20341722035771959 0.0 
5.442110553427989 6.388435381550579 4.706837383836607 1.0637559613267507 3.453658074740499 0.0 
7.059163142257534 5.349747981682823 0.8172610865647734 1.2789617372314388 6.605674829562414 1.0 
7.112096555761763 7.661710100372872 20.37107998724631 1.3131003582680791 1.4258520164523674 0.9999999999999998 
5.1819955998716765 6.467638655324478 13.544475368544838 1.3184016290140232 4.174245467371055 0.0 
5.8507565797228995 7.692904710531092 30.227304076715285 1.3581379411460275 2.810282779622513 0.8189944022102574 
5.531188979669402 7.507448462973915 28.253191922836365 1.3976935281607745 3.2659152522073107 0.7729769184731091 
7.411019242263459 7.581665686596843 13.24076822083817 1.4141982595574452 1.23152086685511 1.0000000000000002 
6.2738845552921845 7.90714223871084 26.175797293901148 1.425193837447933 2.4657642170395064 0.37312978556642984 
6.117782655493107 7.917945745449805 34.21986918353894 1.4685571951684766 2.6934738637977276 0.24324272993741394 
6.638615642600392 7.9663258639170955 17.00025324446002 1.472863142170969 2.1747469251347056 0.5810417284511173 
5.177081714310324 5.793137696000008 32.43479767377905 1.4999223671338089 5.44819529368511 0.0 
6.238986824485755 4.993261623202567 14.852156030178918 1.529178999955921 6.943788765792103 1.0000000000000002 
6.428926376774898 4.969375762983585 19.225342394440815 1.5322734791349837 7.149569524087315 0.9999999999999999 
4.947858862347401 6.532124099819374 7.241268891350295 1.5524735324580283 4.845113051786569 0.0 
5.025818823158762 7.026700252724389 20.158262801368373 1.565446676949731 4.380815174948664 0.0 
5.154433350155969 7.306212881679016 26.25119978608579 1.56860728665835 4.081185649549251 0.0 
7.510560810627487 5.286082709246523 10.07356053107987 1.5795025611775206 8.539774757377188 0.0 
7.660322803829953 7.5780404865217825 8.384554932170815 1.5838308936461378 1.185742396545713 0.0 
4.978578933542028 6.949396295394244 30.335804643508872 1.5864044540331395 4.528201784006701 0.0 
5.667769791368151 5.144469902916352 34.483276856192205 1.5906190506400377 6.619796817631759 0.0 
5.003676448907854 7.048275793591131 18.13369258991247 1.5936092731253146 4.44675868436234 0.0 
8.043132319774765 7.004556415772754 15.786341956240548 1.6235253410498056 0.513053085835633 0.0 
7.497569539269751 7.8004904481304 23.288420684410305 1.6390303204508672 1.5021032681387219 0.0 
5.05530812406446 7.292483478538671 5.074088010986451 1.6477756765260572 4.3499046198436915 0.0 
5.162008322286145 7.466108244191545 15.702730717026128 1.6503293214163075 4.152583772623444 0.0 
6.951560871260062 4.897073039006115 32.01852767150099 1.6653174060023033 8.304909333861492 0.0 
5.77402375035161 4.99086630868309 32.35034985601518 1.6746719121431952 7.1408210369882426 0.0 
6.005610766389795 4.886990547635804 8.386005964279036 1.6870744523363306 7.448397539470882 0.0 
8.104909935986708 5.948046720345303 18.616508914466998 1.6971706825038066 10.101460272068486 0.0 
5.509045744652207 5.108314695020679 4.736307822241756 1.708443245849065 6.993716088085964 0.0 
6.6084538311832794 4.778273837257794 34.238984279444985 1.7251386068862211 8.238049558278874 0.0 
6.26575979949434 4.75125436779375 21.32335307223127 1.7643638393747954 8.079434889599007 0.0 
8.031379746566747 7.384386056020837 29.43969726371946 1.768406803956299 0.9261465552951158 0.0 
4.232262075961691 5.6155940252037 35.99425606710995 2.434093100186797 8.552050297280172 0.0 
6.56616188620351 8.935390357900975 11.906307640803732 2.4362888971842076 3.7607436294779646 0.0 
5.8841209660865665 4.119999297602437 5.057959779424486 2.4583958850899177 10.962407443965436 0.0 
9.352632411897515 6.006937563158754 30.158827562945667 2.894930438548061 17.69390644708156 0.0 
3.56681654533665 5.84712327141701 18.95624190622253 3.00496475876774 10.098500671301103 0.0 
3.5057470061597975 6.037833625221843 33.97742167822029 3.029711000920154 9.982095657822992 0.0 
9.194269118492015 5.030422052067742 13.591727776528515 3.068997463001319 17.750606478781407 0.0 
9.203135276080456 4.866348992728071 15.628145652155126 3.158442010604461 18.128100208499717 0.0 
3.3392990290734783 6.451268713143218 2.1615294683818433 3.161076615005492 9.979548288399133 0.0 
6.68622424597544 3.3357752091053 27.014354045036605 3.1696999853458876 15.123190827261311 0.0 
4.017149980287103 4.506962692115078 29.02458964839161 3.1838250471735257 12.155815051784405 0.0 
3.300252353549194 6.60151192892916 12.799638488575326 3.2013574734294186 9.955832172339456 0.0 
3.8654950482873254 8.342030242823064 10.47596727252489 3.2146060032410513 8.137478664955736 0.0 
9.03485377443645 8.48242695865185 17.160529113565715 3.217996318233498 2.135817927883231 0.0 
9.679690451598027 7.17256878981317 10.680646987378395 3.2500430989472195 0.6774641643871515 0.3312931317492423 
3.4088689029458834 7.522994415721815 25.143491104040876 3.256011215240668 9.188441270674033 0.5379051833197115 
3.466630660527316 7.712675565590995 16.9990703225835 3.2667891846634958 9.020510880284288 0.05043902845334962 
4.1307812711050165 4.249350506991561 20.757328934630152 3.2678158647215576 12.748832580667058 0.33729968142199984 
9.355216907660228 8.093210954095117 5.340753512706087 3.269645964632487 1.6641336218299134 0.16415135694281713 
4.411813654014713 9.015977026215886 31.291193218681578 3.2696578738463624 7.401022993514321 0.35729451035594917 
5.617917961721601 3.345105585691625 39.64207974687035 3.275885756202062 14.544143297449562 0.34531433718550814 
6.456147246510525 9.776852963487045 29.350879493525113 3.2771463818850735 5.191583561352003 0.25352430283435706 
9.621440827550092 7.4991251892077315 7.478476599918174 3.277444733875158 1.0152858431050724 0.30759616214620966 
4.260249928624017 4.056789463626259 37.24842811454192 3.3144770488383815 13.159834423381083 0.4201724594514351 
9.16919349894251 8.4996339633371 7.336658609314497 3.335135667724505 2.144354571372233 0.11386260220065905 
3.730416817125139 8.363405270561998 21.119537628326583 3.338093798745249 8.509964499291028 0.4588863404344926 
8.001204399682667 3.495906026372607 11.37945902790527 3.358302436054713 17.381942654394535 0.5867472024252617 
3.573486977555506 8.14868399187689 8.33769818343567 3.358963735381542 8.829201445432822 0.308139381582649 
9.616634134283247 7.762731974246307 25.82425071058737 3.3627221660082873 1.294465623501683 0.19575836534727095 
5.088217649915048 9.553183271767661 37.94950411472635 3.3637861844970556 6.740729900771235 0.5408174706027487 
7.920319825738453 3.4504675920626617 19.88028008599487 3.3640684170280815 17.319109523881618 0.592558542140325 
3.2126849178045163 5.772741454251554 37.930950264995005 3.3668004755248053 11.310151966483136 0.47915363099148484 
4.987666972451942 3.490244328275182 11.886618331112743 3.368349802157191 14.30457902720483 0.5174208529577057 
9.865788524771956 6.662404103568258 6.873850684321823 3.3697043618606055 0.16246704121282107 0.48179571569860924 
3.1294348528976457 6.484102815056119 10.62109197572753 3.3706026362284622 10.60495772402805 0.64930945533156 
4.35872088179249 9.103496375893808 35.36805208287868 3.370944918174093 7.615250625896939 0.4832223800029491 
9.620273307459055 7.787769774147279 32.717248099879214 3.3755675825627893 1.3212495264004076 0.4426193357648392 
3.553830651168486 4.845467948034152 18.79528664035025 3.3789628797867297 12.344326950843122 0.5278932264024236 
3.3001555272125014 7.592450599387707 2.306171504334195 3.381191056733006 9.50991470417925 0.598228097903761 
8.117185360864301 9.478456037841251 19.812610699384194 3.389172297294253 3.6378474745977503 0.5203022955692008 
3.612258054604906 4.723421080355333 37.91708878527658 3.390469908570205 12.521425067789066 0.36832678674071956 
3.1082834975703015 6.453199438857837 25.00040160778415 3.392039375564084 10.703208029070518 0.36740022825802815 
9.8818591660188 6.763829788318752 32.244617149064645 3.39213466359897 0.26409651038295934 0.21586802257217974 
9.583395135010074 7.914849005038416 19.157317613566278 3.392509877017603 1.4594511295254975 0.24043602228279887 
7.083311303950163 3.157005082271475 31.01255321764407 3.3935036610080127 16.577731893582737 0.7157957217943178 
9.87140483896769 6.909252587583936 19.368077769990762 3.396153451871532 0.4102496027740621 0.3755895071955704 
3.8274316573151292 4.4034030604519145 22.80547082649634 3.3968132526301407 12.930998992769231 0.4566085405835327 
6.978119075014398 9.867367388097634 34.55067618695421 3.4011411285502557 4.862792010310054 0.25240120903488145 
6.684008062215462 3.1030309336489443 6.929497242709907 3.401949118476973 16.215405441262334 0.5839620475404238 
6.925315580974253 3.120119351558378 11.406178556912032 3.406535856427996 16.479350421733987 0.8526484182352437 
3.926742014209939 4.264541028803101 14.230335724438376 3.408655669517973 13.146703620708468 0.34099171689575336 
5.071306006287214 9.597394223407562 33.52485542163725 3.4110141458031977 6.83216527112161 0.2107838653016773 
3.893523885363038 8.704182073199267 16.656487886566175 3.4135225717704003 8.327718206142379 0.3553033134171967 
3.1756308379498215 7.297550211522626 6.146800190719624 3.41870102019612 9.93519829206501 0.37381692121439725 
7.512341257119804 3.2340577370110175 22.003553942457074 3.4192416828946897 17.140543942594423 0.6026873798248131 
7.196759566828467 9.84918194305217 7.73212759359874 3.4208907585062853 4.671853381012703 0.37004756652823456 
9.878889734718182 5.935618999638374 8.742194425971128 3.4257001843350348 20.95734327144991 0.40722308700282767 
7.514964126296281 9.774117890682678 17.571152306551397 3.427827320586139 4.354006098447094 0.8958899373799132 
8.043939443930167 9.563005737348131 3.3616748666654104 3.4301243641522636 3.786534161076446 0.5873292827897765 
9.222499257198473 4.410600359472289 22.075046953257996 3.4318498019702974 19.31652816352185 0.6592439795593779 
7.082377070657511 3.1177507232487365 1.332915920559259 3.4320217398076114 16.75823021462172 0.7191364911472492 
3.564367469281285 8.282053097110289 14.623739649096706 3.434188637267083 8.915191760495826 0.28241581797459137 
9.583648087360157 8.01263491012433 30.565934506129835 3.434668819261441 1.566368179612521 0.2892409688804372 
9.589290931846516 4.989180090915649 30.281998247564765 3.4389381005296897 20.043284805811112 0.4931911429363308 
3.5986490041565062 8.347570379157322 6.084266491013999 3.4396735175044677 8.855629841359946 0.653311534685321 
5.670004991880278 3.1614211811015167 15.852384840047584 3.440203517744445 15.373311558219985 0.28058968560679515 
9.499836153491717 4.809341125631942 11.174653933237245 3.443449488126034 19.868610479444296 0.43583924327581963 
6.193993460203764 9.930909923831294 35.19914263914385 3.4445294174737606 5.717064646670142 0.4044643174263378 
4.144511232877182 9.015177277637928 33.31340180235429 3.445931524274373 8.006347825193853 0.20614944345944688 
9.068392608704048 8.800951773329846 28.231396303066447 3.4483357805810293 2.5191124409124477 0.77826160237934 
9.046584262848375 8.82731918037513 32.69355856182935 3.449855935416574 2.554414448711764 0.8026470249833924 
9.28721765362204 4.4670169441247545 4.765732874804321 3.4498699039439455 19.502122289449307 0.763320486390703 
8.604518756838255 9.237438138679712 38.1993826268523 3.4529070014963192 3.160711054149779 0.46494415722775273 
4.6125136091028835 3.6014305075931645 28.996923900685786 3.458946368207152 14.30338546441617 0.3105609940305251 
9.95296631545467 6.7498027985764 15.117547181236326 3.4619904410383926 0.2500200728961133 0.4280464144929666 
9.945686104831898 6.842870799108441 12.82887658814628 3.4627031518616906 0.3434335715960959 0.34169466619505634 
3.0685046672138974 6.034953667978609 27.439559732486664 3.462864177217951 11.345364328848213 0.7125211017861008 
4.4201403907893395 9.271292154605892 2.052875987349669 3.464949667773846 7.673541558417853 0.608756268161171 
8.105632485183204 3.4290142891052655 30.81120732990857 3.4654016959070155 17.9997841940692 0.9134220461901934 
3.2734028767195547 5.233414037787886 20.8704718233729 3.4662903795894593 12.186285286558665 0.33275829092829917 
9.895567890134114 5.800446099636132 0.572879662696991 3.466880003118673 21.07865928145514 1.0 
5.112279028746702 9.680783535263839 22.90965762503314 3.4703246811014283 6.878824194199229 0.6156021615632886 
8.40116992455017 9.40351846870431 9.342598102317297 3.4705715062682563 3.4395694890400694 0.5887295651622724 
9.747679339803346 7.724381012176902 14.875108784223379 3.4708111382160816 1.251312560756638 0.3954743196495686 
5.008704803994204 9.63517239142168 14.124927283782931 3.4717815722713175 6.994903827405054 0.1197146570835885 
7.197214442528361 9.90343884464674 5.647105483726456 3.4741191614739506 4.755152125290131 0.4178507513006336 
3.14290637610876 5.598471901307473 12.849698420740108 3.4760366097472826 11.832244840886695 0.28129405463924473 
8.92178727541623 4.006236748568291 19.916711575081894 3.4761917037987446 19.060465539295734 0.8949566979741345 
4.24167128982222 9.1435659434858 22.98547413402387 3.476850508832843 7.919452692606733 0.06502276152753815 
8.458238581685375 3.6257029327358348 24.77703202341529 3.4779709564176247 18.469588417363745 0.990041457169613 
9.1910733961809 4.292470026633481 24.220569480834325 3.48067013762353 19.478452670268936 0.4401055691422471 
6.8743814123728235 9.960692971027152 11.718568264014763 3.4808845544842484 5.092653683979892 0.5769261078744571 
3.028021270588715 6.753524504062501 4.123370357580821 3.481222625981358 10.682834285072516 0.5929382610964337 
8.310002808518124 3.5253424961003255 3.005714898091881 3.4820536228424377 18.31217688321817 0.8943491528890583 
5.661061306598842 9.880299423499999 27.38738207132892 3.4828497417775672 6.318118499872975 0.7087927111007984 
8.699538309926384 9.200440069995864 11.354881679664313 3.4828645320300753 3.0902398005410916 0.4413713047731408 
6.028102277589044 3.0488667997121617 3.1440404110358102 3.4832467363862736 15.941060236105386 0.5978475983610646 
9.786701340323255 5.3442393413162055 4.522336526211298 3.48399029858636 20.71247367615139 0.763251929156731 
4.226728553085993 9.140385363259176 39.73999687519927 3.4841638793070273 7.949538229033568 0.16459660154899683 
6.078447540090757 3.0377752934701236 9.319541980770474 3.4877939152079227 16.01325598022883 0.4423425506908635 
3.185025667234454 7.584393978161564 36.502948278086194 3.487831006050528 9.854673280020787 0.23697573835247476 
4.5997104117999505 3.5741174015026322 1.6424885973630765 3.4888235121902094 14.431108308980958 0.47188840560156226 
9.898243719038561 7.290416881914559 21.53056028546014 3.4889567525552057 0.7973392197788485 0.5128115780994559 
6.1789510470111395 9.974623335842159 5.633449412631691 3.4894239863040624 5.802678022481064 0.3804966560021817 
9.433354614854078 4.60960519478994 6.826064148261128 3.4897223121691097 19.928837161866376 0.3990514473378825 
5.28937796472623 3.2264976829777847 37.528630170182275 3.490189555287824 15.210815873247071 0.2725842366204622 
4.389654438518029 3.7196423382433785 35.07523319931583 3.490551119258305 14.182599151734614 0.4268375420585605 
8.160450998184544 9.570741781146975 24.20849657574574 3.4909243194107975 3.753078176047378 0.730329674140479 
8.145665307270107 9.580072247361453 28.282931656463447 3.4921425160664135 3.771831965971387 0.5870014673291971 
3.873192035307607 8.802580110649352 18.936502668426243 3.4931354467482896 8.45993512499146 0.30334928059447247 
8.213341676503084 9.544683023503499 30.33070875409129 3.493656310236141 3.6970932093014213 0.5764681421269433 
3.9812031838367403 4.076340132561114 31.03974891323358 3.495492033197623 13.65948898020207 0.2349181213681657 
9.922894426720354 7.208795129509643 23.695296821445666 3.495510948643968 0.7137445043801165 0.3121344343878122 
9.708580397317636 7.892814365553349 9.727930632925023 3.4978450541644603 1.4325254531608635 0.4346658565529502 
3.1680078234897504 7.564356445446316 10.274289993288129 3.497860275552559 9.907346076530825 0.0 
