201

4.990710931211701 5.012956146448542 12.980162777540222 0.015942036562176742 0.03495795150151082 0.0 
5.040401570799973 5.047480559624973 27.90653753807662 0.06234332735270076 0.05397532967381302 0.0 
4.937477250181986 4.995821524489203 17.25564465232577 0.06266222069477223 0.20104075055615134 0.0 
5.068551953853215 5.043359116152069 38.457748096070745 0.08111339797210837 0.04574588475464836 0.0 
5.008666631727256 4.914559717371465 21.461363060956756 0.08587870749574567 0.4133752849541761 0.0 
4.965064617099311 5.079064215904869 8.842733554502423 0.08643859794715203 0.1717414936626236 0.0 
5.046377302855556 4.918995264842304 36.43760457783144 0.09334142348456353 0.48839610460266947 0.0 
4.9653237752946255 5.087846873560697 19.43037189592129 0.09444317738305275 0.18385778249279205 0.0 
4.93620317990439 5.078173469681073 32.04265127474734 0.10090156399327554 0.2275606055636139 0.0 
4.909216368122382 4.952970810515558 23.583920475242273 0.1022419311263949 0.37007128812808965 0.0 
4.908463802061507 4.946033626504231 10.936690278009351 0.10626027009809347 0.39043239605027047 0.0 
4.960751002525185 4.887528690379393 0.488408087033541 0.11912295870466272 0.5213574679766673 0.0 
4.908507513445671 4.913948106960189 15.03841861352496 0.12560176508166476 0.4893892957297705 0.0 
5.12189422607175 4.9373702241733275 34.213660628671335 0.13704266186020364 0.7960198873465547 0.0 
5.120559984827383 5.084008496301293 25.825936720894312 0.14694263299799593 0.08942751123753823 0.0 
5.002611030923158 5.152598673833173 30.023718393541486 0.15262101014645646 0.23712536382307015 0.0 
4.844651980314533 5.04420337269839 2.584834100836531 0.1615145361201531 0.46263822159916224 0.0 
4.877333036653016 4.8357634170677395 4.710979718969188 0.20498985113911194 0.8344890984511633 0.0 
5.0750752670580335 4.729643556578821 6.733462441081908 0.2805867107030986 1.3982349303354233 0.0 
4.260884099546037 3.434901668697891 26.66836894714382 1.7308451984358757 7.392764757811598 0.35277136200603465 
5.159549619101775 3.2506168449697084 18.332883775048998 1.7566438182110962 8.43775877452012 0.3002078596195709 
5.429270204471577 6.7124262265874295 39.53538548760716 1.7654111390697431 2.339484367528067 0.18770394740218554 
4.826436333457441 6.765659248335836 11.808813315753646 1.77416936270965 2.9607004276629176 0.3683643584770861 
3.814267335597127 3.672667340446938 35.063113539859884 1.779824131915325 7.089532226837379 0.12414318506971592 
5.399158263097594 6.73600138785462 20.579925900904982 1.7812995642598293 2.395482241848402 0.0944599139741271 
6.600737288177407 5.791725613791333 5.810272394832843 1.7858301468210303 0.8202652922007481 0.20487536697168127 
6.077316406304658 6.442687548001742 7.747582026759979 1.800543806868487 1.6733950684003709 0.3218367432656955 
3.3900765891642566 4.175404732905119 13.920096221547134 1.808814734369519 6.538772775210502 0.4941066330616743 
3.2847324228250683 5.574812683897213 35.612409525164495 1.809019757458906 5.098250110443026 0.210393581911892 
6.7446756016949605 4.5021337825787855 3.7022160365897747 1.8143218362790505 10.895384114192803 0.1735122215091919 
5.258989962348024 6.808298381288794 3.813939929803624 1.8267508960908452 2.609588053357786 0.6384574542848053 
3.8489332511089165 6.423036877285878 22.60601250801181 1.8302974114930692 4.119869130772162 0.5588567624599857 
4.094434487404455 3.4084007780641246 39.33720153437464 1.831184584051896 7.682004997822359 0.046346592664580626 
5.594639844178345 3.2594777945979514 33.015318210776925 1.839297173319761 9.273002183565039 0.47798971429449677 
6.850249637514325 5.022572479900654 22.647939757082597 1.8503873210684163 0.02257303977474301 0.6852620100675575 
6.019935474659415 3.455787102316159 8.03352348289419 1.8506382266239534 9.801169671500718 0.5204547781121861 
3.466805803292183 6.04425718556178 24.599911493337885 1.855035717827541 4.7185890723825334 0.2962491112376663 
5.782347205757904 6.683857314210019 11.439414573414652 1.8567290068762818 2.10897372891065 0.25577734124227214 
5.218671637683209 3.15480395606889 28.794503309672272 1.8581081038696534 8.975307721876545 0.3652740672191724 
4.243448294949789 3.302506712265134 3.455043435437794 1.8584547194697278 7.9785821959368874 0.3475404968703708 
6.3662659656199585 6.26145316845109 24.592574464010056 1.859555534262618 1.386358026345917 0.3423378645296982 
4.054849746926496 3.3940420535260545 18.252603205209397 1.863440346973234 7.790015335978575 0.41428193433259575 
3.1482833230563037 5.217416248335829 37.580260170643314 1.8644367719801687 5.639388824499594 0.46481116015766827 
4.554675603148553 3.1855967187570924 32.851280589824604 1.8682540205807499 8.35428662166601 0.7737369167571854 
6.797131264841859 5.513945715968487 3.8058514283997766 1.8691765518630032 0.5206523826426146 0.36673076519396974 
5.361764509477062 6.835345817488682 26.98212013866258 1.870659731241997 2.574367157508009 0.610549397715067 
4.174235655314305 6.680995078894303 6.8717253972539325 1.8728671090659517 3.7970652538502794 0.45407657976818905 
5.1567428425100355 3.133702463985954 24.644050513629224 1.8728680710637957 8.982609258883596 0.6605954859783533 
3.1930375732540037 4.5014068164173855 22.461510956963927 1.8744888301579272 6.393548237394709 0.5707848284121303 
5.107960838074615 3.1284598977443556 20.351318543602872 1.8746514067710938 8.94210723557368 0.38262881564565693 
3.50233407427967 6.130427382988214 39.58353409493377 1.8763979570638285 4.68167151129288 0.3735008814856784 
3.349915699008066 4.094375096335519 39.43636338230452 1.8822684894874437 6.85812317404689 0.5074996155101084 
3.5627311894264233 6.2163252582205955 37.55648321363675 1.8828671667520727 4.592811756208928 0.6528826458543892 
5.288619269288561 3.1350913756248735 12.069212997514143 1.8871102935105273 9.182554233895786 0.4681430244986889 
4.9928909263584265 6.890024649748024 7.44335491888495 1.890038019613144 2.97597386911551 0.7145645487870786 
6.8199419895557005 4.487939545779734 5.773278455040575 1.8906069803436716 11.360496869925617 0.6075230408976154 
3.3130596929599987 4.14558602443245 18.22648408343285 1.8909761609183113 6.827211886668827 0.4813769540643328 
4.309767666927255 6.760727113409005 26.913534482913576 1.8911849834198264 3.677221267126823 0.48630789310474326 
6.773431578315844 4.34152898056445 37.52731402482998 1.8917303313116083 11.213542645847335 0.3955447915161966 
6.445360761934133 3.7793692542750508 33.25135747718305 1.8918264057645087 10.559954469553395 0.6525488696453611 
6.165271875366809 3.5089532633964113 18.623757566441398 1.8923738833161634 10.172938457354883 0.5261952117539415 
4.767004980649291 6.878049117400191 35.230100484587254 1.8924468728104027 3.2062362960290454 0.5466465543009109 
4.221988118066387 3.2743706046338863 11.995115825582353 1.8929076307579025 8.118345220084096 0.3364268327541686 
6.857128708992939 5.367843055673359 24.65083298946667 1.8932077422652003 0.3701976873989228 0.2300868758423209 
6.555978839475549 6.082029693531928 1.8417653071505526 1.8952198834384562 1.1515979725209942 0.6240003765952225 
5.17393507691692 3.112756428528935 14.167180907234226 1.8952418603019932 9.10529702829308 0.33997080986182077 
6.410832671928337 6.269352935879071 20.5220675026815 1.8978160353430646 1.3904535581306554 0.34110694967286326 
3.536664635395642 3.7909261858930563 32.76907658669149 1.8982122845616827 7.2742022358667136 0.46260403115460846 
3.748745095463108 3.571322848177906 1.3953020166929235 1.8991464504524447 7.583478570296899 0.5114821781479144 
6.8935478575136715 5.153045002299593 28.706061451921066 1.899722680136104 0.1532110363816379 0.3053909810767567 
4.122203176863626 6.689907834320857 31.12689398391808 1.9042887783126061 3.9035455103483905 0.524906592592987 
6.651145811663366 5.950095776052533 33.07968242768924 1.9049841141191552 0.9946815209733799 0.5455434789893973 
3.4126353771227036 6.05352128897944 16.275784697749515 1.9051597183163613 4.868925672422964 0.5524314112121864 
5.171404187581474 3.1025118616842198 39.54547367125621 1.9052140642378084 9.149746015449013 0.33416320939447475 
4.30046790095549 6.772975638917697 39.473343252533105 1.9059873488009393 3.7101908610368817 0.22977057284271712 
3.284268713866129 5.837892246702837 31.165062774407446 1.9093970941905494 5.131125495998676 0.6745141764012279 
6.907373759804773 4.8987640688111656 35.60307674476393 1.9100584738053081 11.899967949321118 0.5778436371419353 
3.455011764722049 6.125723055512668 26.666777811109952 1.911606927393822 4.801784439704894 0.25453597363545016 
3.71053075002117 6.412565343619558 1.6659657974969093 1.912608636557938 4.419405774924085 0.7343176018335641 
5.402799613867136 3.129997983781813 31.023874304743323 1.9128918081249648 9.420127601979358 0.5704240779982073 
4.298174723626738 6.780078751843444 24.905646781584586 1.9134364586578045 3.724217455371985 0.1684249698942458 
3.0855625382718346 5.046237231278677 3.681549463808949 1.9149957379651 5.969894817084098 0.672606918144892 
4.266708377346553 6.771149920489287 18.561756776936214 1.9169477417767382 3.763601480024912 0.5737630438442288 
6.755794408910197 5.76989890046026 31.013302609114405 1.9171745677663843 0.7922558673272277 0.6643163202155667 
3.8684962881061127 3.4512167003904315 22.33308068320484 1.9180798625654627 7.8285195313439875 0.40204687915029724 
3.093249878624463 5.209256540767568 7.730934574262292 1.9181981975853382 5.816523537747406 0.48866508074456844 
6.751837691697264 4.216647347970619 7.771488822824772 1.9190040842824314 11.25053603926568 0.4122258212658922 
3.093106067571539 5.232204294161611 13.658207961419933 1.9209797770303485 5.802162434641771 0.5646352614659754 
3.8310217983387185 6.528156545255119 35.393015632768574 1.923999080759994 4.27859514020002 0.6081664621526502 
3.477757523290461 6.17789650364671 18.379249197060204 1.924749939914776 4.779228739731645 0.27594114029015165 
3.3943226167963543 3.934533680672909 11.79678906851602 1.927023180076493 7.182868514669485 0.38901517995293483 
4.076674765512121 3.3075517604395612 14.036848041842255 1.92792907863161 8.122295989923222 0.23308939763193606 
3.16401994332944 5.591217689808741 22.316012871578998 1.9288237672827493 5.4586883278615534 0.6401704963379465 
6.90137307798537 5.325427019152982 12.393432441090596 1.9290210798439604 0.32699073256758915 0.1925340065070052 
4.132941688309487 6.72353536269405 14.508160872748988 1.9293429613027624 3.929872176073747 0.5120248382209156 
6.614584101062452 3.942013653345998 35.30346440505987 1.9303411431946254 11.008957917961242 0.7968143537625539 
3.313713861508856 5.940741949453758 9.86043661793893 1.9309470102334325 5.083645122111733 0.5114741083693899 
6.884161232191725 5.43105539150416 7.820467362937393 1.932840474389712 0.434711004012021 0.21552063115545048 
3.2149758547977294 5.743153784887958 33.2811690516899 1.933543055364527 5.311618669352891 0.6048004988075228 
6.927976932639936 4.840170780728465 9.811289189777334 1.9345905076073957 11.995379053840814 0.6905362221178178 
3.0711739825155373 5.152803573913153 39.69885347296986 1.9348691785042234 5.9256079405384785 0.43360907566209134 
6.032239292771543 3.3618508670380525 20.681348876100188 1.93624650790272 10.213052562405863 0.5608989950120685 
3.9103466136822744 6.601017888147118 12.188346857573947 1.9366473041007621 4.199393896826608 0.7522108851779734 
6.040719040733458 6.634103381995189 5.6491741056609825 1.937366765688234 1.9445417312943736 0.31540068928056225 
4.896422544040404 6.934852794958277 33.0619476868368 1.9376231902877596 3.14723823891528 0.35783314758991286 
5.883636490592216 3.27512330596769 22.762263134236328 1.9380436158977319 10.050345166185396 0.474383873678191 
6.859811954875487 4.451836443720134 26.63844703934369 1.9389130439323914 11.626808175401594 0.8222309090876837 
5.4953955222771596 6.875843806314285 37.27291561257961 1.9401563620440312 2.5466475277190774 0.5004765694644673 
5.8294316383104485 6.754024728432348 1.5933838030365592 1.9402473013980779 2.1907032201249983 0.22836136525710074 
3.0614885965745193 5.104398947969668 26.744998000278287 1.9413205818585961 5.994389144432537 0.47033392906073945 
6.934609120262501 4.835602548808406 33.24989503623691 1.941581564127849 12.034722232028665 0.9257276993780129 
6.737545362796447 5.868567313313645 9.859435475074903 1.9425429378863988 0.9004717017331458 0.36972573780383733 
5.26961683937885 3.076001705136407 16.226895196126044 1.9427976422454942 9.425708062765594 0.5531202531118339 
6.178712849942465 3.4523308526434553 24.7969674032706 1.9454160923305897 10.4338036904265 0.30640977928259117 
4.308968939634565 3.1799584210122696 9.964529871775639 1.9468115665451373 8.467701178784088 0.48715354422276597 
4.4666490060094235 6.872610027447927 29.09063769325663 1.9470828430473266 3.5987272832809687 0.3059396405516577 
3.8799709430236478 6.594222608048422 33.295336019166754 1.9483353952756821 4.253674018263695 0.6458837485145335 
4.753657606047184 3.06701688574904 1.5118357816236028 1.9486170211300489 8.935638053744382 0.3495684415663715 
6.934938939174878 5.233950469241164 14.449628541734484 1.9490309182753776 0.23451594505091755 0.722724975043093 
3.056512100511571 4.849085569321372 30.986616959660005 1.9493384469724595 6.2750929363104735 0.4786695210753155 
3.412191309138816 6.132032408708094 20.39553543799164 1.9500343107596256 4.918428080247985 0.0 
3.230029729415288 4.175694073578694 37.336930954471796 1.9525048064184145 6.984968815159997 0.0 
6.062226782138935 6.638707424495657 15.5902554464584 1.9528665494063921 1.944430906815274 0.0 
3.064999374417744 4.7349777245290925 33.119688950896496 1.9530653413287267 6.401578139396797 0.0 
3.36145129495866 3.936474030345784 15.928862230642558 1.953440387347817 7.261545208090292 0.0 
6.255598896612321 3.503296714965221 39.56884484628934 1.9536246601146217 10.56990885735638 0.0 
6.921180871151195 5.363843890371199 20.630677883387115 1.9553307434390006 0.36597697874842616 0.0 
3.286469907833027 4.057611161326816 28.49491791009845 1.9555771782309055 7.1269294170676165 0.0 
6.868196327460044 4.421402547172667 11.882363539290381 1.9557434725324963 11.700910115029833 0.0 
6.024495768420909 3.3336417818326556 37.53083418445701 1.956103599190544 10.296201631356537 0.0 
3.0449515187049645 5.066755221615809 24.731167206474254 1.9561878293832113 6.0787771290510655 0.0 
6.409866678194568 6.3561219235581365 39.56797871515202 1.9562184749762523 1.4984047261508397 0.0 
5.785989435299339 6.791448142647523 35.05097302326379 1.9562887926370771 2.264093493826694 0.0 
5.045058616204573 6.956310180519233 9.542716233647134 1.9568290168784457 3.028717232950031 0.0 
6.294050492658151 3.531110779244141 27.123559120981007 1.9576011392522124 10.638762397535459 0.0 
5.953160239047933 6.709977794043014 33.03733425197134 1.9576870274438982 2.079614096986125 0.0 
3.3201473471813108 3.993783282438705 24.43804155436031 1.9581565355920367 7.208502820501202 0.0 
3.1066251016870154 4.496133747897708 35.2584281453315 1.9592727491519182 6.664829222448901 0.0 
4.261557417894117 3.1841144836288127 16.07822106388973 1.9602901967907331 8.480523164583225 0.0 
6.160630953543052 6.579944072405068 31.01719045051997 1.96043043290247 1.8373597659370446 0.0 
6.251241388088104 3.4905212822273235 3.666214205267565 1.9606455596749988 10.59634557391226 0.0 
5.217941574468853 3.050874414438878 26.726214120076868 1.9612723110702772 9.460670643288111 0.0 
6.254598129246445 3.4918551052121876 16.13514906068714 1.96176387202518 10.605825049351369 0.0 
4.323397997646817 6.842332645419208 37.357330874892746 1.9626461336587588 3.7736931205490265 0.0 
3.3490795626907586 3.9386348140884833 26.47916607186285 1.9626600184928424 7.287269314100675 0.0 
4.01156988808218 3.3037018642881906 24.687593140943605 1.9632680538747727 8.215861453541 0.0 
6.938725680118038 5.31693787797751 37.678098186207066 1.9644609645513549 0.3183291789255218 0.0 
6.117784869694562 3.3836820607565334 13.937882756091582 1.9651785403973687 10.449698768204351 0.0 
4.016882428128416 6.701591184309717 5.703746332987635 1.9651800728287543 4.116472719855805 0.0 
6.643479210957703 3.922501803802807 1.6384550532502473 1.965203877377193 11.207300829814328 0.0 
5.772987300821536 3.1912700390209734 35.06003596427938 1.9669807927314795 10.063586776975034 0.0 
5.412500388884621 3.076441207068604 10.025091578185652 1.9672912851669055 9.686226203290571 0.0 
3.125291027853515 5.601007600951566 1.667239830438973 1.968690901753773 5.574067143219411 0.0 
6.383020132449326 3.598188801322536 31.17575173839166 1.9692179471804803 10.813053722130674 0.0 
3.0456788163376176 5.2422502472452654 18.11942800716963 1.969278159936255 5.943804373994791 0.0 
4.056326902036326 3.269825248315512 20.338147647770448 1.970792629168995 8.303084061145583 0.0 
4.295682761837605 6.84083562093524 16.550487881313465 1.970974011821753 3.816238743742252 0.0 
6.875849239754789 4.391725272915376 39.648751344355716 1.972006215481708 11.772122105988359 0.0 
3.0701680482118396 5.405856486570397 28.879126410707208 1.9720473751494327 5.786591988672891 0.0 
5.396506488203538 3.0674734889558435 5.570768970761939 1.9727838480370843 9.695750648429687 0.0 
4.11397081150656 6.7627634248364785 3.600252913662345 1.9729122166998652 4.017936127169014 0.0 
6.5488412646278205 6.222610467296872 28.84958840186313 1.9732424123147618 1.318572266137556 0.0 
4.665967161073612 3.0537939487301378 35.16530091601011 1.9746634982904427 8.96973574843123 0.0 
6.85763096185594 4.32812286432678 18.502307075966456 1.9754016492567485 11.726258585875925 0.0 
5.857886353569374 6.779851127497662 22.63507902183767 1.9758135113656987 2.2161771412684796 0.0 
4.2604259115524075 3.16596253142749 30.848391408734464 1.9775397008482414 8.560936933771828 0.0 
4.942354722414675 3.0231686647734852 37.44591099149433 1.9776716375478847 9.261904588234632 0.0 
6.631709406490173 6.117655294923753 22.563625515869063 1.977783847011501 1.1877785932153007 0.0 
6.936971064200071 5.400189058637459 39.805931332201915 1.9778797198519147 0.40297113729515743 0.0 
4.767267396395914 6.965286737044596 22.7043377079586 1.9790190558920193 3.341908272639877 0.0 
6.336776978537168 6.459299638088772 16.60919310166139 1.979022012023359 1.640984553590588 0.0 
6.328824457730162 6.468353143437137 26.665796861468266 1.9803624398840676 1.654075562232567 0.0 
6.910741378398617 5.522106187678748 26.6632900191195 1.98078961183087 0.5283491392173332 0.0 
6.706517971844347 3.994282045151593 22.504482066765306 1.9808261389966066 11.391021003263951 0.0 
6.840392048352424 4.266876124925293 29.18759186130324 1.981038492266968 11.696250186960697 0.0 
3.3421345893129573 3.913509931798366 30.526884107159134 1.9821650759342186 7.377069417318456 0.0 
3.9238731750140534 3.334605183727266 7.634417393538627 1.9828234509210416 8.206334190010189 0.0 
6.235526334385189 3.4476172082811942 11.877775331038308 1.984040739245032 10.683303364697021 0.0 
4.027343478752652 3.270298195099846 37.106839200749015 1.9844215888262855 8.334831841816722 0.0 
4.15129473557967 3.206221624371425 28.67214741067979 1.9844247243792006 8.47440782466369 0.0 
4.339744648994923 6.871946846693522 20.598783802539998 1.984974086827498 3.791069895695772 0.0 
3.3045884821144345 3.9653672943814717 5.837331189309602 1.9861734693914712 7.328023190089269 0.0 
5.461589273129645 6.931940903917981 18.408131905763398 1.986318280966015 2.6542533635726038 0.0 
3.2705956227417143 4.022811462683167 20.42373248342394 1.9863879121519872 7.262059595114806 0.0 
5.950169782695877 6.745182416731698 13.515414524625122 1.9870793350084976 2.13058984191159 0.0 
3.0132444842877213 5.085353406127256 20.311683350481815 1.9885881129964267 6.161954171666643 0.0 
3.015187651270895 4.868229120640757 11.62420102437271 1.989181646887648 6.381065892310341 0.0 
4.80457659799694 3.0197249952557943 22.578895343521054 1.9898943189187495 9.181417150794616 0.0 
4.988675541733987 6.990496129777104 13.908257603190798 1.9905283434336334 3.1380391296027703 0.0 
3.971082050802975 6.705711570772161 9.914666218539956 1.9920150875045708 4.210282284306508 0.0 
3.5570684428371147 6.37350694825308 28.971182084917686 1.992127710654114 4.742935917024118 0.0 
6.918157158907902 4.462179978871546 31.201751989685178 1.992128826506019 11.972337307853836 0.0 
6.638743685378892 6.134538132323591 35.43492665032038 1.9931526885980149 1.206962109386179 0.0 
6.845308885761219 4.246590589934016 24.64147121540104 1.9931860482768007 11.750944610157818 0.0 
5.112160677010691 3.008749385396687 8.031802470779564 1.9944069363160486 9.510641151585249 0.0 
3.0057679505131043 4.961076771266024 5.684472545617794 1.99461186322948 6.305183675792408 0.0 
5.611115258369316 6.899976544867496 29.06755962449199 1.9958388537300358 2.513964973529683 0.0 
6.9688958537893635 5.335809953739247 18.1491477368519 1.9973280171517394 0.33741251187987054 0.0 
3.4264971858906454 3.7690434949156923 9.803789506325558 1.997790034868388 7.602488923441733 0.0 
5.345253858996514 6.967762686834609 24.81324611549428 1.997821368103401 2.7911745869622777 0.0 
6.9236328946107895 4.457312892704639 16.330478850812753 1.9987177913985987 12.00872774135005 0.0 
