429

3.8202622586438313 7.152624900413753 6.859536941650276 2.3564142125704244 5.571342069470681 0.3856895368458588 
4.285803852067095 3.472160904135589 0.18604646410913261 2.3635574214245993 9.862839427209469 0.43687945392204747 
4.415202527581492 3.3968877764100958 27.535537122034384 2.3664037232008512 10.02450464105286 0.3683412540097041 
4.231238068702478 7.4984891545106445 39.26847012388234 2.3672168762085333 5.057452271418994 0.5437532456867039 
3.211350341894623 4.883401241471929 37.67100379576613 2.370255531913008 8.07015136061723 0.5759530925771841 
3.1568081949862634 5.87421831114881 35.82197800977198 2.372885833638569 7.0788535605289375 0.48248506294493887 
4.405486265224908 3.3927640705245885 24.938589950752103 2.3745322861741465 10.052193826434465 0.3063440887009684 
4.917978676001122 7.80468311480341 35.67740586048724 2.377038721024409 4.321843327747899 0.576446914977617 
3.400331143849116 4.383870587739445 8.076604905370296 2.377888595036163 8.632161886276675 0.3917729593295791 
7.7534190438382575 6.260814378545312 7.168105892060495 2.378389351164821 0.7744263387986159 0.44966533151528926 
3.3651722941324094 4.451026910338639 2.8261131862909608 2.3786201623154515 8.559003126311573 0.49660784848285094 
4.496635361766084 3.342122845607232 6.572452715772215 2.3797425093292137 10.178514931368088 0.38858216504727383 
3.223133967831826 4.782878086532406 21.132089310666174 2.387128561099436 8.227756983315171 0.511403257159742 
3.643168405083224 7.001906708721118 16.164029068892233 2.3882100689810946 5.878521431882618 0.5820112030908232 
7.755404801846162 6.286852881410678 12.542846058220555 2.388721054701662 0.8018259623815123 0.351821076769416 
6.9236040194148485 7.420177756876354 4.5556874097510445 2.3903411936576777 2.229775464312823 0.5317860084488266 
7.8879573288689055 5.306197139702732 32.79551604407261 2.395808788939159 14.859295735299563 0.6022868540877963 
6.224487293681937 3.2159003411344713 16.122834858613828 2.396245623957653 12.028046850103342 0.6342466454124662 
3.7112860809658894 7.096796482661841 13.60075640362382 2.3977607243400243 5.785369282304982 0.5353589016692312 
5.095830536102634 7.863822989771588 33.145797524354734 2.3981267861645206 4.173076441109787 0.569980028195321 
3.372263608793461 4.3929422728517045 4.057330875642563 2.3985076530424863 8.685827922534767 0.4021810036651784 
7.1946307804592475 7.197497547631491 11.656288372702392 2.3985978000270984 1.8858814176193235 0.49234564821136567 
5.274376737823525 7.888059085336996 26.654040943439675 2.3986938219572194 3.9938167368406763 0.6444034089224646 
3.5101852103323354 6.839872727207323 24.490018399096613 2.3988792846440123 6.114663390239709 0.5574708573440159 
7.126171182350208 7.264439943536571 25.025952139771483 2.3995168323338767 1.9823739658554391 0.3662182776913752 
6.318666466945954 3.2436922051782826 35.55031683719299 2.400237415147721 12.146285382025232 0.496950529573001 
3.1026724903416385 5.620938918072281 32.99091979915764 2.400376097712451 7.420013770999729 0.5145202503804343 
6.408236154574809 3.2780606143760016 36.82354954124645 2.400397372491475 12.243041333239761 0.48204970408022635 
7.814652189011627 6.144049931462328 18.50497964002117 2.402585080764661 0.6520240488086788 0.5092384870348412 
3.7934399024211967 3.8077052552633557 28.21719328036358 2.403374475547131 9.427942337909398 0.37382905194793076 
4.436321957635372 7.655593054672586 32.39499919160053 2.4037454930090556 4.877657426507472 0.5361479264641377 
5.105498689695255 7.872188755650779 13.661435709213237 2.4047683414974 4.1736938549881035 0.5930613721163414 
4.328865833218743 3.395066714421186 26.26685711555683 2.408796249860095 10.128178445581547 0.5040394531310933 
5.845902167541848 3.115709034440295 24.907412874760183 2.4092512774635564 11.700430848692735 0.6178477993105882 
6.209071758172128 3.1973337979954053 20.090361540692236 2.409368049114036 12.073607590331227 0.6769089123055676 
7.793536936943654 6.239539587021584 19.88446807502521 2.4098195953010517 0.7516692017462514 0.49327200763865264 
6.782682383271408 3.458714336769382 7.330393881626037 2.4108341409698193 12.713311793521193 0.5588333151013524 
6.639131845487385 3.3734405895499577 24.31648774092011 2.4124419760021443 12.554741100286492 0.5367086974201486 
3.198203408249901 4.776960198059635 19.707908816285183 2.4126860767580873 8.314001611910813 0.4573987300398204 
4.180658408884274 3.4785911357595882 38.92142638549248 2.4138674426068816 9.979239702257011 0.4890013674905042 
6.357169503581437 7.75803098739407 17.75801992689825 2.41525226382295 2.917602479470901 0.5072578147223371 
7.736461825425435 6.412030421796336 34.62397927177587 2.415276585997405 0.935226182916578 0.5020010934414102 
7.373609618163419 3.9751866728483645 6.707884928392858 2.4156714768224825 13.52791432691277 0.60454862890785 
3.2675378378255484 6.423240571403015 33.58646577429244 2.4158353541218816 6.642237491108007 0.6148876976931946 
6.289486863619127 3.2164373596863722 34.31941641921534 2.416184562499999 12.190257871113827 0.5757568712260759 
5.104164645828177 3.1152240836549563 25.626306503232 2.4174039378622014 10.994121772327794 0.5039837156528878 
6.315074207355524 3.223002904130908 11.84898792546916 2.4184833549339375 12.228184544365947 0.5415940715416916 
7.121064489646246 7.294995033118509 12.87971990057683 2.4186478140713588 2.0226420808292005 0.45167768070535674 
4.309731016267834 7.605927774258101 10.071187408793435 2.4190229523562765 5.044228804129622 0.576705061053341 
7.455205240919478 4.0749202867610705 31.25541477723074 2.419437894058068 13.677926062878656 0.6637596173624793 
3.1288764535134597 5.016768420250477 7.345553590598676 2.4198635565606015 8.088727876210312 0.6253399672187463 
3.9816051338432015 7.384405104644957 22.492253240284988 2.4200218114685024 5.442737841839561 0.5911124499571059 
6.284998764347362 3.210590478621361 17.3670729680709 2.4202518498301067 12.204626133498719 0.5634114989247406 
7.825633108442272 6.170277293956495 27.985081920959345 2.4202977101746233 0.6791551514669809 0.5527629266420637 
6.292023337764116 7.787756454302629 18.94651631696707 2.4209771915006435 2.9959835072420002 0.5433860042303265 
7.822872021414916 6.182274184308449 25.47690804014247 2.420998242553262 0.6916440933104173 0.5153393711805262 
3.210821580143012 4.711024467422293 15.337800612354833 2.421326130232193 8.410469962567491 0.49556247627176303 
6.070961921323292 7.853646152767515 6.4643154757283625 2.421909933923744 3.2279397229945896 0.5719730330510621 
4.683285532235191 3.218991115771402 35.71396220700814 2.422813251529336 10.584207584926121 0.4526077896724084 
3.967332811543722 3.6227686854806302 11.395956209448634 2.4234409666386743 9.760886369141689 0.4093847257345894 
7.5681331882339435 6.763631490973488 17.728178038669554 2.4236211397936307 1.329281653121603 0.6055200293421726 
3.7676852870541317 7.196379718256225 12.284322925643679 2.424586235463649 5.738207072582972 0.6490274848824019 
7.6804822912170465 6.560493008576936 33.300560828649935 2.424695536258459 1.0975962112605195 0.7098134162114101 
5.303949280961507 7.917068639107967 27.90537921580369 2.425006534134446 4.005456269994452 0.5961724681983961 
5.693269382159112 3.0824583536884695 33.462941887559424 2.425254763057036 11.622218350184955 0.6148298794528156 
5.0532364017727405 3.1155041081974666 0.7577369010044777 2.4259881225439113 10.98287150989481 0.5788301803555446 
3.087858063108076 5.238956529840159 26.992732784962918 2.4262259616585213 7.883763414365287 0.6969113891793436 
5.589457923685208 7.924581812891095 36.56116228497433 2.426231581591571 3.721637450831981 0.7246289079416467 
7.924408685002614 5.614752821811354 31.336706581291025 2.4271229227276025 0.11479561676367744 0.630824419626868 
4.699714534951293 7.792347555405787 23.12525432653193 2.4280267997580083 4.629469197605175 0.6715632351820351 
4.612989140052437 7.760221469260397 24.72067425845981 2.428042288711328 4.721989098302091 0.6400187831764298 
5.560393795604733 7.92760523287032 21.303013885158563 2.428356353010594 3.754053216237791 0.7642021616630069 
7.890105742925606 5.933376258766904 23.7101951157605 2.4290781057900883 0.43570894613536204 0.5625988849884783 
6.853076678983964 7.517718744037358 5.895726190147791 2.4294043363034445 2.381004459068995 0.7042234457504483 
7.930643494206791 5.542126208069252 7.876239305737393 2.4310085177423995 0.04212831665654804 0.8032104975534404 
7.004889877871374 3.5903158618353395 16.716943759135503 2.4313755473141985 13.08028714749178 0.551436266678511 
6.393765372290556 7.7615953992926965 16.427590374116093 2.431795692653389 2.9046371313327786 0.5598642201865514 
6.364976022047337 7.772817429688768 2.5966553088319415 2.4318475666484294 2.935598787159787 0.6309565327936685 
5.823573950526249 7.9104258941625645 35.15497537522654 2.4320470991961822 3.495714405588121 0.6993134151389754 
3.1800707728968867 4.768126281844051 33.57060645332646 2.432634530317835 8.38573690300571 0.4138194597498167 
5.391773427964449 7.932775174513536 24.107521451214204 2.4351813157594506 3.933436097319623 0.6184934594819436 
3.4250454414844853 4.224688678174392 10.764857637815808 2.435540060742361 8.993703723071068 0.6043622935803098 
7.8196175410976405 6.244005996428007 5.987095036507355 2.4360152831393913 0.756087260232384 0.6392541475431249 
5.653054638573897 7.931411046056518 1.8954354153323862 2.4362235934484002 3.673655571530725 0.7736149925542745 
7.930449708727414 5.670906927390718 14.587853869766349 2.436451305584272 0.17104739482407183 0.6420990538600351 
6.370232181328335 7.776304680319069 38.50082707231932 2.436979082196229 2.9381212171321014 0.6354083437734052 
5.27422240695718 7.926816097173964 29.14829983960952 2.437296020392861 4.0545973874496894 0.6123579657261432 
7.145391610798053 3.7018680800072445 38.66718888037707 2.437332959318739 13.291898723625465 0.6364320812421566 
3.8221384619303382 3.732024570489412 4.713419089289538 2.4374077336971416 9.635405191526981 0.508630497648368 
5.589517664194673 3.064100751170077 19.245783735775277 2.437543550924384 11.57619116695709 0.522604561201513 
4.180871949983706 3.450104667026298 34.84191442574481 2.437656597736267 10.093335852608451 0.6121593858860459 
5.469566271631667 7.9378195434310514 4.445678718804729 2.4380095032950093 3.8600508912842617 0.7310868950162194 
7.320969510068606 3.8780190363611524 5.406333275243419 2.438596359180073 13.547668054443017 0.6949481291276874 
7.80871241333994 4.713917476794589 7.2750217565889415 2.4388683319931244 14.523489932295789 0.7905290504394689 
3.0664852680829915 5.679625440074256 31.63228023635397 2.440135088305351 7.486122402716115 0.4812969051992657 
3.1467469533536256 6.146673299692258 26.388928937527226 2.4404889383247204 7.012531769236546 0.6096759927362835 
3.551559912931477 4.028871351223517 13.341777375907661 2.441441843285748 9.248925172490459 0.6166290533321394 
3.7443015515968225 3.803377433399177 2.130038010100364 2.4415169823747895 9.54603977435837 0.5652427866329001 
6.77965194541166 3.4202750137784967 2.0426116668360734 2.4418773760592227 12.853997570047385 0.6400984156064646 
6.5820911135279045 3.310935629094754 22.843803542785203 2.4419099078268314 12.62828735936747 0.6883110778103526 
3.9651043154694356 3.600622006071151 18.17927620252489 2.4420363482576852 9.848063082565872 0.6184094176939993 
7.899018537160334 5.957381861249538 2.0604115513496737 2.4422301506285202 0.460098661786315 0.578134245955417 
7.935391745792497 5.686426982448392 10.429231061832276 2.4425167297807895 0.18660846753603977 0.6325164252146825 
5.401570615882112 3.0587922035483945 35.0242058135238 2.4431913247050323 11.414811845794622 0.6891462187733363 
6.929007886082277 3.518227663283767 31.902349942766584 2.44325298179682 13.0399346446198 0.651882162204777 
7.709117497367879 4.455823794378514 39.26259196655266 2.443461492547614 14.273828456783823 0.8176454600946242 
3.4739974046269477 6.866062278252002 3.6360098218943193 2.443524639638691 6.2269516646610406 0.6433805429070902 
3.5533525298327167 4.022907305897877 20.299679267194875 2.4436119168310144 9.262985968809943 0.637762421705224 
7.088471723137161 3.642923385347407 37.46517701679957 2.443762666032827 13.2451628884417 0.5867676146109618 
7.0825931997424 3.637669687424461 36.13577206864616 2.4439466911143124 13.23827809133533 0.581998661030685 
6.530571055864845 3.283385894107605 14.5745622468472 2.444474339326868 12.583150054073077 0.6942792203680875 
5.36185197340018 7.941383104915775 5.7630422310844835 2.4452886010084005 3.9792719738071956 0.6930573443390777 
3.2237565354694535 6.3947180790764895 18.496743744601908 2.445772833041602 6.7676406108143485 0.5474058497230715 
3.062252886943705 5.698545313053929 8.111836411776089 2.445819132427821 7.485003394705158 0.4815965043276497 
5.710578750754116 7.9367661921619135 0.6318813824695084 2.4458480912625022 3.6310894195110137 0.8661915331872287 
6.802675617164256 3.4289007237819114 28.13755189017327 2.4467153441921603 12.903594244696182 0.6512804506989966 
4.458940916095001 7.714253098166472 29.773762665689183 2.4467776357734135 4.918733639963824 0.6891747321537481 
7.373910620189097 3.9265891321125155 2.684389576508856 2.446867951411343 13.665112552586441 0.6777524918189745 
3.153220849702328 4.805775730689193 32.33153273593888 2.4473086679804004 8.392335875034512 0.5265877016399177 
4.9984596540634785 3.1036925865877354 23.034125208602973 2.4482303686901483 11.031897493879121 0.6007474781958893 
7.2424779714621845 7.220545082616985 15.793851902305192 2.4487761968682373 1.907755329476835 0.6638502998453037 
7.026893917060674 7.414962068510256 3.2870199210910798 2.449180425732242 2.198564795286046 0.646855155317311 
7.814997254903719 4.70038249515145 3.2673714713916553 2.4492040430049875 14.57425221910222 0.7812489349236558 
4.216150654070718 7.585875491521399 19.79596812979323 2.4493153551906466 5.19875158006429 0.6580875121753986 
5.436749809128957 7.94866189437751 19.642323950256056 2.44947865057479 3.9108892887596305 0.6041954511294171 
3.0915884150411337 5.051599578249953 28.485933030480695 2.449797808144521 8.147209458003177 0.6333825554008001 
7.21891716405092 3.7544249221872894 13.900485601366526 2.4498384781755926 13.44984031206077 0.6670204229215093 
3.715967615913975 7.179086291976486 37.28536765763393 2.4499188401600205 5.846704718154161 0.7268104114122697 
3.824441588033105 3.7124293921303106 3.440444497757376 2.4500825843290746 9.700670194836173 0.4686598423894332 
7.437662995383933 6.999788871113706 6.559193497885985 2.45028662437617 1.613996892336031 0.691383345239189 
4.407444417134384 7.6932718739534245 31.182017539692623 2.4503304297024897 4.981410302388678 0.6622096550612422 
3.4371539426426683 4.177519619064535 18.926439378677593 2.4503649145206734 9.094976093537413 0.5977778563567249 
3.049644088637331 5.477681318183786 16.03609013197626 2.450457552357925 7.720658434823493 0.7014805874337959 
3.802936665957157 7.267803555730426 25.386654917424664 2.4505414445394997 5.723927884909822 0.7043692781874994 
7.838801564399914 4.76815219675801 31.90714759885458 2.450631340032526 14.654583623526992 0.7013658712779862 
3.0901221758618664 5.052476567207611 6.119284971155139 2.4510790175290222 8.15033978510998 0.6436853765559828 
3.049044606872066 5.47451424256874 39.68513722933473 2.4510878937595764 7.725805937014551 0.7088046530174034 
7.316314365535154 7.146877791617985 14.619720946753553 2.4517757513634693 1.8057626874541732 0.7434518275623503 
3.81498556990363 3.71889948862748 5.9344167671284325 2.4518549429451255 9.696363663706375 0.4914427218377049 
7.772577597631713 4.578820414473087 5.992856806039043 2.4521787793815246 14.463144331806589 0.799225062221528 
4.817713597994965 3.1445389082608024 31.595807932891127 2.452287032355343 10.86471993648675 0.628307164971007 
7.774179482253471 4.580767559438126 26.73307234048682 2.452933060090309 14.469999432782265 0.7824051003998727 
5.936023895715165 3.086074685809754 27.462016081620604 2.4529884345677453 11.997788925818673 0.7119630505838298 
3.0806316981823176 5.094705090845579 35.14299061805347 2.453081112239597 8.113743439396183 0.6824142889792447 
6.122875919102189 7.872782532431465 24.79702951688317 2.4531757696523253 3.223668999433494 0.6600038832993939 
7.028912967762006 3.581345114141766 17.93247427866094 2.453326605655777 13.211695408112222 0.663260782814903 
3.506786911800047 6.9304061095947125 23.270668364550843 2.4533568948152396 6.180316886278311 0.6181729886928156 
3.197113697088863 4.653622197224481 0.24541684487734727 2.4534956101788405 8.572016801097773 0.604063818280905 
3.8267008535963907 7.295108059350363 26.64548540439251 2.4540462461208175 5.696060641828398 0.7013179227208693 
3.2180488287709625 6.40347119634671 14.142005751800497 2.454294471024562 6.78516224244326 0.6114455306822948 
5.788182102207607 7.93797304916073 39.36967111509226 2.4549463359647716 3.5673725871968998 0.8417689413872205 
3.797924557836893 7.269387724869689 30.425957246974235 2.4551565595159626 5.737226404572294 0.6649380796274085 
7.882031163384742 4.90512788654655 34.808471678050104 2.455187425574804 14.82554572316204 0.7772977371550412 
7.665223127161109 6.658189056962872 1.358990183727819 2.45552297526655 1.2061044626855892 0.5639918180979635 
3.1382236087056157 4.827227822768046 18.20970480630932 2.455730059459498 8.396389037608133 0.5289053639746206 
3.0549576908376057 5.728997301758124 17.688748579868715 2.455742587855387 7.485612391263716 0.4982418717615537 
3.7629323170917566 7.236222809775686 29.222605822085967 2.455987333067823 5.787381237683764 0.7193756538212048 
6.832285912932226 7.5633714110559795 27.904683069357553 2.456112239650459 2.4498766250069437 0.7809633171843572 
3.2341037526370737 6.447838179385169 8.762359552535706 2.456152075526592 6.7431332938861 0.5880830834041784 
4.3417646429636285 7.6660790997899495 7.60444872628954 2.4562996170736224 5.0644694421532765 0.731144259753955 
6.705677086291651 7.640243601425716 9.571974569508079 2.4564812048644815 2.5983964015801693 0.7513582622724686 
3.517025874987654 4.04992524799695 23.027601655948665 2.456603990647493 9.268751042872328 0.6276894287503075 
7.857350595548789 4.808748336318653 9.802060454947053 2.4566095930929808 14.734618538044646 0.7083135417903353 
4.6141215404316345 3.2085801972549044 10.745689854740334 2.4567021304056342 10.67064030873879 0.5940693932192612 
7.940171021431617 5.2106906992830675 38.564222871175026 2.4572615825987962 15.149447971949717 0.6811890093283148 
6.026667505542791 7.900914797663641 7.707220131972456 2.458001327712195 3.3302364481676445 0.7360502587903697 
7.066819915211486 3.6058056570900883 21.855675917719772 2.4582304317161223 13.282995482287768 0.6630617592623936 
4.758614750995305 3.1562319192230763 11.931689114918733 2.458231255173219 10.831030842739118 0.6621523458181351 
3.1920950884389736 4.653005300759918 23.75867726008817 2.458419228152168 8.588066693006757 0.6302284447688474 
5.9518992165449 7.917516051503651 8.936945202217657 2.459389509856402 3.4087185247695757 0.7000879601452197 
6.002963496769318 7.907592805250604 31.075345443282266 2.4595681318021847 3.356944012818605 0.739167718246442 
5.303365620304836 3.0482547460208913 30.697949652976206 2.4596178300067635 11.39383151814524 0.6936727430819695 
4.504822491674563 7.749370094636188 27.30047355733148 2.459683738963291 4.888210743188001 0.7139537093624133 
4.871724616249464 3.1213945436816335 21.59906535394073 2.4601816751318157 10.958019951422115 0.7185635150085771 
4.485715993998095 7.741521866627042 26.0050704546547 2.4603236216803785 4.9101308142171405 0.7414048870700133 
7.859964377380903 4.803942657727091 8.587386524490789 2.460473061473925 14.753915393667166 0.7013882632893007 
4.0598118156683025 7.494991364315757 23.923432414223264 2.46051469208844 5.403464618760427 0.6575343858616011 
6.8561021645351 7.553120358965706 19.76014251537446 2.4605520293333076 2.428736183051095 0.7918546380301387 
7.06394856227924 7.399704655892872 17.13982260234551 2.4606529387697837 2.1703776231592293 0.6673079840297383 
7.489798931747343 6.949643456209524 27.344285258065838 2.461862290810345 1.5500454230524774 0.783428900144321 
7.480164741718321 6.9629867926052595 19.213225447442674 2.4619875628609096 1.5665821628682277 0.7816508222875607 
6.154023780302035 3.126398259841772 31.295905749576 2.462058554560131 12.26414829341505 0.6288175434390845 
7.960129206457378 5.402457662067511 26.13842126902093 2.4620621885228524 15.372025095282543 0.7051299100164564 
4.320518494329471 7.661729101360782 8.899629541098442 2.462569659905871 5.098184468862227 0.7196448538808774 
3.425304257544303 4.172371716056949 17.509779975383623 2.4631198273915476 9.140256688990137 0.6574509730765825 
3.9417738453964777 3.5923819502124683 10.090739189381466 2.463143392652094 9.920214999254858 0.6707943050396574 
7.934066357518024 5.117860009024899 12.50387633429741 2.4638810859096894 15.09733255765419 0.675772611693643 
7.948396008195827 5.775829661440578 35.43097229644477 2.46388413182919 0.2764090792106817 0.701093670835835 
3.0390650614442656 5.377367569093366 24.501642542533347 2.4639885318147066 7.863531385108201 0.7482156850047244 
6.845828980517187 3.4355732980636198 29.439010760225337 2.464368733056775 13.036778348526651 0.5648825548706712 
7.050574409943248 7.415594765829031 18.41081837816691 2.46450488083153 2.194200161203076 0.720782722797654 
6.288928378617628 7.835007074177426 3.841569669181993 2.4646837572083857 3.0684536939450755 0.7055429843046349 
7.295958919240331 3.8114302108803404 1.2394566453041165 2.465103724455933 13.628563160875311 0.7453326362582798 
3.1233563020909525 6.155220309566646 25.142272605033483 2.4653090923613203 7.081806801825435 0.6562925288768031 
7.954857083871021 5.272561977223179 20.352149880254167 2.4653704298616765 15.262617390215269 0.771692875750474 
4.549829933722757 3.2250660993033664 14.919643038131674 2.4653899098090153 10.642456716101691 0.6551641082350147 
3.5968492687337994 7.067369102710002 38.60335513332632 2.4654874994712572 6.046970071031756 0.7173820090826473 
5.882069065373861 7.935879817173314 14.446137763577497 2.465661626101189 3.4894373991667926 0.8176284592381682 
7.581057033716382 6.823542803752143 3.899896098806643 2.4662854520400734 1.3970695960490165 0.7648099549782024 
7.917770698377055 5.98740741744193 37.90693354881551 2.4664105782509282 0.490636948107376 0.5539668904182115 
7.478559517175178 6.973084470362687 5.316881500423946 2.466713526096654 1.578664737263809 0.7455549852203874 
7.961664055497639 5.663690193357911 33.95524747117853 2.4671004036177027 0.16381053192295525 0.5869778534784642 
7.966728350755686 5.550948445122485 29.944952082923336 2.46725444583291 0.0509520666936325 0.6228175056959733 
5.948090374080672 7.926405191573627 32.58695622037229 2.4674333095423697 3.4252445742355135 0.7668853148914512 
4.474604776368333 7.744288328545499 28.4961477086896 2.467441076559315 4.933317903117587 0.6821143412767238 
4.004556637777725 3.536287873726959 37.589992524969816 2.4683022838555337 10.025117649231225 0.7708505584185054 
4.133263141676164 7.555739263183886 0.5284095220936464 2.468609640687799 5.32610668348987 0.5529329976052781 
4.0086062336302515 7.467341902461909 18.290864370006865 2.4687424992390326 5.479240112958111 0.731180750451494 
6.220637093453744 3.138374012718062 10.537805964147338 2.46912841388755 12.36677474077605 0.7010034644566134 
6.906402187835363 3.4705495219741653 30.660291780001984 2.4691367634676262 13.131854899612458 0.6977812133162672 
3.578462668226197 3.949338352030022 39.573235600733526 2.469181496748539 9.43370879179281 0.631492385101617 
5.377861529273783 3.033603413507654 16.732862324384705 2.469418945398377 11.514674302079117 0.6387532676139719 
6.166785938307866 3.1219428272139815 9.318395825818051 2.469769099443131 12.313676636153966 0.7082447885015666 
4.873079009078742 3.110726713346553 19.948627376924577 2.470153186985264 11.006468378147174 0.7393841486405964 
3.053764489667566 5.8431745994128725 29.11341431569138 2.470189664315995 7.416041493916397 0.6528111963481315 
3.351612702244182 4.279886469489683 9.556703370599088 2.470677034436695 9.03795980750686 0.7316938953312369 
4.454927619299612 7.73917214584009 11.732893206586773 2.471045968736496 4.960549330746106 0.6978754543271832 
3.1920778012773585 6.383055295512303 22.462941245933564 2.4710911618734497 6.860141832956204 0.6533661672687681 
3.2513478236922984 4.475041385364294 27.63121406204816 2.4712298095744365 8.820481066449418 0.7685277725654125 
7.054066249527716 7.42152943749516 39.15855170412622 2.471314890312767 2.201283013622808 0.6786513650847745 
4.4973198401009125 3.2411171533288474 5.2971212130047505 2.47142048588265 10.613844992449435 0.7714350758290718 
3.237443036864102 4.505487474772978 1.5891125850185048 2.4714811701221127 8.787906231183623 0.7697042352883572 
3.041725894069664 5.755729324868473 12.155496736450644 2.4715398170948575 7.508383490236341 0.6929603251348135 
5.626554995832317 3.0316204326748872 32.20577972967226 2.471621705552497 11.77385324978341 0.7369586674258158 
4.480206636958625 3.2485004948948735 28.8320753126567 2.4716853612043477 10.596345363294745 0.7222382828777202 
7.27988491937681 7.215111066566351 32.49077707239876 2.471759757113012 1.895510921484048 0.6835516076311935 
4.0693187513985105 3.4842622757905675 33.552717034079166 2.4718510084349634 10.122589682300788 0.6676956726724429 
7.134869710463851 7.353996854021509 37.88222611629685 2.471862315120689 2.0964440628786907 0.7431180239377445 
6.546227704473326 7.739902992323895 1.2736503708971512 2.4721969631542438 2.8030380831134405 0.6163930942848215 
3.082249177610371 4.981280465242719 36.43183341016284 2.4727694989433484 8.291035734452365 0.596832918286902 
6.682214956179413 3.328123509691949 25.454432846101923 2.472787838001293 12.885370249977509 0.7708204862098142 
5.1006095539797265 3.0596365426481196 7.33044767091598 2.4728296610059304 11.25178767909137 0.7699573573507908 
4.47452670997462 7.750470726495752 6.252048953661962 2.473098048879137 4.942130046251837 0.6373689600906652 
3.101427477750571 4.8970193793686825 11.498288169242194 2.473203544665688 8.3789180266514 0.6670466398213915 
3.167683343033726 6.323118809220382 39.12007169875241 2.4733025618501916 6.930984689749396 0.7037248310357573 
3.9774407337928235 7.449378685298067 4.299486317150858 2.473512477795037 5.5255156312303715 0.6925654445277266 
5.203318475733155 3.0442665016453834 28.165698377735367 2.473589889569875 11.35912024905768 0.7556078956382297 
5.477126841038306 3.02602953907909 20.760442197889418 2.4740761958577813 11.635935917180563 0.6116303974267404 
6.588187982655654 7.7219399625051715 10.9977541656636 2.4740998934104628 2.7595735940707087 0.7251290681482714 
3.037131623457544 5.737187442275772 37.09304090206446 2.4742632283057926 7.535574956236797 0.6297217505956384 
7.338013188295767 7.156584076342254 34.05574293040654 2.4743813938719885 1.815027300642834 0.7336254744627682 
3.8137189851634297 3.6889094444866544 8.853032677655918 2.4745893924584514 9.805962211863559 0.6258374071527497 
3.435216078045828 4.135991194362578 30.367026321842893 2.47464192686879 9.219000644380783 0.5785651151093136 
7.867758028740738 6.220381129919637 26.744513383903467 2.474919605767127 0.7309618777082534 0.7681713517075616 
7.970501038814694 5.350218519064088 4.156286928790777 2.4750373481658503 15.4012452449128 0.8010488404146254 
3.1937741142067226 6.398483362197421 34.892292369715946 2.4750656937642224 6.856160154346739 0.6383188330625147 
7.622742378548412 4.226781681899311 13.090764536201817 2.475302020205315 14.215446046379522 0.8163947812830616 
7.5607816015823355 4.128647696164768 10.529332085606853 2.4753642056583214 14.099733280228598 0.8215846802746913 
6.056056663652088 3.0875295949527795 2.6548655166034365 2.475724635015088 12.22741879599023 0.6678856156887696 
6.867857281307345 7.563771944832549 26.682995030472206 2.4759216833945787 2.4399689469215 0.8293166518968172 
7.948747797490361 5.133808854963623 37.38179318168533 2.47597692445163 15.189482380070016 0.6921169332186741 
4.345953709035784 3.309023588411039 1.4621226733719368 2.4763280230671203 10.468897471245034 0.7456667004547252 
5.825059888567057 3.044874478666685 0.06873501950696692 2.4765510809707556 11.99647257235278 0.6960327245072697 
5.6294883970814285 3.0268217310246257 37.5333008524682 2.476565766360898 11.800088694959978 0.7259596951557161 
5.7105944870053005 3.0321405493930103 38.79804959863695 2.476828679159553 11.882629235222295 0.7326471011901907 
7.82534002568339 6.354363926366491 16.810690539461135 2.4773259684025444 0.872276255660843 0.7222335760939529 
7.9292961598818765 5.98641825545317 39.20001764445162 2.477515398873424 0.4895987068203951 0.6572620345023437 
5.303509400872466 3.0299525027365313 8.728817199794364 2.477850518954488 11.479898364493037 0.698678199613119 
7.145778021693905 7.352342042964974 36.64790266948766 2.477853171765099 2.0922488725449035 0.7331937394478623 
4.70000276483574 7.845430709780734 18.907073078493895 2.478112344235631 4.707197629511178 0.6594748621591664 
3.0722922544001356 5.002223794368195 8.884742392169443 2.4782142863236776 8.286725407021649 0.6166244859834784 
7.955700109255369 5.833354544381144 11.66892403682462 2.478222806540283 0.3343680992276479 0.6916290963139415 
7.5068843880116365 4.045720395844438 9.222108941918897 2.4784095936522883 14.018156202395499 0.7874878068340211 
3.0756233069928474 6.01500977270279 4.221449812595466 2.4784748164094137 7.267568407549179 0.7390715396213997 
5.114054375094538 3.0515868343389716 2.0522553007814626 2.4786450038611676 11.292816965840519 0.7723247069452561 
4.961747396231084 7.919529165690513 34.48786325259442 2.4786765115865843 4.436071196959745 0.6669231478843066 
3.144338125057354 4.728694008197621 22.352302127268686 2.4787205978182683 8.571459504455952 0.6057668707750898 
4.468218400877961 3.246124548700214 8.132695084049473 2.478815809667723 10.616974241074736 0.6953986172805116 
6.56929614587264 7.736555274798067 15.146402498072199 2.4790267737168845 2.788463972528339 0.6215723403924794 
7.97394426918379 5.340356445890082 19.096013048361677 2.4790898151128298 15.416826604685792 0.8328381176124784 
4.502248229937052 3.2305276331289132 4.005439996102567 2.479115450852422 10.65569289682562 0.7714125009451681 
3.5885782145761063 3.921189614781862 24.382034655558755 2.4791481347966524 9.500045961175822 0.623229707892607 
3.1069544419875186 4.852083103751702 31.048978363312045 2.4792061929511418 8.444184530573125 0.5688179092328158 
5.170620254845257 7.957286529938759 7.093613864951976 2.4792636218717576 4.224774646769216 0.6736927494199211 
5.260224863685078 7.967664429208913 31.751154950560988 2.4792861575820146 4.134604080660049 0.6386213943800282 
6.278109672851317 3.1459088073431882 21.37836527369803 2.4793547560462477 12.475168443375118 0.788219287229515 
6.469584225905347 7.781953098227133 12.180895492837948 2.479395796082764 2.898455670252062 0.6260507072650195 
7.78774245993079 4.543431125758312 33.44974377211446 2.479675296109995 14.598219892636074 0.7477445927108689 
3.8103721273129256 7.315068218021336 10.963053066156554 2.479781237172384 5.754128243956398 0.6282622949313814 
4.159343260967155 7.586744894991344 35.03973733494196 2.4802952946547743 5.312432849734378 0.6289154280159891 
6.968233591921564 7.499454267388176 22.78798334561138 2.4806304133876314 2.3253628344445048 0.7512587509854863 
3.6145858553837282 3.8878340999431344 0.8154530172058756 2.4806985681507676 9.548268918407537 0.5736077657960786 
6.79261797256817 7.617343119785882 13.773486227799935 2.4807263270886732 2.5370360140298764 0.7614529993084337 
3.1439650267399326 6.276632056048329 16.77213785359728 2.4807374197416436 7.00355364447406 0.7796403073874459 
3.1115313578598087 6.170344788308703 1.6441382131938127 2.480754842724215 7.114738237020106 0.6969780430895435 
3.6757640545494414 3.8180771633126094 25.586387394394905 2.481270080673295 9.643266650467282 0.4907215539189125 
6.008681497668292 3.07135003006929 26.225700179025957 2.4813499435820217 12.205399701482854 0.6872453939004691 
6.430866576905856 3.1997330590531092 38.11359939588203 2.4814795150501627 12.647905752898108 0.782354167341755 
5.8573236684843035 3.044373461615347 23.563086259428026 2.481487840002056 12.052306124212652 0.6601450039412 
5.828451509450186 7.959677375654122 33.884805739123905 2.4815102631995796 3.568529030539331 0.7303704934629369 
6.428961019083266 3.1987821375068934 18.64428044707856 2.481647079186234 12.6466366962845 0.7786963902515986 
3.316401756701838 6.679388896434623 27.252265272492604 2.481745244211843 6.567621685043587 0.7706372405532397 
5.271613341914323 3.0287246118491433 29.414556045210162 2.481806299788869 11.466526417707048 0.7059039768170627 
3.0765670284093964 4.9642811633270165 16.969933148959278 2.4819391692301247 8.337210254240372 0.5926645482331382 
6.783945310087223 7.62460254351867 29.238349813616974 2.482428554303424 2.54996181285728 0.7845341099443174 
7.790805518540216 4.543328007123249 4.7681919972968 2.4825412837914866 14.616178871453087 0.7771251358005963 
7.980357007465459 5.395581345110384 27.362254393789698 2.4825539550978473 15.493897067230037 0.8668185261667499 
6.937152269926113 3.475504174042775 9.854388388134204 2.4827384067339855 13.232290927539097 0.7195347781692361 
7.8150795855326285 4.60284408190672 24.127798494521173 2.48283753570783 14.682203944916825 0.701058046779043 
6.092678471437078 3.0888136813739644 5.215392916275121 2.4829593701134858 12.299126409180484 0.6123362265212188 
3.3733153345271036 4.218353363756385 16.315610949772875 2.4830235130888596 9.147355446888923 0.5306554096821988 
5.642122188834155 7.97902280053133 37.84326385739731 2.483093385701231 3.758234068294769 0.7405827038017314 
7.808956239120374 4.5863678620802775 28.09471934462364 2.483143692502039 14.666438650592504 0.8050539935608039 
6.749388702758478 3.354006388929121 26.910343381390057 2.48319566473074 13.010987666235472 0.618350885252131 
4.210560813614841 7.622475697354829 15.507899867118766 2.483456563189195 5.25679311439611 0.5713727891501225 
7.75447653332117 4.458148839218111 0.624410602170034 2.483569664921525 14.529611882161024 0.8027765221657818 
7.983398449959359 5.468105521115731 28.691351508919418 2.483603253147299 15.573044113429894 0.7945606452139624 
4.984035746397441 7.929554868592409 14.938027019077104 2.4837383055581217 4.421196277429033 0.7345874728862593 
7.854033459563707 4.7070014041080235 29.35341061421679 2.484012943169202 14.800387291231896 0.8450639828042488 
6.093031895290526 7.912200129305134 28.522426991586983 2.4840282391010726 3.3030875617584705 0.6469583215492856 
3.2527043736349945 4.44151856024785 26.28737091374414 2.4840935148619234 8.897462029826134 0.7184013374821228 
3.040567379856137 5.850019581671832 27.87997782197091 2.484214668779942 7.453202398003583 0.7646093496520208 
4.048972092006769 3.4833677960119953 19.40489500535198 2.4844088705236764 10.157941325351832 0.5846611761602585 
7.519007703095944 4.052266423885715 32.5405403357509 2.4844163525000016 14.064545476982746 0.8408895421075013 
5.956133510997946 7.942313278560955 10.174921685873002 2.484542599854241 3.443974906957127 0.7792018767844363 
4.429076152852286 3.258102037671951 2.773166564274149 2.4845491260750525 10.600952920181738 0.6796515129910321 
7.306204073853667 3.7938774101019472 39.995586592352694 2.484598045593296 13.730569060694656 0.7406135701328355 
3.7952749509883112 7.3077657191465395 27.887562870678636 2.4847745145282927 5.781740818539738 0.7260953794908079 
6.512635306254511 3.2307684839269903 13.300023682814647 2.484922923756826 12.752914258606255 0.7138046732923718 
7.776696850635139 6.496397422113629 15.24696245920282 2.4851873918251397 1.025231059374816 0.7373179076744873 
7.0661717215545465 3.5702082426626625 12.491383736449052 2.4853551231331648 13.40637438931992 0.6477859734466227 
4.098876937337359 7.552772802162158 21.076899819767547 2.485361545936892 5.392527766310161 0.7419712466081562 
7.637286152422236 6.768483055554803 2.7011253263868724 2.485365437831122 1.331230495294955 0.7286266141141815 
3.0389867926858667 5.847565833313784 10.995978676541917 2.4854351761938394 7.459516166070731 0.7862074286147026 
6.471540753809073 7.787750006103881 37.2589451665924 2.4854962334995023 2.9060533813487526 0.6710360053818544 
3.052200592584107 5.933010596786647 6.7696313297223725 2.485803716280736 7.374151812729384 0.7289982599842297 
3.0180340381451547 5.639275469478408 38.37228334699094 2.485870610511433 7.670244410726246 0.7618849229306608 
5.043890286322936 7.943807509005889 38.66433478596447 2.4860070820462563 4.363718954942275 0.7392960969014599 
4.214334672556461 7.628039498440058 14.29123882740042 2.48625972921405 5.256612536049664 0.555014304657533 
7.927746541103598 6.037002494469728 22.29101442336338 2.486428150360916 0.5412673399989938 0.5732197880766552 
4.1585276756002925 3.406430527992854 23.548804327338246 2.4864796663658124 10.300336295186513 0.6509792531917579 
3.0200268170512965 5.318640605005524 25.8061230383747 2.4865957086542005 7.993391381693206 0.7560144094113507 
7.888957397508748 4.80953518423147 30.668914387458884 2.4867366384331993 14.924967754456942 0.8540253650367646 
3.429942250061874 6.877948074305833 17.612703063146686 2.4867408356244236 6.35185599430584 0.7280226253559033 
3.11511524196108 6.204567201378937 0.40633280876343747 2.486783112855906 7.098108361796227 0.7156969503578876 
3.025830917927572 5.2497758440839 2.2535722012260067 2.4867900544450974 8.06312969627969 0.7407868378476306 
7.502059530291429 4.024910396669548 30.01927327945849 2.4867914469621963 14.04588271911876 0.825195750278017 
3.0187192747797917 5.33294814395381 1.036045764150444 2.4868977381383823 7.979997404289266 0.7590223595695454 
7.981703987477958 5.660889634127517 17.572926880660297 2.4869137813429907 0.16100207668453415 0.7688629680915706 
3.134814397359148 4.731103853730144 38.98104454404108 2.487027184951584 8.594930111072896 0.6364565690171176 
5.134255372980804 3.039905376718573 26.791516826869398 2.487133829871566 11.353266221055447 0.7582142494004478 
7.842145623593931 4.662288077896853 25.381925917757584 2.4874499766937914 14.77469464665712 0.8341704753975162 
5.304792741149579 3.0201873093508285 3.3529085505766005 2.4874840410769634 11.526584205583877 0.7244392171805668 
7.9153293579115696 6.094892439365387 0.5503201666292838 2.4875113912510276 0.6007142205231517 0.5765719895641276 
3.412577468452498 4.147017502791475 36.96780195461676 2.4875478815421426 9.24540168344741 0.5865619801175631 
3.222170704560524 6.50011843140742 37.856254139391254 2.4877184679949513 6.786168035945279 0.6765887699446148 
4.897088983579369 7.913565111995146 39.95178612049651 2.487729535854228 4.516691150722897 0.7007903585855868 
3.480695315829222 6.953149747118787 1.0556721710482257 2.487817436040161 6.2638618956794705 0.732258369686007 
7.439067017363698 3.9413627476928426 7.917195758463642 2.4878366067946183 13.947127540207985 0.8182953242890527 
4.051741684635058 7.523112486830264 1.7598995380933218 2.4880587377295247 5.454036698343062 0.6581419001446089 
6.851934481463047 3.4112659542271633 4.569535422706636 2.4880789288403453 13.154047878249154 0.6247125482713568 
6.035861006173445 7.92987184568365 13.12872955726995 2.488257262499857 3.3684534087818125 0.6460212267165111 
7.523920761408304 6.947787399976982 26.120603095130704 2.488442003340981 1.5451878925714961 0.687453641961579 
6.746844279531728 3.346340590372124 6.04737053911883 2.4885476708473333 13.032974251264891 0.640156614621355 
4.657072919008028 3.15849665993595 17.477101169588686 2.4886068302166073 10.867344711844446 0.6988383379979368 
6.607915560842114 7.728418629455677 34.547391338631655 2.4886394833445076 2.7609233224460112 0.6840983711453841 
7.002883119897095 3.5160799916620515 33.620309256962145 2.4888945882771485 13.342200395242836 0.7390494917682616 
4.820610231462176 7.894449286958794 37.20255908770647 2.4889672246559136 4.59778302477919 0.68395995518647 
4.260300599758941 7.658318617798979 38.04009898150739 2.4890146361352983 5.2074319238778735 0.6262184834700402 
7.695772471140969 4.327496010222444 38.03619611987519 2.4892131991986552 14.419321904414375 0.8284762882444447 
7.905491646541507 4.859763020999867 11.13991837585521 2.4892355153460635 14.992813302069205 0.7103431367603148 
6.006674432037098 3.0628569183887286 6.745409672773768 2.4892539806789107 12.240572966825113 0.6899420616384534 
6.963529012657685 3.486376329687089 19.446670971124817 2.4892965786613725 13.295046480945118 0.7499304188717933 
3.0106231452091166 5.498947752924078 20.37997022138974 2.4893770771806483 7.8216609847928105 0.7198404357779313 
6.036064372086759 3.0689636425269065 8.021371314849219 2.4894382463473215 12.271497468229882 0.6443414311131302 
3.1111263465785797 4.799418132438677 13.97632084929247 2.4894843412174157 8.531120679833846 0.5187916518392761 
7.138048171195559 7.3746885696808135 1.9952215967949343 2.489509800030722 2.122712703938552 0.6175876935395571 
3.826798496848715 3.6565230115226868 15.509754676859359 2.4895804219171374 9.897009391022499 0.6443747027385781 
4.682630297382053 7.851693622637484 21.85546935244858 2.489689965741029 4.743610005338567 0.7271474635370093 
7.824200344490151 6.392599914851524 32.07429279472559 2.489707181441441 0.9129202396734133 0.7538632852773353 
6.574045947537163 7.74628775273724 35.87876863967771 2.4898560933351797 2.8005577809145734 0.6739239381933722 
7.950307323283587 5.056788787270769 16.735179469825923 2.490068705402742 15.19997765580198 0.6557603495537975 
6.601144435480023 3.2666228344401524 39.44451150859589 2.4900788404050114 12.874836008147234 0.7276835846488119 
6.104114273111751 7.915718856709077 27.283132196768726 2.490110770555629 3.3012537956263905 0.6467482275774141 
7.40122703530484 7.108266773198691 9.014856077700287 2.4902181136496777 1.7484188764324031 0.666033004463774 
7.745011255236445 6.57831765364815 24.489287118865853 2.4905510431042317 1.1152134517653849 0.6896042496401709 
3.0095407682411004 5.521935456722488 14.78025404502857 2.4905558313988387 7.802376162951953 0.7669637261217348 
3.257387666115563 6.583412892522622 36.578617797817046 2.4906010470918125 6.703586553264294 0.7142838057895667 
7.286125163337671 7.235846609455165 10.328715034653833 2.4906638774963237 1.9206093211982225 0.6150918449684116 
5.37403446840692 3.0124915114774966 5.946100943244247 2.490695845666636 11.611108364568894 0.6031694151355248 
7.467374569146368 7.027581696069908 7.816983460610807 2.4907967667980606 1.6444730364763043 0.738407322642613 
3.6800025068552102 7.2005064677159645 32.97901121396872 2.4908057173928957 5.953331834515419 0.7182714531727379 
5.277906775252213 7.980996661088104 25.443509423940668 2.490917468084637 4.135112554896406 0.6611890792241982 
7.990693824805904 5.464684523689343 6.59536203266876 2.4909441807863364 15.615747218218473 0.8072953260572011 
6.1265357183868066 7.910866910603303 23.40353911938017 2.4909488688161354 3.2794358629009306 0.6857586849009145 
3.2914023535677224 6.651992962274262 31.08541470298661 2.4909820049441582 6.628051896049017 0.7280362111820757 
7.668317096285733 4.27381250515587 16.078814882267352 2.491010799365814 14.369441573688674 0.8565299111543857 
5.109839492520159 7.960349705978436 9.529702906752156 2.4910933136486677 4.304773743595666 0.7511214820024065 
5.527090754266009 3.009031780397226 18.00735425284938 2.491115529243418 11.766196657145443 0.6419469338929288 
7.605505786834232 6.831393029177093 39.81441270856291 2.4911366916598126 1.4046505063234562 0.7485008951666056 
6.116396629328971 7.913712572694502 20.43326838083341 2.491175061739263 3.290262567077889 0.6286487069701246 
5.259941364550883 3.020324855867271 4.657544894045245 2.4912681447173357 11.499392855161434 0.6483292308546574 
7.776958449357562 4.48904049989925 21.022736194320608 2.4913006424245046 14.612314996822391 0.772255771626679 
7.297901690126022 3.7752035117108136 34.56854895087501 2.4914600966848166 13.749214182339925 0.719764484563697 
3.3417017253527934 4.255289538318365 34.527191450651145 2.491496653773556 9.1306139240644 0.5467697273402865 
6.036380928045069 7.933129542323043 29.898604175770558 2.491550495112553 3.373105431655919 0.6090813125220484 
3.234225307791701 6.5364690479315115 12.885399455237348 2.491586451073225 6.758587965791513 0.8019767438884411 
3.4288716260540886 6.885074330395579 2.3115552123804193 2.4915865712602887 6.358894487090502 0.7286414213438063 
3.60418063609574 7.1168410607296 9.470683697891168 2.4916472615953404 6.068279665602795 0.6956963066083931 
6.5348100073559685 7.7666196585769 0.023139627146697705 2.491665392457687 2.846763431188865 0.6661099729661132 
5.00027568243602 7.941168406521255 10.774694725321496 2.491792042398867 4.417234006841625 0.7008697392138257 
5.146841808476123 7.966680771060508 30.497294308202342 2.4918336089233737 4.268514362396415 0.7317660409442553 
4.70226776885786 7.860714942303713 17.665442813438133 2.4918570888835174 4.726228022624065 0.7288073984624307 
4.072677626053197 3.4574155121301677 32.2998820440762 2.491866880323989 10.222835463401658 0.6287870927080026 
3.7270648386330683 7.251039742314515 31.80012145714342 2.4918746488489476 5.886823816770374 0.7001958660442548 
7.847462993210665 6.336552801214432 30.64477488453167 2.4920680355305893 0.8531185861502433 0.7217515320214124 
4.020270738418109 7.505250840160336 2.9962454110450523 2.492113484483685 5.498913208108451 0.6133970900353352 
7.991178669464281 5.568467308159676 13.401974211266591 2.4921193662183327 0.06847592421309479 0.7639641180090396 
3.2570699729022916 6.586373780093474 29.802500694995853 2.4921763774923935 6.705298763476829 0.7132275603976813 
7.6775059170176085 6.712216971579071 13.72967105329818 2.492188196110206 1.2659628369335518 0.7072397964509057 
7.439276525036327 7.06536475870795 29.849404101969508 2.4922199478300007 1.6924909449111745 0.7010690323292393 
6.850571449783942 7.594940091592669 7.152055147527381 2.4925523521751343 2.487986623861909 0.74767056554456 
3.384766537228799 6.818601494741476 4.853617719666918 2.4925734701230957 6.441200330999919 0.7927299748789619 
3.6900184268896252 3.7861657491141294 21.477462188983807 2.492641397094383 9.720585020689041 0.5142272311657188 
7.338582177062912 3.8168834498872286 26.229004436047063 2.4926423215288853 13.813983375470917 0.8246184978021196 
3.0248421816644893 5.204882394675102 3.4512958855334546 2.4926894364601666 8.12682625400318 0.7001057434303329 
7.980156825560691 5.749793140222431 15.972474459359987 2.492704252870258 0.2502131105730161 0.7137735572341332 
7.289267026825502 7.235583467166446 35.1824988056987 2.4927347361455228 1.9198278072259818 0.6145117298914718 
7.916507538494509 6.11177025085612 21.102683947293144 2.492743774123877 0.6180842026649316 0.5798639501045575 
7.621166129810531 4.190498990160571 20.007911210843005 2.492817411088479 14.284108866549413 0.8181675512358147 
6.7681937276861515 3.3537229147417147 3.3118114858064303 2.4929542028780425 13.078227551567112 0.6484498997831435 
4.088267230475351 3.445233072909641 12.673980169712436 2.4930015116750512 10.247247287991705 0.6301305872988072 
6.826799688622621 7.610619499398278 30.492996428024057 2.4930126523885368 2.5169221606257572 0.7151640913800185 
3.0322724869864626 5.854426966250932 5.417849701174134 2.4930498496600135 7.476515237834567 0.6757927234527172 
4.968653768945522 3.064192277655164 39.49943829398738 2.4930880605166226 11.212947359007273 0.651666439904464 
3.57329665694421 7.082207206779113 19.16277837791248 2.4931035713195144 6.1182217201527855 0.6678250318361448 
5.3240139682061285 3.0131113606286704 9.980358304266161 2.493107736946148 11.572360915200074 0.6637328308628644 
3.090021794938318 6.138446411023047 23.854855538573943 2.4931122655469267 7.18670430324666 0.7513381630905649 
6.677816791376628 7.697400065569365 21.483490892049645 2.4931545163132167 2.6895191409342054 0.7632888460026812 
