150

4.9579088196174 5.004059301719071 10.880335900446472 0.04228646824277149 0.12878129578745057 0.0 
4.972371220079511 5.032331430809667 17.077612761077525 0.0425284716172023 0.09687667658559818 0.0 
4.972452572754385 5.039319158058808 27.44724586642453 0.048008925610829145 0.10475221656536249 0.0 
5.045962337941557 4.963001098522852 6.806908762979859 0.0590038576668479 0.33074100950740704 0.0 
5.053413667839642 4.966500454680523 8.826445072871685 0.06304949998767162 0.36083391410261445 0.0 
4.943008217644575 4.95645316932232 2.54023330936257 0.07172440113460832 0.27212598706304947 0.0 
4.978406511292707 5.078735550081914 4.707384823041224 0.08164291519325828 0.15009790780014232 0.0 
4.952482629598695 4.911950840609285 36.23759430101971 0.10005276087778192 0.4219737496345992 0.0 
4.951597174035918 5.0916188494750125 23.35013379131231 0.10361875863198966 0.21312635749002773 0.0 
5.105634390518387 5.0386021589103915 25.405622965218253 0.11246666676279804 0.039403347204596706 0.0 
4.892611052536113 5.042243186735327 14.978469742237039 0.11539875589865467 0.31928736445523853 0.0 
4.888094324964801 4.945782071033161 33.850523271345644 0.12434815610429073 0.44675318930664076 0.0 
4.903479719245465 5.108943099179511 31.710540236039584 0.1455498658734211 0.33415419149094827 0.0 
5.000516779269773 5.145619081335501 29.464286662399516 0.14561999831688222 0.22822257810952618 0.0 
5.14663694820597 4.928662297275216 12.992605130749965 0.1630688885385867 0.9507572348854403 0.0 
5.030752139565469 4.835444805988926 0.46217928720668766 0.16740402015446487 0.8198006388271004 0.0 
4.856028631247229 4.902482319728092 21.288651416922278 0.1738891974395198 0.6498150056368459 0.0 
4.899995693752585 4.814754202042306 38.32219929090188 0.21051571658432033 0.8878236202687448 0.0 
4.77251646100142 5.035990355227822 19.188283640164364 0.23031297441686616 0.6874110825282074 0.0 
3.7616473307843226 6.271408669845435 1.3027616604344558 1.7748231853093783 4.158453812349299 0.5375839137151878 
3.898477143066849 3.602774811125017 30.752744069433334 1.7792107330985005 7.196521647627895 0.20084134190816552 
5.090131342303733 3.2178284884172568 30.899957643304766 1.7844492022925733 8.499188467047713 0.3499602549787062 
6.6143983423477 5.795124531831957 30.64332594755905 1.7995846823353387 0.8235731845814396 0.24136879604891417 
5.721687325713054 3.3432307944709585 10.063362048129896 1.8071294354539713 9.258290720793664 0.43173196314242707 
6.5487352997785955 4.002891023233899 34.6000235656432 1.8419574751681527 10.519724563935547 0.1386142688573629 
5.5427208507828425 3.2384813212680923 5.59428738391361 1.843229225407371 9.23689852549682 0.45821255228640473 
3.3004202992205434 4.259069061916623 1.3671927095607614 1.8540630556458164 6.586931597346245 0.5091028902854635 
6.6685932354707065 4.176317223268221 1.7610253582017634 1.8608215127043146 10.838614291940393 0.3623767458771173 
6.6700019589545105 5.825877811612624 16.28235199389284 1.8630568168002712 0.8556418030460264 0.27700947165013245 
3.518541751710927 3.8694351164183773 34.900351836801654 1.863570631184033 7.06936671113904 0.2775145980198122 
6.57174872614619 3.9871534172839507 9.883628406492328 1.8698267990008486 10.678116450037187 0.20809629520859801 
3.900631120305813 6.516223736449346 30.62344931152851 1.8728444549968544 4.116794221813155 0.21684673477676095 
6.6683224249685775 4.148935407010739 31.781850798913133 1.8728616219819922 10.884069805240658 0.3934958507713699 
4.615645959523489 6.838517636690453 39.243424522608045 1.878263860284935 3.3374582957862273 0.4838269204029411 
3.3049397436391654 5.811755680861956 7.707610947650473 1.8794085660403141 5.064952040636333 0.4430079324302936 
3.981094568143236 6.588516795427759 22.009288082492624 1.8872079610957802 4.040730774935531 0.11832414192562724 
6.879446064206785 4.78347075991966 18.07095648272623 1.891878014056971 11.670015363425437 0.5193052167746697 
3.953691594856478 6.576411868897479 15.85471616129719 1.8920453639051116 4.080690748549671 0.16908506481658328 
6.521349256666726 6.1276905311031395 34.19875283029629 1.8937237112895 1.2079561225928312 0.3887738051341594 
4.3568348375544454 3.217893202948751 25.88696411056918 1.8946150169044578 8.271956397031166 0.4987528133557173 
3.1690259747623717 4.51297780521565 9.578713480706877 1.89463888361541 6.444735262972118 0.5904613460003447 
3.5271396033124276 6.192098155696348 37.61051145925012 1.8948392440904611 4.663503701808687 0.722988537467317 
3.4335311187314517 3.9297626485926394 20.239439860390817 1.8971643957048572 7.097226504450681 0.5775490706999173 
5.698690123391172 3.2352178010294477 24.31983210046055 1.8980579807602596 9.659904503748685 0.519157253809406 
5.107603691089341 3.1030486931748893 37.21486605446049 1.9000007407371042 9.061203848148757 0.40688615717435433 
3.8574587836385916 6.520620627084336 24.444530512628845 1.9020219563924512 4.213302937521711 0.30265241339114224 
3.099214031813366 5.101701912809483 25.96285802206515 1.9035048137381494 5.878286376900558 0.5112222241876629 
6.103723370488507 6.556127280218842 33.3154776500305 1.907809579282955 1.8198063401815094 0.4382130925442634 
4.377278392644916 3.1899448675433533 35.01598021751474 1.914179140728356 8.386092309919189 0.6597820704181576 
4.033062395540595 3.343459904720545 3.3334461530007857 1.918096300550669 8.025380479495553 0.5443436430769715 
4.256071369172109 3.22927271877772 20.082060760466874 1.9206522101177794 8.286949468139198 0.6316557499050368 
6.343005201024962 3.6220188087575345 20.58512168043538 1.9241868759031957 10.554037427706348 0.5709828659876112 
6.631169390120937 3.9721781221190176 26.284304913843194 1.9279863567770115 11.029850513057369 0.44347488087474357 
6.921008473732756 4.831212750961172 24.485666070933092 1.9284093682595354 11.947549902601775 0.6058536755509561 
6.796334424103228 5.7025244347580415 36.316261885965275 1.928822942794486 0.7190649886458012 0.2704546741499693 
3.455898554100111 3.843978454984649 32.77005907682246 1.9288947840071036 7.299403983511985 0.6721630652963467 
3.7348055085456178 3.5428608856201986 7.9032745577944965 1.9297594409309322 7.71398509659338 0.30756852589873596 
3.9436191133755516 6.615308027209023 5.976670816249715 1.9300675118739676 4.14957780636299 0.49975758273018406 
6.822509245636239 5.635877148506871 19.913103393840416 1.9302537911950344 0.6479791030933093 0.6689940374385608 
4.182909794464946 6.749992737781139 12.723602799782057 1.9313495246246974 3.877423271452713 0.5356841720955774 
4.745995248491186 3.08018545744934 22.18957892758185 1.936544936627615 8.871014256230394 0.35451602759059697 
3.069489435199726 5.160938692951957 37.44955213174323 1.937207346593172 5.924791967735986 0.3252652582729761 
6.922595137905123 5.246841375201842 1.911646970651141 1.9383763124862916 0.24751344578199586 0.5621657271153295 
3.097153048496743 4.6200156856977275 22.249258453562945 1.9404160893893356 6.478452737413517 0.5353963437787147 
3.1493269818105096 4.41501769835435 16.064329676351846 1.9409263029525976 6.691821446236806 0.598042411071422 
6.0049500790885135 6.660723698750636 24.504310038560938 1.9411151086558471 1.992777718783965 0.5402674894580114 
6.411285100055347 3.6657419367658557 7.833868426704534 1.9421560732710335 10.732034172902061 0.4521907767527793 
6.940693051896504 4.9200747253516015 32.51885153580862 1.9423381711759131 12.124122811405798 0.543060560061899 
6.604341845834336 3.9018292869028715 15.61622448887207 1.944194350727154 11.04873691558248 0.1575227588901992 
5.242238287220912 6.930244723750914 20.45234526084287 1.9453853297904682 2.812935446820653 0.713202950690473 
5.711443330642757 6.811005770766909 1.308108251242281 1.9457372675844762 2.3280236997127535 0.8041255751214417 
3.7763938130797357 3.486747417619055 39.5244199062229 1.9460589607594494 7.847346586480333 0.28231748138780965 
5.8407556534275455 3.2443674725593343 30.147164925076815 1.9465650875781368 10.042342497077117 0.5852989566056062 
6.47132112758325 6.275484218103204 38.27669179529703 1.9472148959740367 1.3907444060324945 0.4931596232860081 
6.695665595223536 5.95997972396138 24.121952331495017 1.9485489168203494 1.0037916615216869 0.6141672725397191 
5.626707074497205 3.154754893165574 17.47316196326021 1.9487666000630346 9.821391840770051 0.5784578130437535 
6.487204118244854 3.7389338751410417 12.07383970541434 1.949888166175498 10.88015357262088 0.6534620975916808 
5.684580545965981 6.8261419176495455 28.14693119698907 1.9502422483660429 2.3639521368275656 0.6239331841091058 
5.226865057451815 6.937341435225855 8.153152217949991 1.9505792962439623 2.836583122499471 0.7194666188065948 
6.943775700821468 5.1831072747411095 28.046657032856398 1.9523811741478914 0.18337677610087866 0.8395725660139748 
3.065598811949724 4.718792676771036 6.043541369336687 1.954734128971998 6.423164807328728 0.7465381360737945 
6.5662676371555735 3.8293499952846712 29.487439962887585 1.9554067977638077 11.031117398770132 0.07561447901466621 
3.599159545699309 3.633455239296733 10.304391145257107 1.9569871132460002 7.660819084478522 0.15908864784130328 
6.74583670136486 4.1154425985689915 22.506893540957705 1.957137599725402 11.37922570956745 0.8704300082609925 
5.598986395758681 6.864428115584348 7.202878044287679 1.9582841725565199 2.4673225374767576 0.901080205723115 
3.7298985259147726 6.493484399447839 9.647445105321026 1.9605237580472055 4.4612483069998525 0.5173185392736823 
4.613384106176176 6.923791225725408 11.709895269591726 1.9622549603798338 3.4714648751303123 0.615634028963834 
3.738564253570045 6.503826184288036 32.717450718652614 1.9628329870168815 4.4532017832462465 0.465702844876172 
3.6789528124114277 3.5471948268959412 4.3338913935195365 1.9636212829447521 7.80432470244785 0.19174686957142054 
6.08589756721068 6.636573025748975 16.058654738849707 1.9640633378491728 1.934555112001508 0.7175183850518615 
5.040541556109813 3.0357263875167693 1.4486582185566519 1.9646919459471823 9.298937109733753 0.7257502957026984 
5.8170954960112 3.213169739826542 13.885847327760892 1.964791955468398 10.101558955835216 0.6553027389733758 
5.633564808852759 3.1399963543591145 27.84858903199094 1.9649473094243575 9.904686580851756 0.5994420326178781 
4.544401426690493 6.9116095460297355 34.54469744690475 1.9651516777271099 3.54663495347668 0.5343161070147964 
6.0264182408494325 6.677758780912187 22.292609671215857 1.9668271230782841 2.0096262707684573 0.7535137073667592 
6.966457890156036 4.936542685950805 21.96178118017943 1.9674815029532724 12.298582550279445 0.49152319614561507 
5.131544216616775 6.963366459909592 35.406833554574256 1.9677682121691162 2.9593206902932216 0.6729449322368234 
4.546900565999087 3.0848127394550886 8.346165340732604 1.9680552177328423 8.817040972988728 0.34802916607582307 
4.6690808325699065 3.0590035454635327 6.123854646744071 1.9690034870197068 8.946213191467983 0.494591325701928 
3.8570545506061356 6.603365289753791 18.11913186144647 1.969036452856422 4.312364897997028 0.44553737450462205 
6.560790177874564 3.7991468030097586 39.689564535936796 1.9692928629514197 11.081980780554957 0.30473204122109426 
5.673782770687248 3.1485891317492634 18.588866333876354 1.970204412022247 9.972029525974737 0.5072279762777125 
3.120266627664881 5.5914735100494415 17.723138388040276 1.9705934294421492 5.590066743009157 0.467715218926169 
3.0687448324491946 5.39355142052902 11.434601605551194 1.9709462810518448 5.795695678415131 0.6286286502151419 
6.25270051831277 3.47806079150413 3.6433290038634 1.9711817630391486 10.646460021641555 0.42888082292423074 
6.507915528658919 3.7295572752927155 35.630480117713894 1.9717591025103391 11.008434112470223 0.2723525770701157 
3.1475003136938637 5.678535825210266 14.168062998170853 1.972857307018962 5.505234006265848 0.4394178718642581 
6.7821343021611025 4.1533309400335465 37.6858679782887 1.973030959727626 11.521841591292713 0.8106191217970644 
6.435768494597648 6.353996826637564 3.7645594270716316 1.973509203582234 1.4921609273733871 0.6537303130723651 
6.198749283843239 6.568231193337271 0.46838886484435704 1.9739171515721534 1.8123429723054567 0.7525737945855647 
6.769452308587241 5.874947838782832 5.7095057094680755 1.9739542023449934 0.9064731263035473 0.5892929695945012 
5.720111437557526 6.838325554753675 14.056062271901602 1.9743356674490722 2.3641623094253337 0.4621230095115882 
5.886395172267513 6.764336691923093 18.297163858296102 1.9744823027531224 2.1822649591105048 0.660575410451289 
3.521514903907133 3.690154479944427 14.146974133267605 1.9752502286491171 7.637470769054094 0.12296567319737542 
4.528786248365695 6.91895603477648 26.361199564630233 1.9759642362994183 3.579635702903616 0.3309369548413554 
6.9736718898242485 4.898339005740155 13.879179820362417 1.9762883611549007 12.31568011144645 0.4101695241615004 
4.396696047131447 3.1169728435663604 12.34456997096251 1.9773130585249714 8.704788309187169 0.5793323075313088 
4.0453023031103035 3.2655583229696052 37.13639617864788 1.9798322210395753 8.333533004854665 0.7824837679273259 
3.051337391121211 5.350777890606752 39.51249721301834 1.9799825988580835 5.867659541644791 0.599875394673266 
4.300603583672678 3.145757346594319 32.802722297199544 1.9817596132933082 8.624027727064224 0.5875738206485431 
4.6864998555714985 3.0430269837541113 39.43759417024017 1.9819247530800015 9.024777941798366 0.5916366970552439 
3.183981555186448 5.8004683825845085 33.162455475818795 1.9846089346318323 5.410898810814782 0.7043085922054033 
4.416362692750712 3.1025957254935133 28.6841818797081 1.9851386569528808 8.762355223090086 0.3498283392480785 
4.747022834799798 3.0306361885417594 15.656345037251661 1.9855455844664107 9.102996482258607 0.7356351087942555 
3.023687475203582 4.804278857752291 12.258882439503317 1.9859803526696684 6.4351806407369025 0.40580614217248245 
6.901006083048586 5.5802299256624845 8.227187249947427 1.987584185493039 0.5888043475968452 0.39342381433481055 
6.988032533507874 4.956695840483059 10.23056040878042 1.9885041122706293 12.450832238413103 0.954880135246631 
6.523366312777638 6.278670612086625 26.3989181387617 1.9888799504041763 1.3888176685606943 0.5731525459811962 
3.5674874388576017 6.379861107222689 28.374636350668638 1.9889969615503633 4.723696056298529 0.6999321943730855 
5.269218059149345 3.029281751552583 33.22883221837969 1.9890220657739814 9.64309259475436 0.4161419401164166 
3.696399678014397 3.49652026561486 18.03168090995942 1.989930931260626 7.9558956835971095 0.3574127713093846 
3.175345226893066 5.794190674107632 35.491014738942916 1.9900009718242473 5.43482764362458 0.5866744853649563 
6.986144118112134 4.8515664394669695 6.3264130510785535 1.9916829516275774 12.365541747451807 0.4457068887574782 
3.1710175263256977 5.789064316433892 23.948589512918204 1.9919335793336714 5.446533297879132 0.571955562157091 
4.584173580971739 6.94934923966076 3.032514658015728 1.9932069809550257 3.549825615932086 0.186616707795188 
5.976324553057705 6.737997007785568 10.011922798561095 1.9934500826393697 2.111013226295233 0.4564712051605187 
5.789666498888193 6.830546495137883 32.33295505391278 1.9936081988013397 2.3196264000975866 0.38189692358599864 
3.0419387790897545 4.623865745869901 26.96634447840215 1.9938607579172933 6.64230000540584 0.33474119025192933 
3.1084196283970886 5.6322288405016465 30.953096023593694 1.9944396729396112 5.622390247503272 0.5106399041114095 
6.986729768579391 4.8228815513273116 39.82011821431667 1.9946092645477547 12.355147577411255 0.3768853335874741 
3.374322047356265 6.155969029490772 20.083178498013893 1.9947664532104405 5.0337461967900445 0.6763648431070908 
4.8582850542449245 6.99014875091471 5.302842981413875 1.9951880053312627 3.275868366465918 0.788542403309786 
3.0096539577574397 5.139529731456528 3.14161075600817 1.9952307921217918 6.128558689499343 0.7548232357894767 
3.130345402765018 5.698731950253891 4.211909172604777 1.9959545714438265 5.556622704028614 0.32723198374489115 
6.843704922966227 4.2349958089780975 4.320994644420999 1.9961160425313402 11.756877666735589 0.7820003774295196 
3.415668868863973 3.7852135818914707 24.098803225104632 1.9964496424171865 7.577979944388961 0.10437575903877545 
4.832488174964139 6.9908874925901205 30.543423837543216 1.9979222256330764 3.306037600011839 0.7425388171821051 
6.536973099899263 6.277248270130641 12.293116920159811 1.9984117326931554 1.3856362206307686 0.5536816660815006 
5.250062005947281 6.983131736103671 36.79150472536765 1.9988352832487064 2.8890441918649934 0.48147112882702847 
3.0526052845115688 4.544864394502616 29.01314225027695 1.9998736453345587 6.741947310356192 0.0 
