226

6.279327957325772 5.289735343342713 27.43754109365593 0.7632168697298849 3.8825474538943965 0.0 
5.393832177372025 5.302480385804916 11.606198741816534 0.9241066179702417 3.6936063930094907 0.3772857304177649 
6.936495487506318 5.923988918891062 3.3113764682149913 0.9395751606822347 5.827430606524231 0.32900136670451136 
5.341104988560791 5.295647981977572 13.739366857929774 0.9644969680573103 3.8197196469856536 0.33692772241779656 
6.356810113806306 6.923122380513783 24.498160070917706 0.9896809519839724 1.1895567241966134 0.26946296079701726 
5.314776919456277 6.715832222698555 22.48382279715716 0.9909321072421577 2.3131831179304445 0.4946416405497879 
5.727761455137369 5.043103671494633 1.630739834421881 0.9948690410380525 4.412453949563414 0.5130678053925107 
5.841952790926981 6.995614685186432 4.690897490471706 1.0080811086686663 1.7421920478777713 0.37798097590667 
5.0806813497082315 5.5512579506100135 15.707744258376387 1.0229937476177486 3.6783733907168283 0.21748934755554142 
6.117456660388724 4.981364775050252 31.660191855142955 1.0253847027228833 4.9497266296471345 0.5824836647942516 
5.4768456407716215 6.8892010342682575 34.48592890642175 1.0316825882622003 2.169215503104355 0.24363635812194104 
4.982737270293837 5.741025353859428 17.85249522389572 1.0497101164573333 3.5594380439338424 0.3351271936547819 
4.963028418038672 5.822811539431154 38.03988032845352 1.0520008613846947 3.482995283510574 0.5995057142579642 
7.031298430812425 6.228833488944401 33.05352064895767 1.0563811902237927 0.2306620114021154 0.8767971818201439 
6.810703233718996 5.296556646533054 5.4269815323050565 1.073346302317785 5.976936948108199 0.3122542198884821 
6.361341185012895 7.012203368070054 18.65520447906715 1.074766537587994 1.3197193721841263 0.5207443942512724 
5.285717890471876 6.80378110205449 2.487722524617155 1.0752966995261724 2.4702862227914855 0.37520226858934985 
6.831438237571897 6.711224745630092 38.65614497517366 1.0941344440667469 0.7742416634368325 0.7497153370664944 
6.514316740948363 5.027600308233333 7.391071559434785 1.1000376677949064 5.7189859248351596 0.860884260079081 
7.04154240578575 6.373662542851281 10.740100940259623 1.106541584839925 0.3811553125266034 0.1463750646290406 
6.0508113031665705 4.891832281308376 39.60262502933703 1.10933199777149 5.278432968543225 0.37818276780389126 
5.428542530495234 6.952122893491218 0.22797846523323706 1.1104510992217893 2.344559485959153 0.4578669119027678 
5.964951316877248 4.888557694455294 29.58696578845848 1.1119947880917298 5.205097496852785 0.4466476351492964 
6.782399341519976 5.201583244070161 17.050988330811137 1.117863160570388 6.134447496558643 0.6739402368721735 
6.98224022585566 5.451797501480358 14.941271660195511 1.1248652544514646 6.495122169291015 0.6606349751955947 
5.033618885829618 5.4223932079876205 35.83339588445787 1.1258428238453284 4.143461716453757 0.35808625725271054 
5.988893505924236 7.127643858918324 16.59429890088527 1.1276985531456818 1.7824914186501761 0.22361220140247823 
6.9970276909214375 6.541756627345245 8.6246873537484 1.1347089757892235 0.5647901169351837 0.5640929946641356 
7.019521826984857 5.500174112368616 35.042470641159326 1.1354517487084324 6.616690504057274 0.8848326694609718 
5.900717681027484 7.136899740661452 36.42504549175115 1.1412265328043474 1.8920424267596427 0.4069481037506374 
5.043402626762715 5.376676574944516 24.06176145046158 1.14175769176624 4.246305540362453 0.5147434614474062 
6.668911477964857 5.0739227038024834 25.24379007225837 1.1423929813709601 6.0980129483741905 0.5950086565525072 
6.164467949850724 7.139736102592904 6.780389627900593 1.1515416145679511 1.6438050361103231 0.0 
4.856805751536225 6.158783780669186 8.364355145241795 1.1541686959557766 3.466638926812111 0.0 
5.901009585629129 4.848533088145398 21.549264282959882 1.1557141304117085 5.347062677344361 0.0 
4.8518293208908165 5.823726541095148 6.037461974403676 1.161623106123637 3.8263037007506764 0.0 
6.716055579553025 5.081264424684413 19.26153851747665 1.1648221539614894 6.26026378715313 0.0 
6.330652097667706 7.117046534187461 26.54128103572778 1.1649565525084054 1.4946486699101769 0.0 
4.895809424101677 5.602591674547108 19.912807199699003 1.1735289536444942 4.092175064500832 0.0 
6.385625829057893 7.111513810731179 20.678140397408505 1.1765076419142941 1.4551662867893143 0.0 
5.131547822779653 6.800292099182702 10.258555513338706 1.1809642789403143 2.830791369479069 0.0 
5.08671181271328 6.753225299636153 30.152862610281716 1.183825859258632 2.9026786582495987 0.0 
6.897396138453682 5.22762348053929 37.18324716799707 1.1840123804782694 6.597932605101274 0.0 
5.812127083767446 4.826798662338005 9.583162146753011 1.1881488170029955 5.41035464633501 0.0 
6.924667083547003 6.760162658119247 31.052074565998183 1.1970198336678637 0.8236311247619383 0.0 
7.175020217787847 5.745026364212807 12.822274106211914 1.2023660287769036 7.2977641884916125 0.0 
5.678918843607121 7.164714029363518 12.488955505964775 1.2081605353539677 2.222760302971434 0.0 
4.921322298457781 6.555382418345156 32.534621421302774 1.2132580988443111 3.2346883759428984 0.0 
7.11456908725782 6.533921966957282 28.996733893073845 1.235854731378354 0.5521039716607792 0.0 
7.2368391063231075 6.1210723615085705 0.7701227236964598 1.242750776162059 0.12126470484660956 0.0 
5.100412003351672 6.861533103458184 28.154212465374727 1.2455913664071563 2.9617664811031474 0.0 
7.155157536645047 5.508577668726376 22.982392979396856 1.255342519849565 7.382622258066432 0.0 
5.3469071603812495 4.920838996138299 33.7469381672217 1.2613955483578803 5.257704984628816 0.0 
5.066113232708023 5.096306715962523 3.770878066131999 1.299540705687011 5.081933440235048 0.0 
4.724212431776354 5.571488453982472 26.129542566994317 1.3458291363707122 4.664150495371562 0.0 
6.236977267268838 7.409826929126469 14.400677280132761 1.429604908809555 2.0075419618826515 0.0 
8.207935762140828 5.09081340381646 31.67198710276304 2.3878024617669293 14.070279062227787 0.0 
8.530578291473395 6.386892338392958 19.735681899198497 2.559982845798697 0.38838048953323856 0.0 
3.9459033805313384 4.451987646981191 0.736681053787251 2.5720915938611926 9.741559764247654 0.0 
8.527192290632795 5.234797872883785 28.11239800355316 2.6404990379049615 15.814406016107402 0.0 
3.605651141838667 7.145312243884714 17.444049494711876 2.6541753127046297 7.15412493651657 0.23282205873610043 
8.556554467768887 6.766960759975843 7.311822551720745 2.669119621525378 0.7779277039572339 0.3283876746997351 
3.3278633920836445 6.30898540491247 14.76082690641735 2.689941640968377 8.141031946163986 0.447810303500744 
6.388443577341164 3.3233593792562814 34.555667545312126 2.704679911818202 13.135295305947796 0.49984126769832643 
4.889682224513077 3.5299330423261903 6.507050464321434 2.708142599265071 11.617778184512302 0.2430849862613574 
7.61536311982692 3.7897122202321096 4.176406528000776 2.7376577723097943 14.628711093240039 0.155204528592045 
8.395345006366709 7.348117847954564 3.7763982407506234 2.748654112743104 1.4090231226843457 0.33017898696194625 
7.645464895647474 3.7971386941058327 0.25759090324747547 2.749573177024735 14.721066857911731 0.5145767251483498 
5.57921527995668 3.2734580089587446 4.61669445419377 2.758820583063196 12.578202195082781 0.27886243140953554 
3.968435851989682 7.867923158917467 19.53948826542485 2.759780754897225 6.618325791176861 0.15669893294408943 
4.036037273496735 7.963233097260954 5.226050900754984 2.7769468459578004 6.543542783790738 0.5355467186034863 
5.412295274716282 3.2790711667334076 18.52553244614098 2.783675728209433 12.525602076268417 0.28231658638495466 
3.3911637053912536 4.976592611600715 2.6517690929855036 2.8023899612113468 9.851607256985673 0.25227629354096337 
3.2099348767573765 6.278252374756651 36.95823858624826 2.8039058072611107 8.530018766862671 0.32415983301052825 
5.002170131697918 8.622229158249437 17.487664022762424 2.805663950734174 5.4272877103769375 0.17563288843851274 
3.4397128215639494 7.148366053727397 21.479189073660823 2.8060319009978265 7.632299322218508 0.10850628585403686 
7.5424648181970895 3.6554174102052865 14.15069619096111 2.806468463343971 14.858249600634302 0.27184649859346216 
7.281483812206343 3.5020585153360404 27.986012184757787 2.8074743848790664 14.560671233707396 0.26011755223736643 
4.564718569513026 8.425765062636039 25.506355641696388 2.818575690629287 5.933319343830185 0.30034675508608155 
3.2635890392049305 6.741931912334103 25.338797012583356 2.8352086182323744 8.156398749947623 0.13696698273229324 
3.1769859016188526 6.282173998129448 0.9909956117255518 2.8370813814339337 8.630312726642579 0.5496267888375156 
4.330451161772176 3.7043847353064745 26.781318633261172 2.838528274779342 11.591384861976323 0.42212731917194973 
5.621349932559012 3.177410335199701 0.6917733743200785 2.8478743457903004 13.040517015002145 0.2362239537615826 
8.830843014641118 5.680471871296936 39.64451849697759 2.8488191235273086 17.579456553713758 0.5274806719013093 
6.595587892674313 3.2117692622348333 16.28368324917895 2.851132333813835 14.035651452754152 0.33362747141676374 
8.295433336075835 4.306770920382144 2.2673956374426467 2.8523742595304302 16.10916701619434 0.6729556551968932 
8.798577251542365 6.551558677208998 37.53134084804872 2.8524115424066974 0.555054988776611 0.29090666208333965 
6.979678178332533 8.679180785604316 35.591101079476175 2.852679269573136 3.480942642798187 0.4538651445349968 
4.055982997541584 8.090082934777046 15.412926933829866 2.8544086568138125 6.622235187259978 0.22653592327283717 
8.538436505821114 7.312952338496144 13.662799520452396 2.857884486337368 1.3641694857055704 0.2398024010768032 
8.856906584033158 6.1464971797203685 29.94283079824033 2.860660177923627 0.14656128842966964 0.16239041938239002 
4.065350533911133 8.108911135868356 1.1498806855591255 2.861883075114619 6.6198934209704845 0.3677577103560436 
4.81367650434269 8.604541003210883 3.452294696925293 2.8619918367730066 5.7188330736062625 0.15075092990968983 
5.194166144300976 3.2485916645145263 28.580299218835844 2.8669872743996803 12.693518970930914 0.12594562242908672 
6.899149250945477 3.273021914655354 6.148873719479234 2.871389707689601 14.44563811970404 0.493609659120825 
8.815674353654245 6.603237765462168 6.0874632355364895 2.8795690419759055 0.6077394891631958 0.2947599283051548 
3.6185840617836256 4.379657158595357 18.41153171827104 2.8803910835999758 10.769928179816155 0.629648474506646 
6.515880935116549 3.1655436588042125 12.481295988110709 2.881019939077432 14.095164896796668 0.41234184947042424 
3.20389525309003 6.701449765968295 29.32897687843054 2.8827475661024233 8.347855713460579 0.10918920723738036 
5.912532701131044 8.88207926436342 1.2618966276384143 2.8834062173833646 4.616724613842216 0.5805344480807237 
3.6762990913194677 4.288622617067453 4.987382664864455 2.8858964742027347 10.898269787357073 0.4582556888476928 
7.913153077906694 8.161978957396224 1.910800955045584 2.8869201083036424 2.4434373234460676 0.968062630692772 
7.395175167591491 3.4707000909546526 36.29136072536416 2.888576081421562 15.068152595052924 0.4492195783003643 
5.0981348573838385 3.2554347367591276 24.657915728464204 2.888944308853062 12.696633274351063 0.09407550290242073 
5.818872732170929 8.883653500893567 19.424945278890988 2.8893363598527175 4.719805051645299 0.5451848178064272 
8.13171664339543 7.952312964226449 11.554791788253922 2.8906299932740884 2.143397173866557 0.8551612345514028 
6.948721881018598 8.731677703854809 31.51556660345173 2.891735860216311 3.5757052399546367 0.9148117601805775 
6.840204244170213 3.230594257770738 20.472516981270104 2.894054480657551 14.490389125419021 0.40052989121922733 
8.456244969023956 7.531837663859665 21.50954305429353 2.8947652713604475 1.6142024092135312 0.45980222429563566 
5.4948322364292785 3.146953147098438 14.285019729395202 2.897424859112406 13.146030197860703 0.34540103446013987 
8.815245808835737 5.313086181730606 13.939686493799144 2.8978370481958824 17.514132118071366 0.14954142157446235 
8.331864170607947 7.7215351252554765 39.51313549898249 2.898495074629845 1.8432941840939225 0.7144112505420291 
5.1613390269448125 8.77539988394093 9.363461323248615 2.899344191969141 5.40509901110944 0.6953827698006124 
3.7771361499297065 7.865400869177462 23.647464870718153 2.9018690698715828 7.090453133168758 0.30005877655149815 
4.693322230461975 3.4085305198189655 2.5960028335725447 2.9022613355992997 12.321170045485335 0.31567103570058497 
5.960971710536242 8.902338684973033 11.444166113859026 2.9026010834541918 4.598424585614454 0.20552503380776949 
8.464584872587407 4.463533650117945 16.035675413916465 2.904291211036968 16.629171294787334 0.7795983592430387 
3.180087600405118 5.298266304991085 9.099040331034793 2.905913990485581 9.837937433337377 0.05621643577576615 
4.881124163969702 8.684447499412808 35.24584482916414 2.908288416501393 5.716823858823169 0.21705903810807065 
8.551306564572716 7.3982980068514195 35.56912857846872 2.9093646217682103 1.4586427353814067 0.3971138182012783 
8.847025896544714 5.382084504111628 4.312193438088158 2.913310147522096 17.68222263369504 0.5255431595136881 
7.829706194501227 3.730909209862066 22.23082470290764 2.91489241175124 15.714174879293154 0.7048651949382747 
7.323447948572722 3.4010600037778325 32.41945963368589 2.9165053705667385 15.117385235358086 0.26764223345843857 
3.0775055443380577 5.990240284739015 23.32105727786252 2.9225107519762465 9.191098041847283 0.5951921411353371 
7.14132380996659 8.692902908989002 13.15615932985267 2.9247813792552226 3.4217602391117303 0.40227344675633997 
3.258241841963537 7.0287960907911184 39.021534742861476 2.9284226459967466 8.148682678601588 0.4892114983518361 
3.3215323009755746 7.184303359056786 35.10590744160865 2.9286112171113445 7.981285701512917 0.1508036225605045 
8.609302327415225 7.329816614938423 27.916024423683602 2.9286295199667727 1.3803609600419051 0.4927828760746428 
3.667702702073395 4.228352262662439 36.77083182465894 2.928881423193682 11.104030728981751 0.08519702807131452 
5.95563960738912 8.92911302864772 33.415905244468256 2.9294489207061485 4.645929692328636 0.08329913989057719 
8.921870750295662 6.222495793185319 33.987409629324574 2.930329855053608 0.2227101366529105 0.5064449902581941 
7.669175481411299 3.589922820308516 18.173755667767168 2.931658029138852 15.590905932701034 0.5270354711611076 
8.580348223324835 7.39419840547459 17.73853557706814 2.932914275502016 1.4528964611406714 0.2649709756820538 
4.475397699735094 3.494447335457977 20.383764541431972 2.9329518115316295 12.217945850693624 0.2258082358190969 
5.106919550978516 8.795370396488778 27.40998697994373 2.9345678288276535 5.517083003676129 0.638149289798665 
5.541928580946401 8.900313504406803 23.3442553480499 2.9362642675342143 5.072223246744034 0.7437912909691355 
6.606688020774552 3.1267970954822335 30.359400446305344 2.9365567055789463 14.44928641464126 0.07105441392042176 
8.811189502864623 6.849448092555106 23.403634024000212 2.936724107396156 0.8617625498513171 0.36331024185572564 
3.794500173817207 4.059127709078563 22.849389913866112 2.937892906992861 11.349831797354598 0.2338777385606266 
8.833390135287768 5.222984795360789 9.818814224005479 2.9380014103105108 17.673636500486566 0.6931907333310897 
4.08088038210791 8.224952788631857 33.253168598061805 2.938270753252489 6.706684930805647 0.07228953835093638 
8.566579680871095 4.561295319889025 6.2637133336618405 2.9423124264485567 16.983839063958065 0.6745679875760455 
4.935095094142504 8.743674948061349 31.243126549204852 2.9430893087262566 5.712621682497744 0.23715010831364167 
5.452279219911706 3.1083230814623626 36.70079342403503 2.9430924984009357 13.31806387560015 0.2736868052538174 
3.4130677784160746 7.4061630425614275 9.078478773044566 2.9444036444303556 7.784132249289051 0.4847387663466332 
8.921657733796648 6.369220808091983 1.9378246493425166 2.9448952304932448 0.37019502946278493 0.3877357134399025 
5.947622578283568 8.944530648512671 15.676537729905924 2.944996457440336 4.678369801167797 0.171847049715734 
6.534342099185263 8.899835281232653 25.43880974490331 2.948654970871189 4.094425666409091 0.8043598463678342 
8.948443258339612 6.058434204894629 25.990023746323303 2.949022245414567 0.058438029360701194 0.3480268580144442 
7.181644901929401 3.2979995780416296 24.442027182756867 2.9490830701285686 15.113019198672674 0.19454813352397285 
3.249041665140229 4.9341936889417966 6.949144978513857 2.950205900073068 10.358812747588882 0.0 
7.8345264564276995 8.314728142218065 37.50574199287912 2.9535493379507765 2.660018551567685 0.0 
8.922805170624557 6.425089571807177 15.823529999236413 2.9535556892479367 0.42657099600192083 0.0 
7.509772916691581 8.539496375440615 23.51248984164829 2.954396063639985 3.056081783449123 0.0 
5.596804419557348 3.073026841956276 10.699078139357049 2.954613095482544 13.518828611491315 0.0 
4.3474933879192275 3.5475080574733173 30.69547567435623 2.9572782809754274 12.182387344399217 0.0 
3.4736593790855483 7.541421277989171 13.113941957860014 2.9594554379345173 7.676089516705176 0.0 
3.485971030318048 4.436240354028607 29.014836277413295 2.9606901038049673 10.948754578278258 0.0 
8.65762713993167 7.3077196211957265 9.663064703449713 2.961944061349183 1.3544311531046134 0.0 
7.1415752033427005 8.733680839901067 27.598099626095504 2.9624660131939295 3.48152943860498 0.0 
3.057760693911911 5.652110065373808 27.452123354420166 2.962735145250743 9.656401347941827 0.0 
3.2006006701637943 5.024799211453118 38.766144481858746 2.964397609274076 10.306636435575967 0.0 
6.172245168550056 8.95995268665497 29.655295959459032 2.9649600849463074 4.4850062105144595 0.0 
5.829448502893527 3.0394370878077037 22.753455053427686 2.9654713908945043 13.80380904511495 0.0 
6.674187560059458 8.889069786645697 39.33596080260564 2.9666905969864708 3.979937059499857 0.0 
8.459351896511127 4.340637085976962 38.131205944812464 2.966799122169869 16.8799925396836 0.0 
7.849316950211369 8.31993105971894 16.026038636674215 2.966825459002893 2.663615448727617 0.0 
3.706495301272774 4.117153203957077 14.839181563663328 2.9673685076938057 11.361984435675886 0.0 
8.421909810546708 4.285133561808296 33.87997630885647 2.9675602826663345 16.817365725394186 0.0 
8.073580709608803 3.8764224732131423 8.128602202101533 2.968049607323965 16.282351048769783 0.0 
3.042651365647597 6.2526154247879875 33.288026695505216 2.9681181745252045 9.071696852651975 0.0 
8.965615676276325 6.127979990704734 11.671674698581676 2.9683758551431256 0.12801967335993325 0.0 
8.692578884956028 4.74949873587608 24.12498872770079 2.968793435604195 17.362692764485836 0.0 
3.0602957289961594 6.415191246520131 11.095017144209194 2.9688794135405985 8.91045311338016 0.0 
8.322497412407003 7.85056206187173 25.242987281469894 2.96960842123607 1.9979099430456024 0.0 
5.220218749858514 8.866264956116183 7.355578613282219 2.970443333364891 5.4549886403255385 0.0 
3.5084318687470724 7.617428721167823 27.121188775726914 2.9705197223270177 7.6217817970443384 0.0 
8.366307525917026 4.202818386055117 12.016667021751985 2.9714092718292915 16.7398490322965 0.0 
8.316405428252578 4.138038711032198 29.87981516725327 2.9719747558908787 16.66125457047993 0.0 
3.2768492284368076 7.191346995647489 3.0392392824710157 2.9723488672602865 8.112110485004248 0.0 
8.878579807479749 5.251259846277625 18.061467293287706 2.974362709191055 17.931589756901747 0.0 
3.0808252614515172 5.426742744093797 30.949579011804147 2.9749294169154186 9.922881957705055 0.0 
7.5540033828924535 3.462862388438566 10.20182359801477 2.9752300371636555 15.65551432531431 0.0 
8.80406085971824 5.005001729156662 35.8549749164384 2.975361971926277 17.680206394886962 0.0 
3.192588586923753 5.012729843444964 12.915641357791657 2.9759471104666786 10.35555367181173 0.0 
4.487857775156117 3.4360761037153758 12.499227257075546 2.976622222267235 12.440853980135515 0.0 
6.908230958399521 8.83477655460266 21.571286235153266 2.9767165784333987 3.752867567473807 0.0 
8.73200950192652 7.182571353294682 31.886311306246178 2.9769700912588966 1.216114076728978 0.0 
3.3879801870386714 7.43216874657781 31.299449105198526 2.9788848285854876 7.864422965273025 0.0 
4.864298340868171 8.755353026938648 21.351295856728065 2.9802329710300763 5.846497316440637 0.0 
4.9665039048844495 8.795567755524987 13.55968583329484 2.9804887609836914 5.737155875212665 0.0 
7.772517179731125 8.3968012651703 19.74776900563154 2.981018862262352 2.784351702622942 0.0 
5.796235945677434 8.974308834632149 5.369722848590108 2.9812804017074277 4.8869073376861465 0.0 
4.615703977205754 3.3593825092468883 16.59278841174327 2.98146544692291 12.610240115473534 0.0 
3.938542444892274 8.154016268735212 37.24088663871351 2.981508567401188 6.9595599074265415 0.0 
4.265062541186952 8.424989548702404 29.330921313606915 2.9817079497007364 6.535338853951124 0.0 
5.14442233286853 3.1431461645846905 32.55239235685888 2.9822184664141043 13.185601733980999 0.0 
4.260423873428721 3.577407733854466 9.137858409803961 2.9824617999439473 12.197201547342669 0.0 
3.471268617615488 4.418052033882795 24.880905295202908 2.9827909366495406 11.038163308910804 0.0 
6.192005596499262 3.0222680400612134 8.189281998353387 2.98391584571816 14.25351049417094 0.0 
3.1464997056201796 5.127214250820367 35.002520578204795 2.9839937824996863 10.260228141024344 0.0 
7.104976936986306 8.772102071124689 17.88971060545343 2.9842124461916963 3.55566561644366 0.0 
8.456285435458714 4.3049041072835745 19.872861988855824 2.9844075167360606 16.94884098929629 0.0 
6.963738521210538 8.824995012910373 3.635655566270273 2.984859923050584 3.7072857194819093 0.0 
3.5148509336105684 4.346280840579693 32.862147500320546 2.9850884309196064 11.130636492361248 0.0 
3.479042849816091 4.400997125758824 10.974936709768087 2.9853031914522385 11.066042148115915 0.0 
6.599584944862226 3.075324196948328 38.609737611798344 2.985503418028756 14.67254387742766 0.0 
6.298288710339794 3.029219849418583 26.28394898136672 2.9857178128223576 14.368650877669165 0.0 
7.565021607543955 8.54323959678178 7.695628928529757 2.9861949498849216 3.043396393100913 0.0 
3.0157518139855766 6.113807431793779 19.217552521352182 2.9864174804038837 9.26827222111216 0.0 
4.373362191930795 3.4948249519428742 35.02825629683486 2.9869470333516475 12.355501160957974 0.0 
8.936170755954373 5.447754489915269 21.47407654011493 2.987653562836632 18.21654136074996 0.0 
4.470773924144151 3.433362660044194 38.52718258331137 2.9876679243069986 12.473682886843257 0.0 
8.249993507182321 4.034261329332711 26.147723721401633 2.9877415055053524 16.627117284711538 0.0 
7.890200271881026 8.316270762508358 33.84295494581519 2.9896433421179456 2.6498499963968722 0.0 
4.056292717442768 8.273800481353577 11.090412617055009 2.991348630512627 6.8145505175792 0.0 
3.2204859846453395 7.106104496404813 7.032694092682505 2.991515555453446 8.26512589629651 0.0 
3.154713689102297 5.075578708085464 21.087203880710334 2.9916899765729066 10.338473446989138 0.0 
7.735651894555001 8.437248521504072 5.5860963128825105 2.9921009098367892 2.848395956000232 0.0 
3.016802521064438 6.233174995858214 4.7829503319373785 2.9922964052748817 9.167164775557655 0.0 
5.8643449353573125 8.989277549291634 37.35752662419506 2.992354017034449 4.836080271619771 0.0 
4.663695700566237 8.677944954982014 39.19456898353553 2.992841185662675 6.086381109713315 0.0 
6.706450093973626 3.09066254938994 2.410531548444993 2.993879779950689 14.821501878409958 0.0 
3.15209969654442 5.070116136223735 16.588602146141305 2.9958671763838027 10.357296261192488 0.0 
8.029482595097024 8.20786223252198 29.735013740447364 2.998909008556061 2.481508297272896 0.0 
7.167566137168624 8.762479570271285 9.757629629438824 2.9990838702558946 3.5116769670982073 0.0 
