351

4.998552150579002 4.996527572339623 29.98151429073438 0.00376218311654819 0.016242666487036317 0.0 
5.0010653309690625 5.0045066903051705 34.28314522226191 0.004630894900594429 0.0061992339960352805 0.0 
4.99765737818519 4.992376792417463 25.581069270547363 0.007975034220218058 0.0352037729003154 0.0 
4.995185617570117 4.993238187226835 23.537022914949933 0.008300625889684277 0.03397991875242745 0.0 
5.005883723131882 4.99158465767089 24.558771084390184 0.010268212327798842 0.05465312635837982 0.0 
5.004312350482331 4.990342639747309 9.609830740691514 0.010576434830920745 0.05428204751814558 0.0 
5.0013325717803605 5.012015721886867 20.35652168422802 0.012089388736089779 0.017654682343708927 0.0 
4.991313405389414 4.991020686040425 2.9960414628314496 0.012493398461317806 0.049268454337223044 0.0 
4.987319504157942 5.0033518319202965 5.367599313536218 0.01311601128477391 0.03781573386441428 0.0 
4.996841644318016 4.985516892724043 28.93090319611608 0.014823481607937339 0.06667125757985559 0.0 
5.012339677834111 4.991057874900692 12.93209398773887 0.015239069864703358 0.08619365936458301 0.0 
4.990300248339998 4.984243619944863 35.430987592367266 0.018502667232257908 0.07698168065773836 0.0 
5.005701748124276 5.019307542251211 22.500338117964116 0.02013184341919394 0.025842160628798183 0.0 
5.010399924051191 4.9814182255442585 6.4506787416083 0.021294148543544056 0.1112116038001405 0.0 
5.007722197491185 4.979538118032869 0.8051778216679395 0.021870549781147552 0.11095492202970991 0.0 
4.98374147198872 5.015558809812605 21.435610635811486 0.022503695160536852 0.05351789790069916 0.0 
4.987383710488101 5.020107476655468 17.16010248873164 0.023737762710462906 0.05058873928653895 0.0 
5.018939223670066 4.9853200860584845 39.747249542790485 0.023962346849905725 0.13475965595546335 0.0 
4.985328644106464 5.02253443718449 19.282093293100992 0.02688958056527624 0.057756641251416774 0.0 
5.003655196940072 4.9729317743079235 7.473627331869345 0.027313903177463406 0.13237993187102504 0.0 
5.018482432213102 5.020847294417667 1.9953691122598798 0.027860545311404854 0.02355483687066054 0.0 
4.979775411788645 4.980514164938766 18.237705987517565 0.028084368185032904 0.10976464847553347 0.0 
5.021200984904561 4.980650581535471 33.22600026909803 0.028703340499649732 0.1591145659946891 0.0 
5.025870607200122 5.017277846078629 13.949151649585168 0.03110968148374016 0.018318179735738127 0.0 
4.97563953962413 4.978379484544693 32.20324826733955 0.03257113320530203 0.12596796302048663 0.0 
5.01428088852404 4.968899812342123 38.74623388522063 0.03422229462486892 0.17600042912163483 0.0 
5.008803712187428 4.966124361315554 10.705223974705262 0.03500091776737091 0.17383722804548274 0.0 
5.0239777039924 4.972495436389503 27.83731182236353 0.03648878331968719 0.19811175182821117 0.0 
5.002196282348359 4.961755809541028 26.722664672571938 0.03830720245614172 0.18271592609572807 0.0 
5.0299807225086 5.024006538344282 37.722072627130075 0.03840778053224558 0.025932450168134835 0.0 
5.018631550823042 4.964554349333502 36.57940090072866 0.040044086170654136 0.20808249981449656 0.0 
4.962681791321539 5.017076450358969 8.594371315232493 0.04103966198485898 0.11131780904286792 0.0 
5.021506347513273 5.035104254657371 11.82204546517432 0.041168333442236804 0.042038340513903094 0.0 
4.99281155527781 4.95867950985938 31.040612555231135 0.041941109224543194 0.19041870825829754 0.0 
4.959906067617319 5.042499173143316 16.097393648843372 0.05842690417754959 0.13596414736896456 0.0 
4.999540706026372 5.064848854272493 14.957262541563622 0.06485048073383126 0.10232619474097504 0.0 
6.530388564716449 3.91820928464921 3.6939806303813043 1.8741292140175494 10.622304468058573 0.11937700331176411 
5.242145296479605 6.877162250194774 36.030673151960386 1.8927156305593025 2.730259999893459 0.3098542886619963 
6.127714024566324 3.468512053886622 4.61345324258847 1.9018922814644768 10.169604257527126 0.8132436984926541 
4.073267164567729 3.3327654921586767 15.461883923064235 1.9074864750255083 8.021105108741724 0.9999999999999999 
6.706928435776567 5.880379996336345 34.880447377299134 1.920591998007859 0.9145527223241956 0.8115681122434211 
5.353726295192148 6.890360923836044 31.61075588102095 1.9231710049490207 2.6651582551678192 0.33398999809639945 
6.755631027233476 5.787491899668163 4.652767567687135 1.9241579446157338 0.8113195792793668 0.986434563672403 
6.0292014231809565 6.626716497355128 32.62945673002483 1.924957696222191 1.937833331616023 0.9875195175922653 
6.721398391513389 5.8618412905569866 30.539912570200414 1.9250929412404538 0.8935862600024844 0.7420076231729738 
3.0830767770206373 4.820179241864373 33.72973689729514 1.9253389695983558 6.22871398129033 0.9124914463985757 
6.556746505084351 3.8662346973985375 20.92787423570617 1.925846162723111 10.888200721487939 0.5228275352727781 
6.421465592723551 6.302647138420975 31.567578841488583 1.9280700190950721 1.430258704905203 0.980257724901324 
3.247473402003016 4.195796297458015 34.811429581741095 1.9282357407405146 6.887289058208189 0.1841452153298545 
4.904780527031133 3.0733903673189378 4.602165868217021 1.9289612294631322 8.994757455441636 0.9992729356398057 
6.408143484635112 6.318609840981747 5.928455213443108 1.9291448846715014 1.4518256332235744 0.9797905234346473 
4.1297962689941565 6.7230305153591665 31.666676591501087 1.9303079262945007 3.9348744826520115 0.9901996821990734 
3.1298815352900453 4.514792777724937 38.12043152778077 1.932037556725283 6.560132994622821 0.8663934348078136 
3.4222901845908433 6.115977195466714 10.213074821202497 1.9325044275344228 4.88142407264527 0.9753369439968851 
5.40065913146383 6.890941728202414 0.22420805514789066 1.9329222330664226 2.6326419817378977 0.49814748629312844 
3.219203607731367 4.244131688067958 11.27513161695142 1.9345730008712434 6.854195568277834 0.8344846378641568 
5.140664925590042 3.070387785252775 34.869909077058665 1.9347325191335747 9.25800135101083 0.9679558831715286 
5.488811733837363 6.872623133457534 27.36432193121162 1.9353692957927708 2.545907224564715 0.7981232434085601 
5.553393120874058 3.141695271592914 3.809222945446834 1.9389534315838675 9.698298476392663 0.9546681518318109 
6.206973033666045 3.4819898755124417 26.092145432919494 1.9393655256407314 10.441808234305832 0.4010355188209851 
6.444240148247716 3.7053929659363423 1.3661289182190757 1.9395455597788076 10.769067782631408 0.36223815044941987 
3.075464017916569 5.242835717528067 1.3203602361158246 1.9397958480317463 5.850573882597475 0.9841071040714354 
3.6213437438685263 3.634874282936897 14.471984184852403 1.9401704296163 7.609463885788061 0.9576981460664424 
4.852868304333943 6.935756093042851 32.68699487728654 1.9413395858587164 3.1967220039796267 0.911255788418447 
3.622663095701852 6.372632146602049 34.94110346934839 1.944524609725201 4.585004939171581 0.9999999999999999 
3.19614521149862 4.270413045276319 19.83538650437309 1.9458132547863705 6.8608166284455 0.41868666466619003 
6.911056519631164 4.632781009957279 34.9235524955737 1.9460181930991247 11.857758880794796 0.959956484646597 
3.0765802311945167 4.689051298024692 0.14679433965358157 1.9483923378754757 6.433339083235056 0.863795290478543 
6.946416543807836 5.096979999936719 27.27520795511174 1.9488310553756487 0.09702007104117527 0.9999102771047186 
6.481459472394845 3.7335316083658245 9.093161362357158 1.9490162532305542 10.867452721357978 0.736719831427834 
6.917711971544057 4.650777791095704 9.011819318698677 1.9492499472862366 11.896380726904338 0.0 
6.318712270233633 3.564366299637152 15.53328608128811 1.9493707121228288 10.634524497905607 0.5022717663813071 
3.068634386647278 4.728197601065485 12.32179841497014 1.9503973124745366 6.400043802225484 0.0 
3.610994314038394 6.369503966310457 1.3252821166505697 1.9506096250592417 4.609805564156874 0.0 
4.521660819692776 3.1088999839414235 29.4525816334488 1.9506582586792929 8.708992779478676 0.0 
4.763988051524399 6.936799358901313 13.393839054136947 1.9511261867095575 3.301413164532004 0.0 
3.180643559006861 4.294285960377168 15.544511267840498 1.9514328492428334 6.852686389385438 0.0 
6.951562998761664 4.992489758913507 37.15170643909789 1.9515774496178189 12.254612497638105 0.0 
3.285345351443694 5.932088501834331 4.570570823745335 1.9516222839134412 5.159455703762285 0.0 
4.769734971785792 6.938981508872338 34.99154033878506 1.9526062775089468 3.2979488720240813 0.0 
5.7482888636108855 3.1961457559398614 29.526842078789727 1.9529020347211055 9.970760495812955 0.0 
3.2869435925221717 5.938107985623647 35.93573136825549 1.9531023649291157 5.1573166400252966 0.0 
4.806823162607901 6.9435558179309 7.12300077600603 1.9531324860126271 3.2614665232027757 0.0 
5.726268844012908 3.1869031777841776 8.079541921253423 1.9531478491176664 9.948134051198902 0.0 
3.066972250941487 4.71977682571058 27.19672308209128 1.9532335513294519 6.41745764994387 0.0 
6.335788543713499 3.573556452555879 19.883613089063616 1.9542446693188653 10.679906950006018 0.0 
4.558311247906215 3.0962496245679993 18.776776415322217 1.9543168744304622 8.763963225880737 0.0 
6.207737455434164 3.4623875895349396 21.991513393570415 1.955219089021679 10.515564678954512 0.0 
3.8871826282008195 6.607704219334963 24.182069518171062 1.9552686157777592 4.255159704925113 0.0 
3.4213078767645806 6.153775937730792 3.5507878172223926 1.9553689509788494 4.90888578456282 0.0 
3.5645382560597527 3.672229763774709 12.338233294386633 1.9553833942533458 7.602603976451663 0.0 
3.0473549582926713 4.894964590407104 20.912341810805792 1.9554679992709065 6.248369883463035 0.0 
5.881932090083894 6.745765578094918 6.838703156411377 1.9558889705657698 2.1573660019012717 0.0 
3.0749074815247512 5.346987694639926 39.30706972879548 1.9561139192084158 5.7964794517722655 0.0 
6.468139827972558 6.2931279926568 16.687196530630402 1.9564290326694453 1.4127410410656829 0.0 
5.561781009613255 6.874159614554376 20.83410687613835 1.9565459778877403 2.503533801221943 0.0 
4.507702053541901 3.1058843902076063 16.54974170505769 1.957046553188265 8.724721053063943 0.0 
5.908940305128547 3.2666559765582113 12.292970519949279 1.9572056565135272 10.168376353414619 0.0 
5.429893597444782 3.0903810258294673 1.629499770267067 1.9574098016603814 9.657503173026722 0.0 
3.5807516641771313 3.651490316699725 36.004594364745955 1.9577395650828002 7.6380000695709445 0.0 
5.850555744683182 3.236561287262572 14.377167786153557 1.9578460532929038 10.106008284873162 0.0 
5.4461997742099735 6.9064136433679835 8.040945389348181 1.9579344264108074 2.6253610226785877 0.0 
4.230825012531869 6.800964450934705 8.010310437831968 1.9583419300206861 3.866621585515187 0.0 
3.5383850117783053 3.6958016571264682 16.649543247544493 1.9588904235174507 7.581174338849205 0.0 
6.954659845536889 5.129008843570693 25.158087308875572 1.9589125538098298 0.12910228212075836 0.0 
4.788639564363911 3.0525008003913303 10.100130544667891 1.9589350081686447 9.019491056250818 0.0 
5.663969220850876 3.156683765676796 5.858939357381367 1.9592523742378876 9.910143076857356 0.0 
4.561602526483225 3.090381738840952 33.74558168695788 1.9592943240202563 8.790816468413016 0.0 
3.0565035843987056 4.751576853678726 10.166807656034536 1.9593091581175335 6.404444874004195 0.0 
6.460877137493445 6.305779995086908 10.197232044018115 1.9593936323312389 1.4291765754976105 0.0 
3.1971766562191446 5.767793066565389 38.26134802117175 1.9595096840656514 5.367045581537493 0.0 
3.4769863895494106 3.7638732847295717 18.76867679871811 1.961524844049395 7.499667012716156 0.0 
3.6528379397401745 3.574150552425742 0.3699717214737106 1.9616045125741604 7.7588507562919595 0.0 
6.459843302031843 6.311630127047554 25.185970622361395 1.9625279760212382 1.43651345103142 0.0 
3.1153615337695486 5.548005001713825 24.11434874524572 1.9626949916629544 5.610600859320334 0.0 
6.872974567870581 5.586754937854575 21.999962550302477 1.962731537675673 0.5958660473790651 0.0 
5.6446486471805715 3.1461322784798913 31.749634795372387 1.9627525078842445 9.906093656131521 0.0 
3.302953651779565 4.012116706629671 3.8083238936448964 1.9636394040985543 7.204123182723016 0.0 
6.828598561697443 5.718438144273778 19.74504115286104 1.9646694548929866 0.735497794743134 0.0 
6.955064197234347 5.196026282954495 35.98775478835303 1.9648669977676705 0.19635292924656333 0.0 
4.657907099893344 6.93571796905284 3.3669130991518372 1.9657140198964438 3.4315800224720068 0.0 
3.1421925618706057 4.356454860967981 26.200506661300054 1.9661126171052965 6.83235353436838 0.0 
6.709259288027908 5.971698053181791 17.75995656139073 1.9661547294826387 1.016361666597259 0.0 
6.696516547439894 4.005964070751492 16.602606395796336 1.9662847770285765 11.312385139466972 0.0 
6.673520192027676 3.9677060303344245 14.460364325856652 1.9662910956753743 11.267782921459439 0.0 
3.0394575134577098 4.848491671240265 29.50581664065586 1.9663879615225963 6.329248610965674 0.0 
3.683463898759272 6.460968183722268 39.226181257935174 1.9666457077264528 4.531624916813454 0.0 
4.170648570149079 6.783236345422129 27.328971570126875 1.9666610429431493 3.9453611182112507 0.0 
4.13603535532918 6.76676105198461 36.07649920803387 1.9666925336846486 3.9837593808560285 0.0 
3.0331729414385027 4.962916211088093 4.154257237370281 1.9671766279848226 6.217153628468573 0.0 
3.049551596867417 4.74392335335718 8.065341680357761 1.9671868803543493 6.43690528427569 0.0 
6.182761842495424 3.4266591785755685 24.05863133531045 1.9683309976789163 10.544369464293156 0.0 
3.6915231827189174 6.470484102785131 26.22579296157612 1.9683584729174268 4.523214170235631 0.0 
6.930583241985026 4.615137828094274 19.865428445550833 1.9685706859540004 11.98153741295817 0.0 
6.798626269010752 5.80093330938273 32.63714767550603 1.9688957874032615 0.8248509147079375 0.0 
5.872968932470304 3.2347837623312703 38.202567285917624 1.9692798487740868 10.18444297406919 0.0 
3.686836228785319 6.467783492499671 30.572754932562468 1.969463752112564 4.5310507531034245 0.0 
6.927824315828978 5.404339896711245 7.936854252015507 1.969770886365703 0.4072347300268966 0.0 
4.662525463932744 3.059003199410877 8.083959414284877 1.9701161494670876 8.944806520460691 0.0 
4.457560122023156 3.1059828503622455 25.142310726431013 1.970162933450291 8.734636019282814 0.0 
5.896374248801196 3.2454523502251478 33.770916877850254 1.970259944587101 10.215221716373687 0.0 
6.322027722277148 6.461045056428534 29.566304909707156 1.9703832001373636 1.6458762684284824 0.0 
3.403711203881376 3.8446170126816224 20.76700365246065 1.970545043382308 7.42522925530205 0.0 
5.819168592293397 6.792478714630986 34.841555618781655 1.9707909896803089 2.250906969195018 0.0 
6.812032279169617 5.77520756906303 15.673474413554189 1.9708900922895842 0.7967309098749364 0.0 
6.337530967191891 3.5523414767908346 11.296844392585804 1.970965318826647 10.758055575048942 0.0 
3.4318021954356306 3.805812489077626 22.879489206547476 1.9711235794549986 7.475319020409483 0.0 
3.4669789797884194 6.23910203046643 29.56297061293973 1.9711740892971852 4.852688645707843 0.0 
5.011229287183485 3.0288262615957677 21.914468686248057 1.971205723374697 9.300317476821856 0.0 
3.146586790062596 4.327119496248613 28.461943261921014 1.971778055233193 6.881200028642523 0.0 
6.9517525693075255 4.718667036719012 1.364074069945012 1.97192452391743 12.10767098388194 0.0 
3.0453708153010295 5.260648531753628 37.246285402919284 1.9719312631991701 5.933591226831917 0.0 
3.8892004913638916 3.370680460927666 28.443213060187887 1.9719426230976151 8.112595733573903 0.0 
4.172122593939574 6.789773624181512 10.021686797106618 1.9719712536650134 3.951920692314287 0.0 
6.7239191074670055 5.957818263075079 1.427322477960189 1.9721341014672389 1.0001409287192242 0.0 
3.5973840843569187 6.386810851840057 11.252980176270114 1.9724542442339765 4.658661750010568 0.0 
5.453867998453597 6.91954766911519 33.637535565215 1.9724754533392366 2.640385545169 0.0 
5.376916262672611 6.936449025429208 29.36112608835269 1.9727900793426587 2.7196035482933247 0.0 
3.0739682868634395 5.426981890584064 7.049813567524879 1.9727928666979968 5.767323785310131 0.0 
6.955775311619907 5.259654389677851 16.744448567784822 1.9729362563501465 0.26040985858251986 0.0 
5.695137272881361 3.153219973094421 22.91811289577175 1.973274511041559 10.009219632785085 0.0 
6.939686269256897 4.636896256172749 24.14475707472664 1.9733796269154893 12.0339253791579 0.0 
4.325124760205433 6.854421064731982 12.294779848151244 1.9734067179903554 3.7885948425300455 0.0 
6.965575168129341 5.1772867015321875 18.78837830854686 1.973554234397134 0.17752601156226788 0.0 
5.459685807177213 3.0805705833880825 37.11549598451815 1.9737072545530494 9.7648228858238 0.0 
4.562551972109342 3.075075388284257 27.321295631584235 1.9740049488019085 8.86116922344257 0.0 
3.052779789245604 5.325885694404272 13.464645527097368 1.974301910799801 5.8750683913348 0.0 
4.056660157317304 6.734544932983461 38.15541368215573 1.9744711148384062 4.0850009869035375 0.0 
4.889436296453994 6.971460270935053 19.842224056603847 1.9745581613153653 3.2122502679388516 0.0 
5.824120582152137 6.794465827640179 17.712730631428222 1.9746600569452781 2.2516479663058515 0.0 
5.962109167471302 6.724481476076301 11.069491794519863 1.9747127415051091 2.0969451507300505 0.0 
3.029073446509196 5.123207504067969 23.054818924258782 1.974773801809665 6.080647290967693 0.0 
3.2147703508186813 5.844334889785803 2.2941009381175803 1.9748281713672355 5.331667643958003 0.0 
6.972130435796686 5.109581814631199 22.890267622056022 1.9751725569917906 0.10963810788514827 0.0 
4.492492234567714 3.0906972222641516 14.483188084163288 1.9756014853820838 8.796540476639784 0.0 
6.004015367985783 6.701807968811669 19.75665935813246 1.9759041530050296 2.0505628857088887 0.0 
6.230411189125191 3.4533497628496574 17.63367151548271 1.9763700691929336 10.641567308127158 0.0 
6.070885565408184 6.661208996992477 23.871724661129683 1.9764643244663833 1.9729002427981506 0.0 
6.74763800208573 4.076790075297278 10.268481568937467 1.9765007339750236 11.458140267743538 0.0 
4.01822487950051 3.2839048560252593 11.276027495092748 1.9770849578117464 8.289399502419665 0.0 
5.163480135057555 3.029600168494529 32.676633991195814 1.9771700105340528 9.4808611559385 0.0 
3.030225947269935 4.82902874784697 31.623731870949385 1.9771800595472835 6.382679393821155 0.0 
6.97467875687303 5.10039246149493 3.816176780929993 1.9772290811058353 0.100435647436381 0.0 
4.329418737436382 6.861034958549861 29.60684302343541 1.9781633771370073 3.7914298578712113 0.0 
6.760502372228666 4.097709821662053 12.355316815354136 1.9782558400135926 11.492821837472265 0.0 
5.611869629454381 3.1186367151672583 25.162619960511655 1.9783610016792406 9.944876393054832 0.0 
3.492121956432479 3.7188982143790525 31.70323475645651 1.9786151670787804 7.609472501701896 0.0 
3.0309096139345435 4.799651131883135 14.419289235008506 1.9792565820153594 6.418710534089161 0.0 
3.4859739695844993 6.275215245222155 37.13410004594481 1.9795071968605504 4.833174159900542 0.0 
3.110604016436696 4.4082637213204965 2.187068954568929 1.979891160193056 6.820931453551067 0.0 
3.1743394118885666 4.233738753992054 32.72920808478705 1.979947696308424 7.006995834928137 0.0 
3.5065618654549002 3.6998204034372533 6.001809642700643 1.9801071801878853 7.639099579166972 0.0 
5.9247140630180954 6.751167329060514 28.309913414329024 1.9803239918539504 2.1485659969844804 0.0 
3.059524240678419 5.39626033100005 34.936885826004776 1.9805222600210626 5.823041243357963 0.0 
3.715088275266199 3.4926501704575097 8.122981055392025 1.9806821170950586 7.935573759384614 0.0 
3.3466117272662483 6.090778391101413 20.86220952680455 1.9807802197384965 5.067653015419314 0.0 
5.8708441873049715 6.779191464326886 37.07829230299783 1.980881587903857 2.209902602141651 0.0 
4.785510097242585 3.030703326057113 0.32888282281113845 1.980943035119235 9.12006289265461 0.0 
5.5530729285347755 6.902256961636359 5.882361644636887 1.9810278171626021 2.5512691318558147 0.0 
6.979551555111842 5.076732252827699 31.754854592423065 1.9810381616641626 0.0767514523436077 0.0 
4.224596421189391 6.823437967791506 0.21957560375378904 1.9814582338308129 3.909164412219294 0.0 
4.165013571737925 3.202662009559714 3.4133562364408405 1.9818239546593894 8.477224691148349 0.0 
5.6402467983465545 3.1243791879426723 35.912785055429325 1.9818853128815517 9.991355395162484 0.0 
6.658391441294645 6.085186193085853 3.542360404017579 1.981890826010226 1.1483761913459656 0.0 
6.234787340897892 6.550269566391427 38.416250756333035 1.9819272200868399 1.780155360315625 0.0 
4.027856025446008 3.272719545982775 13.402252875666683 1.982059957239333 8.324172618953638 0.0 
3.0457112271502744 4.66838862621253 18.750583134699497 1.9822236783248506 6.560517321777608 0.0 
3.6923429487430575 6.489772518942877 15.54462075284028 1.982268680552514 4.5417447113208915 0.0 
6.7673582834618635 5.898089979850169 9.176455237996258 1.9824532564548767 0.932049248584315 0.0 
3.049916741988328 4.642044304289835 36.01384168098409 1.982664115090795 6.588652440119867 0.0 
6.968606913740681 5.237162313741266 20.81003852087248 1.9828411796930967 0.23773145581607125 0.0 
6.860872780975956 4.313975508670883 2.5595466595736767 1.9832995511723779 11.76094025498662 0.0 
3.2603009576208137 4.047520727383939 9.21653072815085 1.9833732686557715 7.224460574527962 0.0 
4.53910690488274 3.0708472318715065 31.72385126763816 1.983444692423914 8.881617954317209 0.0 
6.962338725492584 5.2904734410672205 12.289433456729554 1.9837207700513928 0.2915216092089814 0.0 
6.964988701904927 5.272027957541549 5.889512642731091 1.9837287637926273 0.27288781341633594 0.0 
4.900331440218981 6.9812261490460985 24.037952186379094 1.9837315532785327 3.215748777874886 0.0 
6.60295445500309 6.168763722469951 27.28227745540908 1.983802314691682 1.24981648234351 0.0 
5.070513297269185 6.982635292183343 4.518134109291065 1.9838888141482873 3.045757109712726 0.0 
3.268452394785516 5.968776065025639 14.42948083150209 1.9841331037232806 5.221238252372709 0.0 
6.917944651446483 4.491111128380099 17.651352530754473 1.9843083353326791 11.953137974353604 0.0 
5.480444995663429 6.925325402070951 22.99029435972163 1.9843652127866234 2.631766340822164 0.0 
5.160231598006421 6.977931097846881 2.4952591602015417 1.9844106411802624 2.956698722613096 0.0 
4.306194487759779 6.859223643404731 25.083692444995087 1.9844592827795875 3.8259604780161496 0.0 
3.302590588924688 6.028197556887462 27.398527182300192 1.9845374586528675 5.1537633404138425 0.0 
6.514596470292176 6.282839276951507 20.93956675731755 1.9848624834761168 1.3948435085710518 0.0 
6.732071838203862 4.030447962910744 27.2746469824191 1.9849695225173696 11.458983728718186 0.0 
6.797047054847695 5.8434608660106875 11.349542537161923 1.9851459265827964 0.8711535673185473 0.0 
6.385584661907383 3.5776891798887123 37.06831863514067 1.9856517631041546 10.890720679324607 0.0 
5.773440759777819 6.828827991685237 1.5408930465803579 1.9856541572129685 2.3245896434360045 0.0 
6.8963231387283574 4.41068396305367 30.631440986754196 1.9857831799767827 11.878715437076272 0.0 
4.1745951799284065 6.8061132008772125 20.852705841800482 1.985783979032046 3.9704981420018726 0.0 
3.063744195840192 5.441129327230173 26.185592521707772 1.9858704948926273 5.793956016696287 0.0 
6.000942420574341 6.71516930529264 21.83627469126398 1.9858729755760456 2.0703443721907657 0.0 
4.480589605330076 3.0832361099192536 5.850912670875523 1.9858929901705782 8.832777751615625 0.0 
5.399411574319542 6.945429424237358 12.291165905339163 1.9860073641325968 2.7174588216355655 0.0 
6.532290085854033 6.263503215532675 14.482800392513639 1.9860395975075553 1.3694795285700696 0.0 
3.321462709890578 6.061687902992067 31.66227277885031 1.9861189887938668 5.119445508847445 0.0 
6.714474347743264 3.9972788255154237 25.14447085077923 1.9861701948295927 11.42837420893932 0.0 
6.09178488196512 6.659217976853162 39.44490842269229 1.9862020348394283 1.9639755699604606 0.0 
4.58784659123147 3.056995247928512 2.470711101524728 1.9862371205200822 8.944751924801748 0.0 
6.278213999860737 3.4795187224877786 6.956015461781178 1.9863771909446564 10.749157078255665 0.0 
4.608263415978367 3.0524676822409402 35.993074266614954 1.9865396245675335 8.96702652107527 0.0 
6.453905075150146 6.353703629268989 34.00760094393992 1.9865430988134578 1.489359148776371 0.0 
6.75265279638586 4.064180270772317 29.525852538511202 1.986844329657194 11.509296660317762 0.0 
6.09695486303453 3.343180829651147 2.571640542124406 1.9870479950848112 10.52581615714089 0.0 
6.788100374771041 5.8670048617935855 24.164839537803786 1.9872091939778398 0.8971741193225586 0.0 
5.987260501844112 6.72482982395683 26.23072646482327 1.9873905555054927 2.0886127774790264 0.0 
4.672614301212487 6.960289882043883 1.2829921454244833 1.9874400160543741 3.450748159648498 0.0 
4.2777992745007305 6.851678896814694 22.873773584455115 1.9875333015626557 3.861129154515492 0.0 
6.669899751975187 3.922100581672648 7.90834667174925 1.9875694548058531 11.348999448299173 0.0 
3.684049257032826 6.489711491578027 17.862079673411316 1.9877038728280143 4.560471130012691 0.0 
6.323571876465151 3.5169473759858256 13.447098057060568 1.987784595413902 10.815586096556537 0.0 
4.506703713866384 3.074019802330122 23.00632084186552 1.9881501320900592 8.87043346778701 0.0 
5.021428401296198 3.0119583018990195 24.12700377084653 1.9881571793423027 9.390398799397655 0.0 
4.059266549556217 3.2483372613325088 9.248984047047195 1.9882911695272318 8.389676513996196 0.0 
4.589846991486809 3.0544540168588625 20.853715932552614 1.9883094987725214 8.95656877922141 0.0 
4.834091320277292 6.98151741174436 17.829931674561355 1.9884508902795155 3.289553137787399 0.0 
3.086245723201401 4.459052063988663 23.994019569854128 1.9887383189952013 6.795656542898378 0.0 
6.757640597006712 4.069518992927961 33.78645907392617 1.9887421584428464 11.527349062288906 0.0 
5.387252187136075 6.950789927713696 10.278025043674418 1.988855348815213 2.734344832145279 0.0 
3.2838854385271423 6.00554864247926 6.091757762428703 1.9890141428584827 5.19445337304945 0.0 
5.475496834421397 6.931396062795372 14.404435766681122 1.9890671157420081 2.6442729950844903 0.0 
4.150624228158716 3.201196129058994 39.340068112303484 1.9892547770216178 8.496577604292373 0.0 
5.065598193081002 3.0118254907885333 19.803744379915855 1.98925639423724 9.439759999198223 0.0 
3.9446212931416715 3.313347039797092 17.55207189030495 1.9896287148740062 8.263464120627841 0.0 
3.577917481563995 3.608158579559877 27.361499646850124 1.989859600296983 7.792776280397916 0.0 
6.831427682940057 5.778169611525762 13.486145231342022 1.9898932891342043 0.799507461083083 0.0 
6.536639609143508 6.2644106002671816 18.717799588404507 1.9899737321021937 1.3701252639440327 0.0 
3.289498796567158 6.016978827423714 33.819768555625416 1.9899900256969396 5.184302110416317 0.0 
6.292674403335376 3.486914958041149 32.81956245526166 1.9900837814620014 10.78504341449231 0.0 
6.974554127018373 5.249342156086479 14.495366138932908 1.9902350392170114 0.24999907624869344 0.0 
6.38685152416915 3.5724998031495776 39.194828755429796 1.9902547480406334 10.913253015298094 0.0 
6.907123285155602 4.430638569730677 26.145968209500182 1.99029939030816 11.92799210631352 0.0 
4.730617831659263 6.972004431589425 26.28648815154702 1.990318625453795 3.396596660053971 0.0 
3.6201270312959144 6.4343595571446475 28.3737824747908 1.9903358382274117 4.65108809295355 0.0 
3.1612606145308035 4.238049360794223 30.461257545084578 1.9903595916973733 7.034806956279223 0.0 
3.9980184847758293 3.2802407783430088 7.061600702755037 1.9903614589629652 8.329344727366648 0.0 
6.466471041231965 6.346056555428047 22.943986813067156 1.9905792034437584 1.4782253650515749 0.0 
3.3113706798835265 6.054070027139205 18.8356915692702 1.990611112917404 5.142857398167385 0.0 
6.605636496194109 3.8232737972758253 23.006230158452833 1.9906664999663188 11.248731787572689 0.0 
5.3100120224483165 3.033564624942792 28.401201087602686 1.9907223659613795 9.692337072335873 0.0 
3.8226375014124363 6.605604030484929 21.821771034933974 1.9910165131886284 4.387229923686373 0.0 
3.6629426525155004 6.475366889747638 13.41392080060433 1.9910875947144833 4.593550636191226 0.0 
4.74715863385277 6.975028521423907 15.613554863055043 1.9911470103618916 3.381212249793002 0.0 
3.1966627174533615 4.154749680354332 1.1629941943455009 1.9916007274260086 7.129731647698769 0.0 
6.890849417985719 4.374289417599796 4.8236635697658485 1.9916890456154384 11.877662205085933 0.0 
3.495232541031293 3.695101918934295 25.285364444197015 1.9917540278709376 7.680151918870024 0.0 
6.640423391677937 3.8702505606749504 18.896219114234874 1.9918139219363373 11.313677879011017 0.0 
6.857923422338387 5.718071693197793 28.368123677958714 1.9918600352046651 0.7346123072095363 0.0 
6.067173466103376 6.682076352215287 4.767094401755841 1.9920441916375713 2.0028784693162756 0.0 
5.831535085414573 3.189720933457001 18.793418906598554 1.992124719248071 10.245464629087252 0.0 
3.0399599264433137 5.356296410697162 15.503763612271335 1.992160691867949 5.900333631647449 0.0 
5.097326842715664 3.0100271792695033 17.785140977813796 1.9923514603500776 9.486100660399378 0.0 
5.340742288927616 6.96318019309488 38.196484712868056 1.9925314998824193 2.7874358312413143 0.0 
3.800482185482802 3.4087807980799933 38.28509423322211 1.9926920323780746 8.103157707012175 0.0 
4.144643530583116 6.799974925059667 18.829060066643976 1.9928734080761041 4.014467376060486 0.0 
5.273897939430998 3.0258524693939037 13.228162484953259 1.9930575891887072 9.666830105572613 0.0 
3.6389487005738674 6.456147520356856 32.66035106046202 1.9931949831140423 4.629099092473261 0.0 
3.220675520605208 4.101084250664208 7.160548408952373 1.9935007216897314 7.19532567974991 0.0 
6.562124279404575 6.238660464012426 12.292503234625357 1.9936178192955483 1.3365555597952774 0.0 
4.058825468885196 6.757706363676899 4.303241212137216 1.9938257594206759 4.1120758986061645 0.0 
5.943563833417604 6.756493040011527 9.04903380453485 1.9938857809169166 2.1490981421148607 0.0 
3.275758424263037 6.001513118529136 16.64249064556538 1.9940003856784587 5.2150657814725605 0.0 
6.792851896254005 4.1271885226652145 38.19939574036671 1.9940205106439892 11.625399352397448 0.0 
5.0700572846095096 3.007205744326635 11.166744053404479 1.9940253179364653 9.466694640238362 0.0 
6.983964658695674 4.7970625667579405 39.23628462498499 1.9943167674079048 12.327372510710326 0.0 
6.341314978303282 3.5240046665963813 30.478138164904102 1.9944142235879656 10.869595258484654 0.0 
3.9398121765282026 3.3106117878294263 34.74168310131986 1.9945001259610768 8.281070493553653 0.0 
6.372789727451875 6.447052515848169 2.4327609556124443 1.9946209212328811 1.619089397289276 0.0 
6.2828663975652805 3.472599839993249 34.89601748453131 1.9946672511451047 10.793127191665901 0.0 
6.273955365220742 3.4649858696711746 28.47472332549483 1.9948009055752596 10.782129866602242 0.0 
5.411445577560916 6.952001805248614 16.529584590665493 1.994893107659727 2.7191508233279684 0.0 
4.77490596783883 6.982156904037433 37.07117678515378 1.9948968182685136 3.359151023117132 0.0 
5.678885647039021 3.124072598734733 27.31924602850428 1.9949910617778337 10.09389601918117 0.0 
5.922119334212108 3.230734199322052 0.34095219857041315 1.9951454934355948 10.360476539302148 0.0 
3.1465786008674304 4.2613702778914 4.93509001431638 1.9951803801022017 7.024679935325317 0.0 
3.7351142705400973 6.54411943773137 6.856808459402586 1.9960562984473027 4.505325373351305 0.0 
4.757998273057693 3.018558485097266 38.119369908280895 1.996165151690386 9.164108177417011 0.0 
6.9694458127081 4.674205660211399 32.73818446021543 1.9962111013196395 12.215305979180494 0.0 
5.237592991047765 3.0179050588126435 30.50737678900957 1.9962842446093527 9.645425398116718 0.0 
3.4225652841068888 6.22369071283939 22.919005706510077 1.9964266186349435 4.954763280542689 0.0 
6.865075973931951 5.71237592529078 6.982091049411181 1.9964938886638512 0.7284299950162225 0.0 
3.351510961571024 6.126306348116661 25.10327375824704 1.9965174929432463 5.075560378528751 0.0 
3.601248038689249 3.575268565315336 29.452537580283085 1.9965887684371284 7.8589562799462716 0.0 
3.1025494566395464 4.378606481335052 21.979242198318232 1.9966092430762912 6.904422118542726 0.0 
3.403778184637133 3.80046002802895 10.29555211134192 1.9967023384061615 7.559604455082219 0.0 
5.80966966006939 3.1747634235448148 16.456940017557272 1.9967607564419751 10.24319401628951 0.0 
5.646240089924611 3.1104848527058007 20.91153882100589 1.9969711429262043 10.068591563832516 0.0 
3.2311968150471095 5.9270481803846025 12.383583706334782 1.9970185366825943 5.309759306669548 0.0 
6.7468593659388505 5.968263846365949 37.02694903266306 1.9972612549558117 1.0108731786409724 0.0 
3.449371540337757 3.740970952146127 33.77273812556933 1.9973989995126973 7.637207626870035 0.0 
6.673977306529257 3.909650956916388 31.595300740139635 1.997764014724537 11.398961766074342 0.0 
5.296334724803061 3.024281994822319 26.171358547482672 1.997817785762101 9.711926782121775 0.0 
3.0022545765444617 4.972635455690582 16.725187669561606 1.9979328305082753 6.304056502634618 0.0 
5.9586859428750705 3.247084292106985 10.176025356301107 1.997947000309151 10.415010436250245 0.0 
3.074201756949444 5.532125045654856 28.737227653386668 1.997962946891106 5.7381600203726775 0.0 
3.805760950757712 3.3981624776504322 22.02555647695968 1.9980216101789612 8.135437178628274 0.0 
6.8227129499258545 5.818637389292972 39.28077290419381 1.9981115266610683 0.8434653324517534 0.0 
3.2111608990888287 5.8908758267933035 8.158582338708968 1.9984006274301807 5.354776661460029 0.0 
3.5870288408615707 3.5863415116586133 2.54847733929482 1.998729050726148 7.849476642992318 0.0 
6.113782702026911 6.659908219109154 30.625639529172588 1.9989515259756783 1.9585851937273073 0.0 
6.955772644862296 5.413418311546538 2.4339826226238728 1.9989900796936568 0.4164236348833086 0.0 
6.994203489981798 5.142999510301872 33.83781658305525 1.9993239906033644 0.1431217149468047 0.0 
3.2153253473697836 4.09864739850728 37.1386967865366 1.9993749343128424 7.216290542311555 0.0 
3.6921958090806886 6.5123777578633595 9.129046553080869 1.9994094838891596 4.566215758020615 0.0 
3.047879723826852 5.4323319772364504 17.651498820997894 1.999421043999364 5.845592634680907 0.0 
6.7039708977210015 3.953810698313645 0.21898224883402406 1.9995071580874864 11.462286852568905 0.0 
6.955466774458146 4.5812263078073725 6.8719331032690505 1.9998054183550937 12.143251674387665 0.0 
6.734236601821885 4.004103979579093 35.79295013282433 1.9998463627461278 11.522935227985071 0.0 
6.991057124431878 5.187827415278432 29.296285949055886 1.9998969000128766 0.18810464512803549 0.0 
