254

4.7818445781744385 5.690465857067681 16.742670224952178 1.2233745636926634 1.637272981781166 0.5198719936903465 
3.6989151410024936 5.484065736171611 31.54103533529984 1.268905955704374 2.8601769331098215 0.5093331187774457 
5.35095438059874 5.447677242524559 9.443959386089503 1.2736622448118418 1.0687582908574047 0.24220142194668465 
5.780369653141158 4.575749701903437 32.79431403598483 1.2826084616995428 0.0757938067056303 0.6292504081276898 
3.6465967931018506 3.5299388235963676 8.25306857107877 1.2920200151350771 5.156296520503417 0.4881438978095861 
5.605812114413851 3.82628970184686 21.047207696544703 1.2948768274326459 7.427408126296823 0.4790782354250701 
5.416359448955061 5.423334608743685 30.49362397185277 1.3008694936053629 1.0266327057006635 0.36721931308480193 
4.140655837625478 5.753452692865391 30.480250314331727 1.3039447382017948 2.4122870612882554 0.45827004009966416 
5.671938234253969 5.085590269127584 14.506149010500543 1.3100973964569302 0.6070846734697382 0.37846238514871455 
5.7114843390754215 5.053777763453306 10.433956772910733 1.3320525947275357 0.5711151866472024 0.2416653824343136 
4.219463010401374 5.802769500757535 5.197864451623978 1.3326324979667477 2.3759457083045152 0.48280229768576877 
5.828976956144364 4.610163343368004 34.8011295237053 1.3335350434783328 0.11028902977253896 0.7787192675384444 
3.7100308947729275 5.5794271439267735 23.08994903165899 1.3376150964530766 2.9461963165070006 0.5826596078431543 
4.847484011470445 3.204415420583281 16.688487978788146 1.3413741240422032 6.672569382404242 0.27003595775778977 
5.785668728223984 4.904979270407119 6.304916670714405 1.3479437258997717 0.4113335346655873 0.6638855010857592 
3.218913504374198 4.079804426424583 38.933450461916095 1.3482384541790702 4.662929870028338 0.666623705399964 
3.153831232498641 4.4117685029574645 14.801614132611611 1.3490571328400038 4.326482497442084 0.6355530149598755 
5.701625966010618 5.114192537113494 29.34385370494838 1.3494952518763679 0.637657440737069 0.36439634010358907 
3.150050658838494 4.553024419875008 10.598354333423394 1.3509903081833952 4.191223184368364 0.5430144506617938 
3.1479883021688924 4.462707230058198 16.802716273753454 1.3525259264657694 4.286383011256485 0.6860884055912122 
3.699678702494017 3.408126188859047 31.560903549545806 1.3537734665360865 5.523219986413715 0.5795346963933597 
3.585368770128971 3.500681094498786 25.20815781041798 1.354691315963727 5.379763106735733 0.4645127588673428 
5.450364252102512 5.466480048762305 3.1239860315884656 1.3554615067680653 1.0759727013190679 0.4401400557551328 
3.2514672963474336 3.9552586453366843 28.312418207347456 1.3621956744794086 4.839881008307006 0.7489774753173679 
4.715004527595785 3.1535182659578407 14.636489659057837 1.3635395142774072 6.641434183233994 0.4325096782866522 
5.747165246095526 5.0630641964485 25.248518656140924 1.3683794942890328 0.5803024277661555 0.32195793822433877 
4.210185745846355 5.839347719904322 38.94763735585624 1.3703447072629342 2.444551836475217 0.4727013843716418 
5.870537428923663 4.422439715393935 28.466808096285355 1.3727302873575915 8.547517161853364 0.5377450955813029 
3.7574001807657442 5.6570070965056924 18.86917370858091 1.3748163196919367 2.9440391293474946 0.5939623788737595 
3.2562566154682635 3.914136324683618 21.98334629149442 1.3748213893526966 4.924351930881985 0.7079153051966245 
5.751993705462501 5.077733697088421 8.358001344175271 1.3788634679580083 0.5961318166039931 0.3190485685589471 
5.729990410757457 5.136060835902509 37.764615950699316 1.3847201152306188 0.6608644247572979 0.3597774653453837 
5.388091781157214 3.432144701523918 3.0499699570635173 1.3888923465274163 7.50854436447897 0.5968658949814587 
3.116528420538957 4.634608973085716 25.26862606780356 1.3900047434493261 4.23200842813875 0.6248156461249609 
4.746950272306935 5.870575468308439 14.613943108445866 1.3926455224935614 1.9392993520165538 0.5106960918857162 
5.691636027201922 5.221384229713032 35.755811240652896 1.3929794069562702 0.7582834448984448 0.3636995133888014 
3.680003088592417 3.3714573653083404 18.93357349602958 1.3949922627150195 5.697195958259479 0.49851436893733114 
5.899856868833753 4.398562346225252 38.995398312738814 1.403527288948943 8.7170958692245 0.5863524285359234 
4.094303438538492 3.1550900678079863 11.67656431067374 1.4047677479535248 6.2082531447365215 0.691148268712142 
5.433436576875693 3.449869038249079 17.90628870691686 1.4050191742027325 7.641933454121604 0.5783209993910056 
4.341261404798646 5.899569270948112 1.0036054183982799 1.4085425395736988 2.37160999081002 0.7435376667186374 
3.548073860460538 3.457243107527371 35.81591898580404 1.4119154762016308 5.608828321976743 0.6350924467978449 
5.359357232996397 3.379327606574729 30.413220829534374 1.4122327950053941 7.578846267448434 0.6089469343073094 
5.3094132564975185 3.3413138821182695 36.762397386424354 1.4134013370468246 7.52233209905719 0.7248892077782103 
3.362282443031562 5.3421340772404005 32.648003110782945 1.4154826185735279 3.5449284927581033 0.7641535838443677 
4.834606067661681 5.877273372969237 29.410934520463094 1.4173366446988054 1.8885523196229812 0.43465316122883657 
5.531663720661007 3.5280058726668653 20.036934794543086 1.41742816964325 7.834917375902707 0.6745939984018186 
5.341896631360306 3.3591365864599343 9.434025619006249 1.4178713856517884 7.582962448735188 0.6130712598894671 
3.5741713075738337 3.425676182232225 2.0036637576802185 1.418213817850704 5.674410717284605 0.6044946369838192 
4.7762279772149006 3.1088092501977584 35.68999494936175 1.4183488984490227 6.961816357080158 0.516601342630892 
5.769163136240777 3.8659138270591065 18.84884788374559 1.418746045318666 8.256889189800072 0.6464471850306491 
4.678187035942174 3.0920881301661822 10.582454697943902 1.419142858558226 6.866211750139906 0.5510841421045586 
3.0815508974369896 4.444514287556579 18.882165757363374 1.4195339097207798 4.515097153117663 0.5500294544791464 
5.395631804837033 3.3966058758999242 28.314061835446104 1.4211386008881093 7.665944462009351 0.6421574959198587 
4.0351918139659295 3.156017998713475 38.953439050392845 1.4220879964286377 6.22792253068995 0.6722691499480007 
5.798458446957017 3.9191896807949043 23.115820549739567 1.4224397932317396 8.339156621694169 0.6354810220390037 
3.299259055987096 5.262899300000216 21.98454039684804 1.4226011937889755 3.664023424964224 0.6024896282679099 
5.775059555231821 5.132156680374001 31.501511560148458 1.4231651126729628 0.6550412482973735 0.3998234488773031 
3.430380995932273 3.559614614759626 39.93642671993274 1.424222414736028 5.50146355831636 0.6661063405128965 
3.2107201148248725 3.8938544439076157 5.116972354918062 1.4246596286438873 5.101806475199222 0.6075187935837886 
5.862284694503477 4.920597958077474 12.449215974150299 1.425735680698697 0.4269506263240519 0.5693497865317416 
4.249780067898738 5.9036584657773 32.596998820241694 1.4257864857576126 2.491142656704202 0.6601458934265415 
3.074907706898572 4.593105712753514 27.271073464356412 1.4281304974001596 4.393432485657911 0.7028849763740285 
4.82638382202102 3.1095805783233956 27.371143839156012 1.4282130679462892 7.059589111647931 0.693980127412598 
3.071973285715579 4.532855976435512 20.994008004948135 1.4284046387132356 4.454606644936803 0.6229747954792333 
4.834076266357229 3.1108034175157666 20.84718704155246 1.4288016295235177 7.0702667177007035 0.6792166430756812 
5.923409163121313 4.369140833457694 5.38839137256727 1.4294116856685695 8.850215854410973 0.6017337506810756 
5.918929609616804 4.323239688700516 9.54569790423318 1.4298970049265747 8.807094229048484 0.5914107659057738 
5.453804216254299 5.565942057235036 34.58652345292886 1.4303758080752558 1.2027486292081289 0.4978031189466463 
3.5312626859564578 3.4470557352871207 23.04415451046073 1.4307842633367343 5.6782371694309735 0.6753694713129801 
3.593240364938513 3.3926490840677506 12.638300321029341 1.4312369079900198 5.76252685747491 0.6103919203676508 
4.6979689201776935 3.0824446778936245 33.63733561131956 1.4313122596374375 6.9435057423825235 0.5687023530048996 
5.770540525744385 3.833970331672088 14.745101012746304 1.4345273600220418 8.32077231526684 0.7085440446410366 
4.227711686352564 5.908607886544397 7.297782021349974 1.4346836249794026 2.52754580544703 0.7182446815125617 
3.0649411377222098 4.502506039103831 2.161732193751739 1.4350610504205095 4.505871213076379 0.5801945810054508 
3.186915271929534 5.079680702615859 5.048196155528778 1.435347073037426 3.912554053062671 0.6350482664687022 
3.5898548436478492 5.610177027763687 8.411699305372224 1.4355686115980293 3.24080510332708 0.6230878227794598 
4.9320255352493145 5.869290193851331 25.287296095017496 1.4358278789899834 1.8165679149422562 0.4365695257920096 
5.937017224625644 4.481986450065656 15.598617897264539 1.437130123493356 9.011740854783312 0.5630529310479884 
3.2943473327272015 5.282162187824706 24.199751911159957 1.4371416221669817 3.687848508269667 0.6281799877167735 
5.420913336649006 5.6051203482146414 28.327318440644078 1.4385313196646274 1.2602525284298434 0.45567657674917866 
3.5753093268721097 5.603996245813142 35.778503464621 1.4400904665121639 3.266180665373902 0.7013248825363307 
3.147386493714488 4.005604150743506 11.587185503241685 1.4401356023472365 5.0289806538439255 0.5714196820609633 
4.932702075007915 5.873910217960073 37.88530912476543 1.4404375629409465 1.8231448823353862 0.44363292232423834 
4.0484254382066345 3.131902641161406 9.507030197301987 1.4406977365568412 6.329811975315442 0.6422058054272837 
4.183240023741282 3.0940603879633795 32.55350536779714 1.4411811389457962 6.472038685080649 0.5033857255471452 
3.728221808852683 5.717409964552322 2.1099596887742855 1.4414328281685227 3.0786214524313644 0.4935036095284072 
3.280526589436227 5.269177215651803 19.889776368263334 1.441786734628219 3.718184154509843 0.6449895351909909 
4.156529647303346 3.098317551757055 3.2020770125353124 1.4431512633448724 6.453891609759014 0.46870767555492143 
5.5724957337621515 5.465880884680868 7.321674133311248 1.4433201246881848 1.058158570945193 0.6587144928147526 
4.844180967484698 3.0977320952539342 18.762921344552858 1.443889128381964 7.151693888401021 0.6213481644266924 
3.7186019699610053 5.714527326397779 27.186051591362585 1.4441812586776492 3.094159829087803 0.5567295589163545 
3.693779641497069 5.6985638677220685 6.397272262544664 1.444488356295568 3.12433220945808 0.5205647689861286 
3.220818154637568 5.171656941476993 11.461464516564476 1.4447938401512737 3.840395901553764 0.6006982962491827 
4.941293463998754 5.877030646868462 23.073942698759225 1.446012905814811 1.822944271686195 0.5212121929342105 
4.929938073651115 5.883899161507597 27.30931783994535 1.4491458299274989 1.8398038336092588 0.37822301125225 
3.652098533180544 5.675905701587092 25.16685881827275 1.4497210478087208 3.182889750981679 0.6182804076778776 
3.1977217400304436 3.858808202748498 17.81397564376981 1.4515700421446933 5.224361539325581 0.5699435368800906 
3.6377395036033917 3.3317736119737225 20.95062541465238 1.4519800471518354 5.919071548271458 0.6508495213074597 
4.107619615789771 3.101585115307115 26.231916107797204 1.4524209292225105 6.447055136655394 0.48961774204810793 
4.089470051365509 3.105342421340751 0.98658795379027 1.4538241298167787 6.434793452541262 0.5202620861984752 
3.047953360630502 4.427117677406796 29.308200582168332 1.4538745736310377 4.640394562332827 0.7191158153875176 
3.573906999205935 3.3791289545576007 37.88284648958015 1.4539601599187275 5.847623885660499 0.6199013566857087 
3.0479360263464406 4.594343556969783 35.76837541038335 1.4551255926291304 4.4770020921154865 0.6218129947323485 
5.866653570256223 5.0003036244457455 4.304333156101009 1.4553507129649645 0.5107218098818933 0.43644692184793765 
5.783685954697964 3.813929755765609 25.252003331024383 1.4555212160297302 8.430897645613335 0.6964741228143814 
5.801955243310041 5.151496381872411 23.148699499188922 1.4558622844126932 0.675471060454294 0.37003039236152746 
4.243889133977867 3.0659875689351024 24.181301856882072 1.456703273883622 6.607103448328878 0.5851639947154988 
4.255178371285026 5.936390887439662 26.289466402833277 1.4571054908298002 2.5348043691460838 0.7307337352991681 
3.668137590543097 5.698029952069005 33.553256237799516 1.4585166554832023 3.1762497570771293 0.4846961566776247 
3.196544898681272 3.845500660926483 36.71885958099111 1.4585487945219677 5.260898003082673 0.5862024852476282 
4.889642962734165 5.905821191864632 4.1792783169332495 1.4588196810791776 1.8970774413675686 0.5610430168803954 
5.497587397584668 5.564733658834975 32.50903625631054 1.4590539332306618 1.1934262397775868 0.4955129766369717 
4.306790492885804 5.946276015491488 11.615689595763225 1.459124472629134 2.4857659822478615 0.6924680004887803 
4.945099602512576 5.889915262410654 8.308843633294966 1.4594444466436303 1.8401845587970538 0.48698260282695716 
4.215568145531743 3.0682712532084953 30.41418881162605 1.4597084243866734 6.5924506608665805 0.630833268438434 
5.269749052768962 3.258370498980784 24.05681916978786 1.460875566925515 7.69494157488546 0.6549474683851143 
3.912605798616262 5.8383071843964816 13.617412895333924 1.4615396223251944 2.9002620525372915 0.7735608479990994 
3.6667450005560784 5.701069128295523 12.60253565211356 1.4618074240620265 3.182826638387713 0.5028797529717439 
3.6940024917754366 3.2785580604511555 16.64286334751452 1.463404385312907 6.0425487557866875 0.6962870483672542 
4.803809919163197 3.0673080133023296 0.03218604773758216 1.464550031828775 7.207561602705475 0.6979686491493555 
4.687645666271882 3.0473951410702966 25.318698488097574 1.46467463016767 7.090279394837383 0.6320357308373563 
4.109263360572036 3.088258393014259 34.654331629709084 1.4648172194120805 6.507263139634187 0.5903456262719903 
5.446763324545534 5.6184485005349 19.941240591965816 1.465362699488859 1.272432226838065 0.40540359848418794 
5.956197460648006 4.332350603769689 7.483651436547165 1.4658162792294587 9.041978237028832 0.7683272293987529 
3.206243762131395 3.810784008001394 19.88065609550057 1.4658867236763373 5.322746194560169 0.6559412824839588 
5.964673760261066 4.4376019748815825 26.344301223551362 1.466002297929976 9.14874721766986 0.7723868412691121 
3.516236233552469 3.413072395764119 27.32771363022688 1.4660159497853307 5.830009158161774 0.5526297017438307 
5.955403027755393 4.32281517668414 22.04072000935288 1.4661488446992823 9.034465903637923 0.8267580000190557 
5.273443286537825 3.2538737291791957 34.724350130673756 1.4666441969067343 7.726097381095535 0.6080928616681711 
4.144410711258464 3.076211668296379 5.2386845235399875 1.4675206832488221 6.556364152482839 0.6332774594936859 
3.1574785168686343 3.9069983452229646 34.681269714188176 1.4676562592233726 5.2212298187916275 0.40729109405670616 
4.151181843824263 5.925630167485006 9.45703837012097 1.4676837126987439 2.6576205621379856 0.6765632210951212 
5.0484020302087576 5.86212199145225 2.095245448628525 1.4683736262732758 1.7444912723556136 0.5418194917385976 
3.53515128062594 3.3928707303714623 29.566835216734148 1.4685599310024717 5.867707768619558 0.6507574518516196 
3.278189653474959 5.315417637605945 0.9953357594230994 1.4689201634515416 3.7502898672553613 0.5495211626098413 
5.4343693712437 5.634658739847308 24.1916461373892 1.4698627751699227 1.2962735565314016 0.4311036271963419 
5.676780175068236 3.6186794882515754 8.286166600272622 1.4702167951911493 8.292570123763715 0.8055056188905473 
3.0992821581812615 4.05290030737419 3.0847895107888093 1.470343023765352 5.073512150324381 0.7035148040835009 
4.18315450553821 5.935912390484606 22.106318978244282 1.4704541681085979 2.629134007584792 0.7019535873567937 
5.761923594133126 3.7449504287252884 4.264668972134032 1.4705614616574134 8.446894746342279 0.7749425934557229 
5.400810451600085 5.6631533482796295 15.728084110648076 1.4711849582313106 1.3414655167049592 0.5173151701849286 
3.159322028502272 5.10734136918814 34.69456124631057 1.4718291211912424 3.9978380557751 0.6313750465396067 
5.4741630101594705 5.603745005441104 13.663683010507299 1.4721571272792684 1.247917075121193 0.43218688313510706 
4.15635011895735 5.932289809916062 3.122102266494224 1.4729390144639447 2.660533664190263 0.6894363665415156 
5.774641949723627 3.761697213846384 10.557740187191342 1.4730251539052006 8.481947842801477 0.8187295601872975 
5.758721199299842 5.265602826736428 18.97909709502889 1.4732707646164853 0.805076597895237 0.6780345600075773 
5.96409886535209 4.333187269273433 11.607786540367005 1.4735711637575337 9.091549601913101 0.7289442087317507 
3.774991148598412 5.783520045264775 39.982733558889194 1.4741307747981998 3.0735281304012325 0.5998418855470526 
5.825410676201852 5.145466457613392 27.33307275525594 1.4742253587880756 0.6681018581517204 0.4312346487230269 
5.3387802223725895 3.2874425895469868 13.629291791691202 1.4743974142299379 7.840186385136674 0.7011076715033356 
4.997211667825537 5.888406182812424 21.071378654458755 1.4747512234589326 1.8093852953479637 0.5150031707419598 
5.461610027961342 5.618255337363329 36.85741489833798 1.474852143578259 1.2692155164973968 0.3555762746004668 
5.744601817522318 3.708696856640569 39.89732592304206 1.47485400934139 8.43154240926326 0.696204207346524 
5.80572727807564 5.186692113599542 16.96755236942775 1.475286339525526 0.7142722129761676 0.46972712266727423 
4.241454620845376 3.0475291409045937 17.814905963994292 1.4753024468235512 6.692311564390472 0.661409820666905 
5.838508975846225 3.878289490388922 16.782711132527737 1.4758489882714234 8.631289337421283 0.5589298579869105 
5.975004968272844 4.554857079074478 17.88353026304985 1.4760247137342097 0.054869715656263196 0.8034765805323467 
3.177909570114351 5.156819338234672 28.52616790047172 1.4762570060373132 3.957114877020617 0.5616617818923719 
4.1519227848143805 5.934913365727465 34.63544448165849 1.4765277223522397 2.6707089155807022 0.6587218048618615 
3.0234614443480856 4.489012136826811 8.434110864760598 1.4765794389276041 4.64979908236103 0.7335917039605614 
4.18597781784239 5.9429614892513944 20.07450448788844 1.476735518076826 2.636089000094625 0.7252852565429424 
4.942377657985043 5.909011168276355 31.52917618217286 1.4768244528757752 1.8705148245629815 0.5323855688849407 
3.2986620286069366 5.3611358659170305 38.95936710882718 1.478096039193486 3.724315783521053 0.6690234553093128 
5.496583091429836 3.408382264589007 32.688068650563025 1.4781093120563429 8.059107560935812 0.6881115727457671 
5.978132264121487 4.5019688159239015 30.500685489951053 1.4781335753148488 0.001968816506053628 0.7702993800685718 
3.576474287851167 5.655962561353401 10.53697144563516 1.479577366767526 3.3214744555027043 0.624619093790925 
3.020717578219073 4.544661558042425 0.08190658317234423 1.4799564649532169 4.604752018313146 0.7168491317424098 
5.980160766050484 4.492443947131496 19.898528828929535 1.480180052321376 9.292689471039662 0.9246719893606129 
5.3112830656927335 3.2613538730197797 5.192684057935928 1.4806837746672659 7.836154748643796 0.6697441601635467 
3.1365969510016534 3.9223167153943512 24.073774753291353 1.4807382791468444 5.245319196528712 0.5629341256224498 
3.1736147678111895 5.158561314933158 13.514794233853081 1.4808783845053086 3.969853298515279 0.5078199354817071 
3.019037388341707 4.46105983842557 31.621652522984796 1.4814744659673327 4.693133945609512 0.6489402700853671 
3.430344732372075 3.474425940223015 33.57179065679613 1.4818787209659283 5.788151709199699 0.5773415060442355 
4.181435191710713 3.0526404568879633 13.72487736798189 1.482003098552049 6.662704541847665 0.5664306889318546 
5.021074337690983 5.888156705547863 0.04639297659652186 1.4827331198019393 1.7966278368232143 0.5601465665264262 
3.0167441559281807 4.535289683924137 4.179594082654724 1.4836755914837547 4.6258113262742935 0.7176748312259056 
4.209203659441546 3.045022372087592 28.29339983504667 1.483752812771658 6.6993295043500645 0.6665855916204425 
3.220141600290905 5.250722074442941 36.949551125141156 1.4837860884783354 3.874327627393974 0.6422878756540152 
3.485111443510304 3.4171067839980385 6.145822902094505 1.4841349330019864 5.876279226367394 0.562262159567094 
4.706063773175939 3.030140924073158 4.095584520954095 1.4842331291613247 7.201015411069729 0.7473795466029431 
4.2928208084249215 5.970108511552513 24.196382859712713 1.4846353940145878 2.5399174077228537 0.6656742115924809 
4.019307420464613 3.0943257413458927 36.857924315230356 1.4855926350999324 6.511188202684249 0.48477085305214185 
4.767447372904889 3.038631477659224 23.05145433778233 1.485639948090449 7.26982673892358 0.7501880311161115 
5.3980071876112445 3.316233237004342 26.16350518095131 1.4858400513429015 7.966141738185963 0.680726801812784 
3.1022685063703186 3.995746549786264 13.654306708410758 1.4859087691835984 5.182590996062755 0.5054094864017049 
5.416130075932747 3.3300180162231765 1.0500469590583137 1.4859852483759364 7.9896907654441565 0.6169328902180153 
3.214965114066427 5.247686884873916 9.402236814703876 1.4867247007697058 3.8872377620470324 0.5778220855594106 
4.684669178764539 3.0247304707857676 31.597990642618186 1.4867827310718769 7.191445892640631 0.7282836247745752 
4.121657326316532 5.938121973836672 36.828623893035555 1.487056821497364 2.718411538814965 0.7659262256796017 
5.854829387540198 5.11613074879876 33.76041824328624 1.4883479999509073 0.6352425659713967 0.3395978481013088 
3.5860536623126027 3.3251949485279635 4.103340705267925 1.4884437567931228 6.030035345632066 0.6559815894203624 
5.403410064776592 3.3169904655833857 22.048796837843256 1.4885097593433045 7.985217161206793 0.5985245819985804 
5.037220867652788 5.888236947727588 12.512434344077484 1.488559062878471 1.788598453013142 0.5986057167250012 
3.0174250027576814 4.6334178875648915 6.28825251927714 1.4885660734983637 4.542871074350981 0.6688605140068362 
4.748354522694225 5.968040226540848 35.853623340188605 1.4888996190760408 2.0892371805431162 0.8237710931167063 
5.45491945014018 5.6424361552550835 22.0832104243973 1.4889699543946608 1.3022044771320305 0.40894760447615475 
3.6617133016480725 5.730575598305284 29.275814515874018 1.4889730997496848 3.2292899517970017 0.4910347690408932 
4.700857753827206 3.0245822191783143 6.253379293443281 1.4890270196464852 7.218346444200001 0.7463271111256085 
4.73850362079092 3.0301750283553286 38.0177426567067 1.489049839461607 7.256517432306122 0.713858510453564 
4.0884220856412705 5.931427980835388 17.94907378255158 1.489423527377745 2.7565855783791022 0.8029756334200314 
5.437640594075896 5.65739861932892 11.443186329005906 1.4895440401960238 1.3255607913290515 0.5139257217620494 
4.503421496631834 3.010357562206626 8.493112182581402 1.489646367133551 7.023214624790436 0.5480329443081869 
3.1714167230920953 5.1737632027404485 3.0330175242833946 1.4896611618238595 3.9807590561190764 0.5372450522635055 
3.066694607633279 4.908409130967576 17.7557410416466 1.4903564560350024 4.268391314241365 0.7964156722240467 
5.98836248174605 4.419911903004972 1.018432951503982 1.4905156759824922 9.285059511156891 0.9619521415427057 
3.657872219069331 5.729915119856046 4.118583447728405 1.4905939760597877 3.236351662552968 0.4580290822140604 
3.1848269316779305 5.20290025540576 26.280031763701047 1.4912239834073113 3.952881060825611 0.5284051097409495 
5.440269400063362 3.3423182821372928 15.644757873194088 1.491419962508568 8.045502218919113 0.6497019817825067 
5.802817150579597 3.773629650455307 12.640966462275472 1.4916254263527482 8.613499952579476 0.6587530725116318 
5.76961366281759 3.716496867053632 6.287769667074116 1.4919101890361475 8.549052782555517 0.7350254382311344 
5.820781926885856 3.806035850277345 1.923949271222149 1.4919956901709206 8.652694366064678 0.6893256020335541 
5.886892256763692 5.050847997254769 39.897872698489884 1.4922813568327786 0.5641932415450164 0.5430634488259811 
5.5638159246539365 5.546818606472931 26.285156156404327 1.492492384035927 1.1601817284514686 0.5304239270822114 
5.823959402808042 3.81058996769612 29.368143778114444 1.4927004699285988 8.662291118222006 0.6857647398810026 
4.1359022261334895 5.947952647033575 15.685733416201721 1.4930284849881752 2.713050407288165 0.6922049341945908 
3.2670264665045723 5.342117619813992 7.2854835867523775 1.4931127954382366 3.79604407399132 0.54247837986763 
5.797754998387041 3.7615816647638223 31.556577621546765 1.493127480710041 8.609185451955382 0.6409207332740932 
4.272662604816538 3.023965434710483 15.80329335801585 1.4934390945660336 6.809441269965195 0.7431406627087455 
4.573387588476613 3.00814650924002 12.623673132354554 1.493657449362186 7.112112052119521 0.665170274031239 
3.006763149612678 4.540027138593262 33.649803582828014 1.4937732301720401 4.6527950758129055 0.7462933925798628 
4.088440144213643 3.063979450776655 22.139965428399208 1.4938328329122394 6.6225687399471855 0.6148653702282152 
3.085469396394619 4.019031498095385 0.9789906658479666 1.494064097808581 5.183429731287616 0.606990811245623 
5.778211533894718 3.7249686384569056 33.6053584051583 1.4948238480693403 8.577473756009315 0.6961565476505412 
3.6642296840018984 5.739610370948613 37.85187843999003 1.4950404318502297 3.235282541775307 0.4127211005553022 
5.5169589690487095 5.595925087199808 17.863284619644467 1.495077704162068 1.2300817494828369 0.4163320598663876 
5.662005906822897 5.441088871967745 38.857509617291086 1.495294617268725 1.0179041645266977 0.5507622240684612 
4.852889169037748 5.953126793536212 10.43717974804381 1.4953622449817914 1.9926599887717664 0.6334672500836117 
5.780005298510882 3.726703717759145 37.80197258205237 1.4954600310083381 8.583537926212761 0.6541113589090133 
3.0051042034221416 4.547428801406765 23.05115683420081 1.4956479979691175 4.651280008698398 0.6902567815991535 
3.1514278001113682 3.85315442508538 32.58189220492322 1.495679168839057 5.367738106062287 0.5952025778881878 
4.819479391768518 5.961658484810936 18.776579959703888 1.496165969397976 2.0282135801786403 0.6704343059882781 
3.6647917956793323 5.741398767853118 14.695900216126432 1.4962097598237336 3.2363471400850408 0.3969473419273713 
3.1031691473658087 3.963751494387335 7.250622724918301 1.4962282214430327 5.248987573971627 0.592286456007108 
3.1015595283287194 3.967662917158721 9.558658863466732 1.496335030190819 5.2451338019627975 0.5831387918907031 
3.6223331354461807 3.2877659572522457 10.524010581683683 1.496599645707661 6.114704272989647 0.5803341100109621 
3.0843635761163286 4.013820726230156 15.810908818887938 1.496795500684554 5.197483329868332 0.5352431021502997 
4.158585816328876 3.0425135836881925 19.836713932064477 1.4969403122854468 6.709719386439831 0.5830612665760669 
3.1539167549785896 5.155038978182246 15.703482488367577 1.4970023932731071 4.024992505907031 0.579324762659206 
4.907050337499249 3.0593743877636346 2.0744509810950618 1.4970277659047118 7.466817812225038 0.6746348854234493 
3.1051888198973083 3.9561815423970224 26.16656876291551 1.4970760645234926 5.259752883067186 0.5755196078014698 
5.539255905755065 5.577733931371171 5.236261074377779 1.4971851136300893 1.2030960091571563 0.3900117181962338 
4.002699581522779 3.087755867343871 7.319682391216723 1.4972445346166001 6.5486684043240455 0.5365090115841332 
5.985727318156321 4.313019632126084 3.225826917109238 1.4974469345810681 9.22126688326856 0.8109041255608435 
3.4826513230850304 5.598805129581651 20.863184443461932 1.497454855151095 3.470682256742279 0.6623465948209094 
5.980919379892024 4.274966077445935 24.06791293798581 1.4979193823566903 9.185815939379896 0.7213234126455794 
5.8277632537087145 3.806257416497557 35.649921096384006 1.4980767770924812 8.691404412374899 0.7349716137135491 
5.423434484961405 3.3201957725740954 38.89957456519387 1.4982220339682537 8.055179778268812 0.59669041763455 
3.003989308794388 4.587549750670628 37.92254291878507 1.4985703010015858 4.620297817764757 0.6197577491215569 
5.489647545957334 5.625369147187423 1.0443718543276717 1.4986186915492286 1.2730477485516118 0.4053876442490347 
3.6169953817155704 5.711138741712522 16.838609054022463 1.4988509624337643 3.2986216732569797 0.6422158868903454 
4.7804376055496345 3.027580095024926 29.574050913338212 1.4988881303063328 7.345443971542194 0.7168432659464977 
3.0864401618678254 3.9987980221733617 30.31538683460215 1.4997849307676066 5.222746740007928 0.5767491288565578 
5.997221220299403 4.409214978945255 36.976317561312044 1.499971100575856 9.333755840173717 0.0 
