434

5.997168364910372 4.041236582073793 20.750860820828485 1.9587654646647281 9.22763315476827 0.0 
4.8549083281904775 7.603721505709586 39.76520940405241 1.9705729128156984 4.317270759140648 0.0 
4.040242432822172 5.788998407797157 28.78049705277172 1.971083812023958 6.4037490994557835 0.0 
4.083228813041888 5.513511244581373 12.766542803694946 1.9775447130979291 6.704174337609075 0.0 
7.899122650073826 6.551574201580074 3.5098447881472445 1.9775997926456554 0.5589880625396688 0.0 
7.976088293850573 5.887156577458642 14.820428487836978 1.9793076019416782 12.323451801273531 0.0 
4.389359518097301 7.151203938698098 36.92504283746 1.979755861316686 4.991036501779465 0.0 
4.024671586334582 5.828339177637169 4.216205084994371 1.9827732547541133 6.400941884928837 0.0 
6.316635399294395 7.959088620599003 2.9512363716304364 1.9845115770503394 2.799269023946348 0.0 
7.03728148313324 4.304510348048108 34.79202846095653 1.987621200110079 10.457733013137595 0.0 
6.889945896451044 4.222020453132917 9.058062414809207 1.9882693398248978 10.292210034938172 0.0 
7.9849117641872045 6.1228898203862165 34.848902819184026 1.9887123018584933 0.12296816332622384 0.0 
6.770719465651595 7.8343611751868405 39.02586868312493 1.9896958098581603 2.3339828002477994 0.0 
5.659855711415958 4.039053735152059 25.395954430518234 1.990228225776491 9.0369072255404 0.0 
4.594795122053188 4.590220299279318 22.340162048776136 1.9904973131279569 7.819899559521373 0.0 
7.319393084688244 4.5081508921585804 39.04804591968169 1.9915852661863092 10.827290722359185 0.0 
4.2577220939046825 6.965100972622945 1.8825010568693656 1.9917209115299368 5.249652000730322 0.0 
7.931413246140366 5.508778772802799 12.269389634749274 1.9929012573169782 12.025431519799799 0.0 
7.970326267335727 5.692890199536544 19.593524698175507 1.9941168544731376 12.221068749114785 0.0 
6.917678033515196 4.228663339927701 14.212677212495876 1.994935221131855 10.354489030104379 0.0 
7.974496076191166 5.714653387234817 30.90402470704008 1.9950081313896635 12.248677177823154 0.0 
7.841997293977849 6.772162135585969 9.578496302586807 1.9972952697722026 0.792818989806154 0.0 
7.74549191947745 5.026165044239326 33.05131690757891 1.9987737645922978 11.54149166127799 0.0 
7.146994843212758 7.637439667763092 5.631725545358947 1.9992012994995685 1.918729118519602 0.0 
4.550671061546531 7.3837642954076035 34.27240368463706 2.0038358208904157 4.767792261209204 0.0 
7.99565612494175 5.788373267693045 6.05376194657525 2.0068455951678095 12.39736182680559 0.0 
4.392746273665406 4.795555278473401 14.966839401206364 2.0084699719014285 7.601450703977461 0.0 
6.339438434672964 7.980877052899276 22.259600920006093 2.0097493250741882 2.815833554855775 0.0 
7.358283300322686 4.515830180404214 25.703062006523368 2.011888062824191 10.971888046984729 0.0 
4.360806090812062 4.8257847671848815 2.5028027798995964 2.016367547074168 7.587992538700696 0.0 
5.242907338844084 7.8696697073833874 31.72295740350996 2.0171400824640875 3.944615914348738 0.0 
5.924210407952881 3.982044801315414 8.839937799697331 2.0193779354446786 9.440286934170828 0.0 
4.9598258987138095 7.746989445305074 12.486309081072633 2.0332078799261692 4.285663921679671 0.0 
6.057021139177618 8.055290706820632 9.22160187934223 2.0560815401769386 3.1726568798928163 0.0 
3.8769185555955 7.827579721267398 19.71955545985731 2.8013429738542386 6.809654393370295 0.46144176845421225 
4.0699697495434215 8.056621199195968 37.791609582759264 2.820409105902854 6.555904042783894 0.3788786418384536 
4.37456913846091 8.306862442939781 10.641814404273116 2.821992171550056 6.164944943311639 0.2077701556410091 
8.37677415339044 7.5305284129110035 17.49594035133086 2.826936964092532 1.6173239315412502 0.3324688454729064 
5.810375207204533 8.833297165153688 37.151855728100315 2.8396356083326317 4.650255191119415 0.5488025983269832 
8.270571171755046 7.721355861108613 20.554716091747203 2.84930859097046 1.8482752891898748 0.5164287139849153 
4.405009260429516 8.361925661628536 3.576816141592033 2.850033033207686 6.169600249836698 0.24508213030006826 
8.228945147412482 4.219663634420485 8.796704945589724 2.852681903889483 16.001309605760483 0.23866614709610923 
3.874007771975048 4.093068263117004 17.59343145077772 2.8559116937948374 11.060163789910952 0.4490400672252463 
8.650359673754215 7.073711749125431 8.517991162709897 2.8595914604139754 1.100690287345767 0.39561107035347415 
7.95247440739996 8.095479269762816 12.44928361967073 2.8641211010635583 2.350616179688597 0.2743780976457343 
3.795510395047117 7.831973234656335 39.0371402776308 2.8663391897754353 7.017433626613947 0.488587251021384 
8.753208364980146 6.820425824583692 22.280076148063728 2.872847861380845 0.8320078433486806 0.33157116262519853 
5.275722444620394 8.781145833154437 13.51696639197668 2.8739085097648704 5.246497139743159 0.35233547546078214 
6.202854261923418 3.131878610732759 24.341861378529842 2.8752860997042973 13.752489454200003 0.4934364042880407 
5.903053870211531 8.8782094018582 19.29702393524704 2.879841647213593 4.620609130942835 0.5302633050021395 
3.1862387829139553 6.631316293311926 19.350055842927404 2.883715042957375 8.422986773857279 0.5045826415881903 
4.143915587125729 3.7928481323090644 11.714111702680498 2.883846166973269 11.573387191182814 0.5103767123793985 
5.005305608261088 3.291186841390166 26.10110594369037 2.885669014494667 12.582868030132897 0.46809895845886323 
3.9759367021752148 8.05800437812106 18.09499551592016 2.8865575092082936 6.777290654256998 0.5739676336199463 
8.796825926506532 5.284080866333515 33.97516347444363 2.8870011203892694 17.41609560725594 0.5118286509152765 
3.5825033133797337 4.417307726871579 19.751845218459202 2.889499102135243 10.7525555524402 0.5524012017108603 
4.984601180357586 8.71361604874442 19.726638833676496 2.8973689483623746 5.588600836422803 0.5101228714790249 
3.2639343393957034 6.953980427287139 4.500735748577611 2.8976083163162305 8.130991298737232 0.3802650944749901 
3.10391649326467 5.886703308173482 39.500259991076874 2.898298780036875 9.218599721496435 0.6898162714458305 
4.9847914421479125 3.2825347384793897 28.259500829667715 2.900907765425746 12.63304152541831 0.5188058078320698 
3.9882448919450564 8.09196062825575 1.1874165943039827 2.9023193974746047 6.781711495938964 0.5971378301708521 
3.4311385775291807 7.355153068102187 5.450786446126543 2.904391303844159 7.71453929876785 0.4503785477022095 
6.376868727506974 8.880400283059545 39.52744912712955 2.904950228217729 4.18515117030487 0.5487613789072423 
4.462231744475398 8.46505944528205 38.6181913780182 2.9053828106591113 6.184255475063111 0.41668253971444175 
8.658000419520084 4.823558850580854 19.167962417279 2.9067129215344916 17.052228564191203 0.539561463602082 
4.987938818928747 8.725920860883068 6.610834897562526 2.9077332020026945 5.6011537050403 0.5577999335504198 
8.245546496484414 4.152102368745178 1.7802139627350897 2.908127356817547 16.26988536020145 0.4892043065533172 
6.388833590211199 8.882762840061426 13.5794075142176 2.9088680191640797 4.179238242479979 0.5966490893303223 
7.881899922330119 8.218861921626008 4.670448693222653 2.9094493542435065 2.5236114340177735 0.5535185674828949 
7.73539116250474 8.33630522180734 17.465986831774487 2.910310048146726 2.7121868417237707 0.5702436507239558 
3.8319536097514977 4.055896561420388 12.824610495345226 2.9120376594691613 11.27711542285699 0.5051022890954777 
8.104596550530479 8.013624282727289 6.656261706030321 2.91273228987729 2.2233222531935866 0.35589833897836803 
3.1301809362603077 5.5008345742506695 23.495641159028978 2.912907066980901 9.652808758053187 0.6829244178402062 
8.719190781256033 7.049932428805956 23.268951711774925 2.9148510442089806 1.0740742501180218 0.49008980566800503 
7.117626100863376 8.693616809976017 6.516293658807548 2.916274956226943 3.4339061384988696 0.5436974584258406 
6.397804904052725 8.890578669374078 10.48867523199337 2.91782346716329 4.184258686844952 0.5989716324961674 
5.554996456010199 8.884473964163165 9.904925967721347 2.9185986712973526 5.03127011851636 0.5477383262924054 
4.6561525692618115 8.591752565038274 5.635132920385161 2.9194361228641585 5.982337360240539 0.5740693987366223 
8.795929402104303 6.843642681254407 6.531119119396578 2.9204373294397965 0.8558400380403626 0.46988533541157557 
7.199001357539585 8.663625266468436 11.75011918699677 2.921044986909792 3.3528539950387 0.5405419501930341 
5.665242202446825 3.098135027380277 21.53247057868652 2.921109909322124 13.429911253287493 0.5878827911184812 
3.103319285603993 6.37783222960878 27.714434004835326 2.9212182997655094 8.798384250874879 0.6552792781558465 
4.299994691733332 8.376510560757886 29.915639020499945 2.9219549095645916 6.404169584767139 0.48206131896182053 
4.929584788793772 3.2796445214210745 10.981138238270141 2.92337521611853 12.680177416437054 0.4749750435178322 
3.491111986489166 7.500639620185339 18.832474632930392 2.9234292079693547 7.608369948111601 0.4767349238439943 
3.1767290532760413 6.771642277056271 37.40454626896889 2.926822618874636 8.414011093469377 0.5814172254479533 
8.920348910464627 5.796718342481617 36.00605555813407 2.92741544559964 18.190048331898865 0.42016109318265676 
8.794570974594075 6.87434192951952 35.374633520088615 2.9281565432468937 0.8878855366195104 0.5850655312953641 
5.2586588330007284 8.833823960096943 26.984599901123588 2.9291884477969883 5.3506510628752935 0.6342606001186074 
8.45055923648928 4.394082534311579 12.307525089557814 2.929882502447161 16.70933798094626 0.5548966570685273 
6.116747195143027 8.929638231701917 27.520772060428612 2.9319635189107163 4.488739457501779 0.634546324136709 
8.189301421154399 7.950474587561963 30.880476501720175 2.9321309366045845 2.1339206737483387 0.6034390337131976 
8.82880186461739 5.227297233577344 35.15497561588429 2.9324374766565877 17.643111914856853 0.5485444863551748 
3.166589787571283 5.242346469745037 27.56308342960719 2.932959649194506 9.98050811440547 0.6336143524175946 
3.1755469670139345 6.797419802956544 30.476767450637333 2.9348617135550765 8.412567685607367 0.635545607526107 
6.6633768614852045 8.859382752785228 5.515977735844494 2.935325976323512 3.9416415326772842 0.6171206563363067 
6.1118492352159315 8.93333030175614 21.472786115413946 2.9354619586394146 4.499136544982921 0.5843959853043885 
7.304055998852888 3.369906195849536 1.842817128571916 2.9356354451421356 15.185125896083882 0.59917219227337 
3.080672913723223 6.314429153888133 29.36241463183218 2.936211220175426 8.909346366422174 0.7006379113210921 
3.218806984087786 6.942777900461529 8.195467236435576 2.936641748895758 8.26595877610551 0.6335237146231646 
7.7865871936763345 8.330924289889328 2.5415349747725315 2.936852370447711 2.692613418114913 0.6741012326737497 
6.571571542388154 3.118928117297596 37.77036234884228 2.9372213436113985 14.416571268837092 0.5223617206128274 
8.245541461072209 4.106570757264155 36.8375891549306 2.9372658631185478 16.397742573336508 0.5206417274407124 
8.510116495885905 7.5264386661778815 33.00397579788212 2.9378052734178044 1.6051134356677608 0.6591972968350072 
5.201055257895272 8.827359439370404 8.759507722427784 2.9380731951967634 5.424248467458362 0.6425086499400777 
5.34309434018931 3.1361738649187156 9.986765911692665 2.938201010459618 13.183440901129643 0.6428167296441648 
8.424329491087034 4.339513433920089 39.765105311308034 2.9384671373840763 16.698273959842304 0.5743997541522265 
4.277206611432298 3.619218190707972 4.352107840887982 2.938730862659663 12.007603186416272 0.718863080770631 
8.926211306169431 5.721628647411688 16.20736296646259 2.9394222592706334 18.190145609441025 0.4326032746373745 
7.932204398904368 3.7848194708922254 9.65791875312675 2.9394623004358444 15.960288849641053 0.6371380717675994 
4.704687315411981 8.638825024219472 27.87505936181931 2.939597329448629 5.958890226364979 0.552632430239263 
8.54352824185414 7.474105175865878 31.703392928357488 2.9398166586751935 1.5441328143866144 0.6783927379919862 
8.163722083072052 4.0097147133715545 28.35512074136031 2.939885843862538 16.285540527910868 0.5987878912985133 
3.0691922342913625 5.756598291472299 28.526658520669756 2.94089757578401 9.482782669260988 0.7105185741569239 
8.808070633812584 5.125934665394716 2.1728002462392055 2.9409608793112594 17.5911290253949 0.5830145297300421 
3.7244155208097744 7.863279707676551 16.00689287949971 2.9411045528798625 7.2218374271022014 0.5749990216944171 
7.8934819260960065 3.7484905173232015 0.915247041650801 2.9418648430945606 15.920269484542683 0.6054147178019583 
3.1845556691063415 6.853554216270712 18.08418269696785 2.9419859925694314 8.37651507362057 0.5935073642422556 
8.89991975908381 6.49577293522276 7.723929333880491 2.9419934419410416 0.498149900832459 0.5470117832587522 
4.813426050614755 3.3076683295394016 18.42395922314484 2.942211338623529 12.643494416794745 0.5172082965289068 
7.861696207586075 3.7216785824985035 18.256495384265385 2.9422204626415076 15.880608833564672 0.5280026596421122 
8.122015532039043 3.9618540229308206 17.254134554882512 2.942276149863948 16.235316737562457 0.6024390244202666 
8.607014378123164 4.635875049123513 27.674319332056115 2.9423393497937487 17.068833523765267 0.6311185959235133 
5.500476294218455 3.100134473508122 2.7056271766306423 2.942574383830211 13.364600561596998 0.709087414862403 
4.999396377127557 3.2320798089287663 35.077035394021465 2.9432277849743937 12.848678495817072 0.662429068892561 
8.630649534360643 7.32095678600616 34.49208498666736 2.9436786175001495 1.3698669859074428 0.6588275204927959 
4.210035972538577 8.33733167189763 8.487123003903797 2.943992283288407 6.548447279440005 0.58174279571962 
6.950121784849635 8.787381699070767 26.879594331130356 2.944864706970509 3.658353480010387 0.7531134033171989 
3.553571519495957 4.358692769491299 37.52959254036412 2.9459975789435826 10.995994416305276 0.5774489546378334 
8.907707508848958 5.525659196798479 18.36740587195166 2.946143607259916 18.034751809498935 0.5582904063989292 
4.525413949119978 8.550616166813414 26.12777795821195 2.9461919237992418 6.17221083273494 0.5523775338583564 
7.443790934864854 3.4313554888353686 26.520207037931044 2.94660260101937 15.394411760418887 0.6013337775901361 
3.106308204823824 6.560339011098813 26.484376538381277 2.9474449974221932 8.695901153073972 0.7615083757677461 
8.937921150703778 6.239306378696025 37.270461841754994 2.947651307505217 0.23957004256765657 0.47548016316741354 
8.37363300857764 7.748194090623391 10.390591079270848 2.947934232288756 1.871374091781977 0.6532356279015188 
3.2530718418404074 7.069944734445928 16.470606648377853 2.9479477676611956 8.166303252866552 0.6248262547144481 
5.77099513388765 3.0608303513029096 33.67593190445749 2.9480775859066717 13.663252529519191 0.6168677196950296 
7.764972358893736 3.6386041572070784 8.01072435853488 2.948104094841059 15.784861882662721 0.6369081281649913 
7.657550937925368 3.561987509521879 11.891649699966905 2.948114654409592 15.652962210733183 0.6898602325241602 
4.192641020582528 8.329159994942696 7.086520716352489 2.9481405601704984 6.576453441928191 0.6368196326764722 
4.456087817715321 3.4882664209238197 0.7796093319875403 2.9482995775303906 12.268597740605564 0.7394928275799837 
3.069943028387211 6.328180066273369 31.771696344407296 2.9483785396037434 8.933742816470037 0.6599519514193815 
8.696720889769079 7.192058527589104 11.357743860208572 2.948441468049661 1.2271847158875069 0.5979571768292921 
3.270624771713578 4.88440574928628 1.5990540782890292 2.9485656969124965 10.407279337289228 0.740091909755622 
5.3775010174670435 8.882568165389431 31.067215531526507 2.9490174993328124 5.259522918243604 0.5659040346334434 
3.738340650744963 7.893030712618552 9.903685070742767 2.9493504862918276 7.2102436992398395 0.5307696598192287 
8.749136782831268 4.930718631739092 9.284887238403755 2.949765362740869 17.439719227648197 0.76224350194228 
8.741550700451707 7.090314639628572 4.4177215475862255 2.950404422538648 1.11679305372048 0.6022968291865263 
3.53804562046162 4.373623449273245 21.285900156396096 2.9506473953493777 10.992301004817097 0.5916387432317934 
8.65968532624127 7.277709285588198 16.53836845965676 2.950672305272381 1.3214407078043067 0.6588743927627725 
3.5775062392855403 4.315142875787645 0.7333259895747375 2.9507998152551145 11.063420857568424 0.6514205282809803 
8.602401061622636 4.60819378819359 17.86513491645595 2.951205824194161 17.093603176019013 0.5867658164019195 
6.147335826786822 3.052413922720758 3.5270428704161887 2.9512660891260527 14.054910892909458 0.7175107080031486 
4.562447139558042 8.577618423440054 11.634546949189286 2.951385261774963 6.137513308605836 0.6404465110873141 
7.46561517854626 8.561999899326988 10.55709666513286 2.9515879346102323 3.1026356610914014 0.6681855643452386 
3.1464358635744993 5.243553538717533 0.4214705748971781 2.9521245789228785 10.039351715946715 0.6555219677268135 
6.907640535657654 8.809436279213866 36.777991364715575 2.9524131738176442 3.715057926204249 0.6517447847893697 
8.788825395136888 5.029597826765897 14.216973630447598 2.952833802024406 17.56442462893645 0.5254328818291317 
8.813825774699797 6.895491533637204 26.92306672226203 2.9528834344045527 0.9098186563648518 0.6616250664465434 
7.546765328620172 8.515370541070613 15.400183166597785 2.9528921315732695 3.010398125520709 0.827537688077739 
3.0531785659342496 6.193629814522339 12.369105385935185 2.9531760985998248 9.083907517291092 0.6796793134526311 
3.4126288074240723 4.576203911546157 34.62519800671196 2.9532499030167148 10.763579956534809 0.6375023712455488 
7.2546259067723255 3.32646441954744 37.05534418842661 2.9532826931890703 15.212821764325234 0.6362071449703598 
7.618730236802975 8.470659949105597 37.928424594879154 2.9537176851646922 2.926506041259106 0.8666821714559206 
3.3931799442590034 7.3895414602192755 6.895307649894043 2.9540372835632627 7.833702474819372 0.5403350278786259 
3.0819190647415304 6.461407026681835 35.38574461643841 2.9543345763454614 8.81801210076594 0.7634402333416899 
8.949552430238299 6.1735223966888455 34.58105491607392 2.9546521894932565 0.17362229946340335 0.4558536373163662 
8.940352508214247 5.706734582988881 25.05499766436681 2.954941196940563 18.272694118187033 0.5462643842999785 
8.921191593632805 6.448764681241126 5.462636420235917 2.9554610580822076 0.4505072870594091 0.7226221669128424 
8.517778594776564 7.547872301067985 26.217240250420154 2.9555232553185147 1.6291261682192264 0.7207852499682359 
5.902412794448155 8.954622860060141 32.221909326872115 2.9562340076315663 4.741246458094096 0.7594405198809898 
7.100072459789764 3.2558905825114266 16.369447210430017 2.9563991462482497 15.058886471703481 0.7686405329380539 
8.903257468263316 6.558079250463335 10.468048343515733 2.9564093723340217 0.561447970940673 0.7090376237084084 
7.681245278721935 8.431875098777809 18.47466042607217 2.956450943831195 2.8556600239020185 0.8554862741574732 
3.922213107645092 3.896766434170573 27.80365157576979 2.9564826741371992 11.62807393837561 0.6390612275428603 
7.548652230092523 3.4813685738829125 4.942105530062356 2.9566582471423977 15.562893301059251 0.6647650783848815 
3.3068875602139087 4.779254678644797 8.459847461247548 2.9568689103410044 10.547666977678759 0.870314125420117 
3.2627465106046785 4.881090057156754 7.220548710032006 2.9571128022786577 10.43753572205576 0.8167374590596554 
5.575180230865017 8.927037198010627 0.22758119509616392 2.957704953977968 5.072246249350682 0.6547373748477212 
4.114853487840831 8.279116675433125 16.989699580089408 2.9577272004941935 6.689988019798225 0.6316639463479073 
5.287167279028253 3.1292954012699212 37.9142916534627 2.9578835983280367 13.218778522433414 0.6575132195574243 
5.394780370999236 8.895598255065732 20.626029774027685 2.958171741814113 5.256208726519436 0.6032340787327493 
6.070562054070399 3.0426254337423426 26.3380956060399 2.9582162410179387 14.010834362729724 0.7780770279995188 
3.7337615448079724 7.901631134908438 28.024051443132265 2.9583843071927434 7.228672573812219 0.6759572962892546 
3.874580251033377 8.058015278361982 13.46854305277246 2.958519223406991 7.018510913486452 0.6502881110315507 
4.6814708418028665 3.351457054870327 37.12796409430794 2.9585974503491017 12.575451473258575 0.6437523196831018 
4.294165943451521 8.41747975659371 33.40828134583591 2.9587291532042994 6.4656737291787 0.5515573663782076 
8.953155890785677 6.182312141039075 27.61911605951407 2.9587780302098374 0.18242770270587272 0.440491462699761 
3.246803256838408 4.9142491580757905 5.161586041088974 2.959551857510648 10.409417419885148 0.8141261979247402 
8.231022549373076 4.05525218836981 26.306404372749803 2.9596462063313527 16.474089828881574 0.5818658137254265 
6.065411043893329 8.95907170149982 26.390759914107562 2.9597945772097556 4.583818080384415 0.7338224614715507 
4.708486052657328 8.663529979923787 4.507767054457801 2.9601351709226797 5.986226533027011 0.5198572038260572 
8.148302108494676 3.963313782813808 32.02318267095429 2.9602859146776477 16.353955550321487 0.5939248232841848 
3.4948189743500357 4.422495655416425 27.03420732893384 2.960481705475761 10.964328370321994 0.6292438940199343 
7.827087223503131 3.6703254530586076 27.469722939201787 2.960680870501742 15.920951336065968 0.5361484138295971 
3.0567540885153193 5.678022248857873 32.57187453462783 2.960804986435588 9.62425895609973 0.7785211001288803 
4.289045715619723 8.416539070330925 18.990659925244188 2.96091635168491 6.475179303374006 0.5565970448550164 
8.567249637248242 4.524125700525971 7.886425338165523 2.9612456243613416 17.061030600390783 0.5864641046129672 
6.2959441233902975 3.0534051751608935 17.036354700483457 2.961419251969883 14.251798381104784 0.6436110654237918 
5.369572527204715 8.89375148034641 29.78870434916655 2.961627327747714 5.287401525874905 0.5417476900241176 
6.215357017632545 8.953805924991583 34.19837050357384 2.9616461786579062 4.436595684121503 0.5856653063915498 
8.676240210848832 4.73075829355907 11.288066607736887 2.961964918011908 17.298877656785248 0.7342255430893293 
5.82777394938106 3.042671048534782 22.730239616280123 2.9623396732458214 13.787373610673232 0.7672518680090414 
8.894633575539746 5.370261297601486 0.05604561742099179 2.9623427164898692 17.978367329724996 0.7651575329677007 
8.050900986652938 8.137639962159223 34.92862834199818 2.9623807089694068 2.3879864686521373 0.5885015695720065 
3.8033373926432184 4.012345821572685 18.862675799391056 2.96244759338947 11.485651844158681 0.7296153745219084 
7.343788729018186 8.640263325667203 13.224045985307747 2.962559463892589 3.2588342086780777 0.6617601107484377 
8.900390352828566 5.396201389591875 8.37992128195657 2.962572692899162 18.006334378206557 0.6892813938561733 
3.8000861825176173 4.015550133906332 29.895397066565188 2.96271194607054 11.4821193540091 0.7124487471550407 
3.0756602064493297 6.476111195528592 14.557466447309558 2.9628440894943564 8.829864778924193 0.7510441153670627 
3.7170397508444317 7.8886603274944065 25.109429501288517 2.962928506035155 7.260461090598728 0.5635402883905655 
8.954874033870816 6.221337578067487 30.179565574919735 2.9631521863564103 0.22154392546159585 0.5041325019191758 
3.273712233195077 4.837964469267433 36.65389080125408 2.9636078624060733 10.504530984051431 0.8391853305281763 
6.182023961773471 3.0419870415986328 6.897086845991872 2.963608169905413 14.147813082486323 0.6720637764057971 
3.9081786099610056 8.09941565937948 32.47483187553125 2.963657004221718 6.977582341879977 0.667191127281056 
3.975721160581328 3.8350366034882555 15.332616136601658 2.963911491248326 11.738750899532988 0.708121348910498 
7.407548489767919 3.3916240613855244 10.441542260352904 2.9639193288939047 15.433818351346947 0.6555153619265541 
6.910116870349336 3.1785305495076983 34.07698092299067 2.964625200216008 14.89552216549427 0.7346815249234111 
5.086494315691256 3.1794131534991923 27.21777231921643 2.9648276162228657 13.042806657967326 0.685396311326337 
7.2506044710144515 8.68829208148474 23.269839447056462 2.964949554089391 3.3663173281494885 0.6776653452643399 
6.76456128052045 8.865075461967855 24.128949064392174 2.9653349481030613 3.8846409792673526 0.6533039983542983 
6.300166048820714 3.049891534103251 1.4991322545725296 2.9653397136618773 14.274515223697788 0.5945999113250047 
7.820523339502142 3.6588282096623104 13.115323284045786 2.9657023757526675 15.935694180450195 0.6702107063381931 
3.0714266825939287 6.4680484615673155 0.3397608041924798 2.965739543149117 8.847132073712672 0.7275660621796883 
4.878469431127844 3.2535944007269535 38.83397007722308 2.966576230713285 12.829534223177124 0.7548869835897092 
8.117840780005515 3.9225223447082413 3.9855420285769867 2.966675408212179 16.33869139852579 0.6200274264967693 
8.628715635160578 4.624315824346171 24.99944383244108 2.9669264975192826 17.211285512648196 0.70701654210066 
3.0608923689767717 5.593656753713692 34.2162669010037 2.967063952890377 9.72893061099158 0.7474169967224854 
3.457396754735596 4.470474198870294 9.937151635124685 2.9672007749983056 10.9286682939698 0.6714157578487603 
4.897133422224929 3.24505408001197 20.87993347855958 2.9674975501981455 12.854026330868757 0.7832686580825151 
6.584359590030061 3.0904641087623705 8.047283270022852 2.9676379888490523 14.572867906529854 0.7982897971952561 
8.915232453932763 6.555528447890445 15.555141129579965 2.9676913783071193 0.5588250681681437 0.7692909540540607 
5.838804510304158 3.036327913795125 37.00211662726963 2.968052597318357 13.825343514138332 0.803076282645287 
8.968317568360165 5.987854250331663 4.29316083509017 2.9683424172205286 18.638499678997636 0.7817412792802781 
8.905202106172528 6.609829846195895 18.045132780704307 2.968516754040741 0.6142028059050837 0.7585809860530052 
8.11686458979073 8.0819093695317 9.380341003863911 2.969084423598254 2.3071960944815473 0.6812597939663261 
3.4323304990422336 4.508868273504792 2.7198125808980507 2.9692424104322104 10.890365047002316 0.6653715636816449 
4.621963702228822 3.369447266465407 36.00627720412117 2.969645049813396 12.561116249245295 0.6492075214729568 
8.020171391561579 8.17669953807291 36.77036418140443 2.9696991986278096 2.443104050865667 0.5486796643237224 
3.493634672105669 4.407094072335093 4.26549885958557 2.9697165607614577 11.010932138902696 0.6953691512498716 
6.772317981817842 8.867820693090792 1.8344337384801577 2.9699950492818914 3.883959155907622 0.7026052243462928 
4.958439378556886 8.781526715103618 35.87179110297119 2.9701413089238846 5.729671013253659 0.7614590476542904 
3.203700765162086 4.998228756121769 20.50499958610048 2.9703257457417775 10.35335914031176 0.8262598061163634 
8.880439387506424 6.725348463779156 31.08373884119962 2.9703638596988693 0.7327579747281519 0.6642787145149519 
3.1389519122882223 5.201220021444691 38.67717488971329 2.970462188673682 10.140716415410608 0.8458931077610256 
6.922006788840044 3.1761208871837034 11.30898793345066 2.970587444002833 14.936055035608515 0.7917684859505794 
3.9133989957005078 3.8852501667745383 14.059855542602278 2.9708703452474627 11.686484940973287 0.7671910599941607 
3.1165102443802617 5.284689265310622 35.35800735762322 2.970889196507643 10.05573248943719 0.7854734738303973 
3.7529294430374147 4.056557726289871 9.02753386061758 2.9709079351625394 11.451843245542506 0.715305594021104 
8.923894981769518 5.47243784694442 29.51588957085444 2.971108158541794 18.137648635380177 0.49296332098746976 
6.937411665669014 8.819434646644542 31.19818519235195 2.971187028383101 3.713425326150219 0.6762425604948199 
7.819956208739054 8.348813334686543 32.93898781252712 2.9713910350085437 2.708677811467716 0.7876391536364448 
8.773025548247386 4.932425454910829 22.996751437680246 2.9714282930192115 17.57804602101226 0.6271528315744885 
8.593394603716316 7.450591728246236 7.459992900208647 2.9715167730708356 1.5154332802061639 0.6605251502804308 
3.959774369401778 3.8395395063346154 6.77877920066468 2.9715501288786617 11.75428055883075 0.7294443346475888 
4.958561179408115 3.2169148899380993 3.582123667777587 2.971558100876386 12.939106625417523 0.710762049068721 
3.0596336167907072 6.431485161235065 3.543211475503938 2.9718569803867325 8.903348362383223 0.6904607942068794 
4.2140341773343835 8.376281016046159 39.80264259995468 2.972605824348566 6.58523750288564 0.6666492827753372 
5.7247949149880935 3.040148630572034 12.916923755100996 2.9726180326306677 13.732532717403316 0.654354693958067 
3.2900505531133444 7.222862144866571 36.14275508958494 2.973082210439019 8.079946987459646 0.6649190665684476 
4.697843493964051 8.672885717835827 28.965093740383537 2.9732019149096645 6.018145415610853 0.5894176511581988 
8.915725375549986 5.417353993518736 28.307303039087596 2.9733702821032337 18.09579575489408 0.6009056056575351 
3.304389272688315 7.255042248429943 31.36139492809923 2.973457287156133 8.04573583058215 0.6427575337269812 
8.865695396305478 5.206646464531795 22.009974807970792 2.9734861588119608 17.879883283425578 0.8055474911728009 
8.966266918428593 6.208791791962101 39.28766864533411 2.9736061346040095 0.208963736110789 0.5154213879227264 
3.1814106526693333 5.052227055924185 33.360608008898 2.973671041391104 10.306663562765316 0.8373213260578747 
3.1296851891856523 5.222583779938169 15.481653450356347 2.973732182358632 10.128810718690985 0.8053000007713345 
4.1510595792408695 8.329137201287839 31.344616446699767 2.9737956859777537 6.6665484470552805 0.6607517612241481 
5.0945472840423545 8.832642193879826 37.87440271929601 2.973836986013758 5.591352731819702 0.6782615467993218 
7.168301984523209 8.734748769394526 33.91632615868594 2.9738494176312518 3.470655893965521 0.7556663066365925 
7.330090376454511 8.660084222715295 39.90375534678887 2.9740861590538583 3.2927125079906183 0.6688960528761956 
3.232951775805166 7.090361651590836 28.487241013347514 2.974129184531111 8.227107876458687 0.6568662960910301 
3.226164889637925 7.07373366923728 25.60803413990223 2.9744016561202935 8.245820098982191 0.7616755474418803 
6.164692425004411 8.970054346653251 35.91790881014886 2.9746170202107844 4.507740806717731 0.7071702411432206 
4.7639372617360785 3.294209818374277 17.14508310008887 2.974752359425347 12.743472955697836 0.7128504908950445 
6.636569917164451 8.905855990239168 25.485835415302986 2.974763905833134 4.0312170966675325 0.6954593705065119 
3.6219233009175724 7.787688200553633 20.933371571765875 2.975076114844369 7.428707945945817 0.6316111714821863 
8.765472503533704 7.097388539371558 14.547922911121802 2.975247850876465 1.1239297466019167 0.6306769943533912 
8.947859835157972 6.40561993300641 16.944355897336678 2.9756352494534206 0.4068867208455096 0.7522347924942427 
3.363871005179753 4.619338486901642 13.567972087193262 2.9758027977477037 10.784475836614106 0.6550291677678265 
4.536355979490036 8.591068412401574 37.01655522542714 2.975884630915617 6.20469648161183 0.6073973723215446 
3.5374798856546423 7.67105512933551 37.006840025405 2.9759755642199064 7.574979793596544 0.7845635797200923 
3.043986800932357 6.3441561574476495 11.038543690142092 2.9759800896127064 9.004389269727776 0.7318737845121988 
8.27892061770692 4.085637090094485 22.442347854998893 2.9762836781179978 16.62107875728263 0.787939677035202 
8.55079875159371 4.466324338888459 10.214422434725755 2.9763627642842776 17.089813412205658 0.6495347358795389 
5.874878717183472 8.97374657714398 4.828493153539302 2.976377671010383 4.800441277370698 0.7937008714138958 
5.073095765775941 3.1714970839622794 1.5073690570254001 2.976504696024582 13.083868550841274 0.6995567144910597 
7.4369244725691495 8.606940050768044 24.90334106595023 2.976724436048222 3.1762793437407737 0.6546135196761048 
6.307412827873289 8.961132002240397 29.229107251424608 2.9770464190928045 4.368371798338238 0.7127389161710128 
3.162871511147742 6.9021840618997174 9.499064145941695 2.9771184295897557 8.436297058679534 0.7160644196791229 
6.875384764859643 3.1543929626262557 12.513017570948335 2.977209750370193 14.918285971295463 0.8219478136427458 
4.368316765821289 8.490329832852531 22.69208258685547 2.977269361864191 6.403581730349714 0.5362786430555451 
6.323580998143859 3.040351343479365 4.628454310754762 2.977284808748429 14.35434555821189 0.756566333826174 
3.3766751014957954 7.408026951540478 38.215827217313844 2.9773097620799325 7.886868849028449 0.7097886849033529 
5.7022122667069155 3.0375508940151565 18.989638956252804 2.9773784172742017 13.732278783165125 0.6519801695715524 
4.496975982244244 8.570522299527152 12.862632692352484 2.977694761105814 6.252865239043373 0.6421685993155921 
3.0307685107627016 5.773999061385934 30.556265970156787 2.977820018223529 9.58131595733558 0.7937743208779838 
8.836063554506293 5.092134374462596 20.755316170839713 2.9778308345557996 17.78771015689867 0.7339436538748901 
6.4140678407876015 8.948990036461002 33.179386766272394 2.9779177980462723 4.262288502281983 0.7810211483650477 
6.099676803336042 3.02363936104949 20.59990300306456 2.978029233942671 14.133327569166719 0.6439339603634252 
3.696948287663851 4.111925719219066 38.732550456356364 2.978065089859674 11.4009240200753 0.7720863741211872 
8.976309368443506 6.103967285333702 11.37456689529538 2.978124687299749 0.10398841493957889 0.7899030957778962 
8.45114304967775 7.691610878458871 18.491298383882217 2.9781956977512283 1.799044682510715 0.6605904425470926 
7.465664070543031 3.4073947584412476 38.187426836106845 2.978216430388946 15.566904092031152 0.7139640743581361 
8.203651260626522 3.9960069907434477 35.414635065800795 2.978601493924623 16.516949618378014 0.6763405622230447 
3.1011172047388875 5.315486020431365 26.55602760715533 2.9786038422196692 10.048246973830594 0.819309604430801 
8.926394159708032 5.444500326788461 7.282927963761551 2.978651148575709 18.15664595621479 0.6950435757077643 
6.8277512927157105 8.861431580464004 28.27837300378954 2.9787519017651065 3.8402199100364207 0.7405613003799528 
5.162852299290243 3.141046237241845 30.42410500783329 2.9789986388705594 13.189623353644784 0.6986228902937314 
5.042670243439055 8.820990092096913 39.380827729013966 2.979004089038147 5.654032332540105 0.8237393618779197 
8.889283529285791 6.726108448125775 0.15268653428714174 2.979126179107185 0.7334968281344558 0.6729192112717332 
8.581804398418289 7.486488813104117 24.183381184099908 2.9791547363599147 1.5563166468054064 0.7413241839689723 
3.026591191212302 6.185146335074121 20.572894669703132 2.979167519554357 9.174065070315791 0.8408833301462493 
5.424268536971246 3.0769404825310094 15.22132050376429 2.9792186324919614 13.45986052474693 0.7917201821360079 
5.356048478157128 8.908796231868436 22.644239313095397 2.979222898847241 5.328826561499156 0.529965558095857 
5.591449677546777 3.04887596728625 17.746663170446112 2.979269444417088 13.62963475909811 0.8278687284433638 
6.2101364688210765 8.971861209170086 6.848727021751145 2.9792811854704953 4.46953284973981 0.7117774089496134 
3.6342997635778183 7.810986102595198 26.30177090962998 2.979296606986439 7.413186447471361 0.667333273552712 
7.967316553352147 3.7622124015601592 29.98898155068155 2.9796019460365035 16.1898337926754 0.6868804112942706 
7.151593139218399 3.2518920284144404 31.858970016156277 2.9796416196896884 15.223610836738445 0.8096414532188332 
8.919720478027319 5.405175674351547 17.225195726687375 2.9796952274008186 18.123129698959247 0.6205572430146271 
4.369699261135539 3.5058438185694207 25.336520219079148 2.979714005825118 12.31650893630064 0.7985232953458842 
8.573737228751376 4.498390712710158 33.303212654385945 2.979757334806967 17.14860699112331 0.7456233173912842 
5.057009447677707 8.82664049002007 2.9337547433341413 2.979786509397948 5.640122844701025 0.7637463090822021 
3.553314353808389 7.701348530547163 8.898316948611296 2.9800767563395163 7.551460071326428 0.7735798024120467 
8.889563033424377 5.27105635306631 5.286138572933837 2.980089489350559 17.988038913938738 0.7021017092883552 
5.300486787281063 8.896996989334221 10.877233699015363 2.9802533937536126 5.387471838213081 0.6468248744727411 
6.532272376954593 3.067649083032366 13.54120156734323 2.9802677368836883 14.579324321596673 0.836423125947487 
3.178154478465565 6.9590263250507896 23.35837386283768 2.9803596493618625 8.386677158377456 0.7290069297634363 
8.945831451932873 5.546418173347144 3.1248148216577043 2.980546831819066 18.271976984752698 0.5626467878729632 
8.969949783713298 6.252262859497137 28.8714283439504 2.980643935135548 0.2525649882638561 0.5824357006975743 
4.754109242633657 8.70780605695544 24.787164718632823 2.9806806976553912 5.967401734638997 0.6500270568238474 
8.751352836930517 7.146569570666376 13.372572701073487 2.98069861167876 1.1769126241879455 0.640978076780214 
8.609857305627953 4.559378333297214 15.352127594205037 2.9810645652707852 17.227016543567643 0.7626411874413094 
3.0924540378461582 5.342005009534947 12.908746731638118 2.9810704335044167 10.028767450865871 0.8304403978732475 
8.441007461258588 7.711266338611832 5.3617703797298475 2.981098775214608 1.8227325723644867 0.665072675508549 
6.464667056168919 3.055191968064186 35.08070222506975 2.981242998824881 14.515345975113782 0.7928242006975073 
8.20768897968637 8.003646630076515 13.42507897829492 2.981357148891363 2.197216324043815 0.7741615974573939 
3.372871500464065 7.409667103934009 3.099483313580386 2.9814368175407693 7.898155032863606 0.7286811628702906 
3.275971660095774 7.212056460694583 10.472492766086688 2.981511573097254 8.118495675898913 0.7279595474394843 
7.5628670829958455 8.5391423290462 35.880227982982845 2.981576308979213 3.0383768964766773 0.8159259068295387 
8.975170573055722 6.195399399131254 2.272216938893969 2.9815802628736274 0.1955395404220468 0.5950181618146383 
3.401434283371424 7.462152581099389 34.99644802891572 2.981683074046099 7.839050287898157 0.7920716801827711 
3.1484815266708353 5.128247570104211 31.587671628247293 2.981796422086307 10.252264219985797 0.7676035958969069 
3.9212529451934124 3.8622592448926127 22.542035303106402 2.981798929155714 11.75121321925165 0.7839861767026126 
5.755559647196686 3.0281300589920885 25.276904898304807 2.981905771875594 13.807184949883663 0.7943987312400028 
3.1418103576164356 5.148734617667342 19.202811162308713 2.9822643717461834 10.23233066011711 0.7527212392677152 
8.37327218262734 7.8060356602829835 3.6813754686490157 2.982312133068319 1.9399865532711722 0.7156173186016563 
4.7069791450356036 8.687460064488725 32.161886476342346 2.982338768415587 6.0220436063626686 0.6155624312841975 
8.74722732882264 7.160663442269694 21.25192494787936 2.9823476696138784 1.1921601793412968 0.647044440486622 
6.530379394665932 8.93483832373091 37.897095314789496 2.9823779587312296 4.15149274194523 0.8491296836750791 
5.757504785839043 8.972884581584806 38.61397702058413 2.9827582309526224 4.9280688144083395 0.7005522318656658 
5.676366744568433 3.0348288053109247 0.7048631443485789 2.9827803636598973 13.73174968537859 0.6534802194538566 
3.776818730614945 7.988593622096028 6.156950145068244 2.9827905642846506 7.193998829842538 0.6853953154715111 
7.440201297588061 8.612112707840533 29.091012545129153 2.9828363307490307 3.182428154769184 0.6862839731723351 
3.671422919527455 7.8643643688682445 23.052719372515323 2.9829726313876126 7.35737772560071 0.6896126954540548 
4.688033343468922 3.320991752029407 15.86881890108608 2.9830088334672773 12.69866358149066 0.7124878780579597 
8.064120087504886 8.153730291131351 16.48839608616661 2.9831436275476095 2.406324274457159 0.6591273894640185 
5.458526859033672 3.0663645691938086 7.9287088780770105 2.983187892719693 13.513450488633925 0.7734204570752788 
8.983106452623602 5.97620974748377 22.914457029372763 2.98320131466171 18.720216163955172 0.8072032940663237 
8.84877706003751 6.885788713184006 25.311955497303117 2.9833123172407126 0.8993487905649786 0.7511569587921902 
3.485462625249877 4.394519532265491 23.34855070702538 2.983364835432009 11.067765619662897 0.6853847291046158 
7.863341360033506 3.669960053676414 31.059611224241337 2.983475687093015 16.07183188163303 0.6669910918897483 
7.8468932809281515 8.343193150769256 31.855569139004004 2.9835497202073755 2.6950257799172768 0.7652219634627626 
8.911345575664333 5.347425613162862 27.026318327475728 2.983586162874495 18.088531953403823 0.6239357251673397 
5.370695427094748 8.916507206691376 25.590631589314153 2.9836284172400203 5.3207390607260034 0.5334399560077787 
3.4212034809535616 4.498770738755804 14.75384062583786 2.983937127598675 10.947405225889025 0.6963050112560324 
8.650759646831315 4.629580062275281 16.59371892793572 2.9840538719974026 17.325527674778282 0.767693678708279 
3.0584677739302677 5.4973323534598215 21.378458145321346 2.98417268265176 9.880130576089844 0.8185177316814198 
7.870104116037698 3.6744345020276636 19.618745705100608 2.9842158585096463 16.083895280189406 0.7449332388417889 
6.464538572544466 8.94784606283243 22.504437804587937 2.984223935219725 4.221172586435493 0.9158255592266357 
7.744621825883947 3.5787953314669867 23.127845861180962 2.9842817163057354 15.926456056347968 0.7473669446556473 
6.493522155108107 3.0567751954197373 19.607158781828314 2.9843150584144227 14.559053158421625 0.8299004543479717 
4.4241400160060245 8.534470578813902 35.01858490019057 2.984438942921563 6.348111146566257 0.5817015893766294 
4.81251901210504 3.2619375491020666 12.358312528286415 2.9844760145843323 12.84273041044854 0.7110479674614525 
6.053558856734705 3.0158998255436202 11.9217328913589 2.984580774970803 14.11806728678215 0.6600537204144697 
8.984310743378618 6.04753405591531 0.918364417359129 2.984689280229482 0.04753606553875933 0.8775011775485544 
8.629359203854538 7.412394132822637 2.4157321786521138 2.9846921129869295 1.4712563899908417 0.697680272957355 
6.60604445294018 8.922568962236731 2.9643427366860493 2.9847444141783823 4.078137541891046 0.7751342413234896 
6.212897510273429 3.022830995828624 39.82891034261317 2.9847714534415215 14.278482556405184 0.7434526830719776 
3.1990891896394498 7.031724480877076 11.808920431218102 2.984888066919038 8.32384393811553 0.7130036518676781 
7.234537382084582 3.2823331731057444 6.99924508665832 2.9849280610704425 15.338897391307349 0.7504778204846199 
3.3275909875113423 4.6699261113839565 30.601267567777516 2.985107448519869 10.756546167374829 0.6855485109922334 
3.9696977346374247 3.811666314500716 20.489157595666487 2.9851183574235853 11.834303580737853 0.8116081816274313 
8.811223243304223 7.004059358057496 28.218031265396878 2.9851484583177323 1.0240254693142763 0.7207895998488367 
7.516032066467631 8.571535169376109 3.675914727180839 2.9851543266465033 3.0988912284709578 0.8003307481504168 
8.985027341178615 5.970176812462871 31.737372720908823 2.9851763180922397 18.726592297516223 0.838307658610003 
4.293373208307202 8.449238387233748 20.432312247607506 2.9851873783102825 6.5058299609098285 0.5586977000866798 
4.901148126022663 3.224346618530305 5.100115649074766 2.9852516033004086 12.94235294390598 0.7214246713768835 
8.771561411152653 4.890685048784306 26.068652612064035 2.9853194664526566 17.620741306135308 0.7142340557708214 
7.930750173113561 8.27691474639922 24.095417243257355 2.9853202497132982 2.5897154561221996 0.7024268384392227 
7.232745413692376 8.719033576639363 16.36402309897547 2.985432103711594 3.4187323683478397 0.769640830913651 
3.671132008456656 4.1320271139024385 24.858824417538198 2.985456217269109 11.397306324741404 0.7810304722014487 
3.034714186052641 5.653324210156246 4.454912571086236 2.985482215934512 9.726628647339423 0.7649124608707997 
3.596867735772636 7.771813007499567 12.41643193747418 2.985693556431269 7.482965053786062 0.7461566159924979 
8.20338353153333 3.985126311674213 7.106955748271492 2.985735247295018 16.548277765086596 0.6914956339779674 
5.008084046620115 3.1838423161815683 31.764676466107503 2.985739666933325 13.058834063335986 0.7158915336395297 
6.6776690468674165 3.092167490612999 33.078427364068105 2.9857537138434735 14.75365937641233 0.940627036155209 
8.68628802465777 4.696681131343526 6.489268137406505 2.9857634576127663 17.41138453583951 0.7596745130143334 
8.513545553177012 4.388234309752857 20.082773821544027 2.9859169258627722 17.058539339389704 0.6707187510320041 
5.4744284110907895 3.060530844799432 16.465685813123 2.986085130977363 13.543270972649957 0.7524086854168561 
5.863304358726186 8.983037540956516 2.2742158503247296 2.9861678903067688 4.827404979841948 0.7472702591339919 
8.854991936306156 6.875719703992086 36.49599947716186 2.986279283043226 0.8887829586578704 0.7321179907302809 
3.139545906812458 5.1416864547859955 22.504542321713643 2.986452705323023 10.252809650819751 0.7103059030094022 
7.467644062488342 8.600969655357648 26.01490079226427 2.9864732113729993 3.1568956976963705 0.7021831170050732 
5.3887238311310774 8.923414498375596 1.3736724858803626 2.9866387267193377 5.307027542131156 0.5698223529543119 
4.674715716190164 8.676558708439789 17.71775352921336 2.9866946533983385 6.064639652017277 0.5899003785827107 
8.85799044941865 6.867347041990936 38.0485095860258 2.986703919075114 0.8800254490993336 0.7361836158095438 
3.4908284380697943 7.620122050697473 1.9231087345596833 2.9867603496690935 7.670778011046991 0.8398267117312025 
8.112997242275723 3.8890763087908162 38.88944968712714 2.98676349515207 16.42205616724403 0.7201798107131399 
3.0141654166607417 6.077372058828198 8.823586921376219 2.986836887838377 9.306044109632825 0.8537154960625593 
5.028424424201109 3.175591396042968 39.94134578708416 2.9868450012672993 13.085594901351126 0.7090823823487794 
4.661580460183569 8.670294338384608 21.373673241328845 2.986944712941858 6.079698455535244 0.5962353206366137 
8.334280983882163 7.863611044128145 0.34743606760601153 2.9869572871921495 2.012444340909733 0.6654579080469353 
6.1163063207944575 3.0152547845361806 9.142904744690483 2.987010405320161 14.192290648217051 0.6978878242376324 
7.691462144674123 3.5379249798517094 21.734695824168845 2.987115262540732 15.874550027775445 0.6856887980696817 
7.068575187475121 3.2105181161477105 22.45077085431378 2.9871494960292178 15.169397816998906 0.8105575184570935 
8.949602548153502 5.527637301851875 32.98860175867738 2.9871862530942757 18.29469102056014 0.7281569023999523 
5.411223445812693 3.0713715053912765 23.65620396506995 2.9872265883583116 13.484316781866617 0.7803117650678091 
3.163128209196829 6.935980830901411 34.1510924783242 2.9872900216198754 8.432834427072734 0.6399394208565922 
5.297150970061239 8.903456850477722 12.344851815849523 2.9873162607048904 5.401965938410932 0.6463763036201117 
6.750276312869367 8.891657997964694 17.339569637632884 2.9874069898234534 3.934211748319548 0.7561681592843041 
6.645569477691517 8.91682756090642 0.728524067358606 2.9874140942611507 4.041916562903452 0.7261443734117062 
8.06349516604954 3.83967589013975 14.706464981921492 2.9874759513598264 16.35603247962953 0.711970558663345 
4.043247039752975 3.742489500720735 28.85592510492428 2.987513314077715 11.944785067450937 0.842910176685259 
4.4373297464117485 3.453601058719043 9.642290762704953 2.9876555841673493 12.434540175980146 0.7843131101418273 
7.2336942702012035 3.278931817017458 20.288578203034326 2.987676958569518 15.350848988443726 0.7201189605588718 
3.608425589200392 7.79071441037158 4.032382425937932 2.987689117345366 7.465894040953039 0.6758125075044167 
8.912698261796537 6.665220651224708 33.70264460111454 2.9876963833509573 0.6708433437415273 0.7373671919843269 
7.479314029190844 3.404241077640597 35.04032869609597 2.9876971700574484 15.626789781441087 0.7514256692044681 
7.62272707317436 3.4913738295661894 39.77787510031101 2.987716254432209 15.794719880346147 0.7537280215134429 
4.501968053953995 8.585331579088235 14.287358774182081 2.987982443925207 6.262683729904914 0.6132296990447708 
4.656338826643733 8.668885788902946 0.6558933582286031 2.988038939336842 6.087242789825073 0.6043329442886832 
4.003924598322717 3.776467432699267 10.488311064693981 2.9880451949440308 11.894940312492729 0.8176640559790028 
