251

7.056448341027657 6.221640384145513 0.330637737914131 1.3889751328698585 0.4812091215902701 0.0 
7.32869533163076 5.809442210719098 33.064918255887974 1.579814016436091 0.05945624526955928 0.0 
4.081144708833174 6.178026398972516 16.004093235968114 1.722871028566241 4.980002520608782 0.4245024112080782 
7.426333468947526 6.179801669304897 37.1594691754561 1.7305557991728895 0.43434758908382776 0.49734794431452023 
5.497819676115871 7.491554727648538 2.925877718507138 1.7597180982047282 3.017210294346695 0.5185065922360824 
4.40271060362085 6.912255658936015 5.392875591626584 1.7793332836555638 4.323412085104859 0.47522248718836085 
6.851398406140275 7.152269449900086 16.323855526284454 1.7830978826669694 1.613697789984542 0.449172693045711 
6.202562667936621 4.0227146535648926 36.3189176395127 1.7855888766508818 8.871942994673052 0.39019247140336133 
6.455232184870367 7.394550083126803 26.904837143792093 1.7893846457621694 2.0858610407008022 0.29624193478106403 
7.141745577708816 6.909171784433705 1.1090901986926482 1.811252323366147 1.2578729412469034 0.3656338484956884 
7.045922190029026 4.484053460946078 25.013481512229895 1.8116387505107692 9.981200701418281 0.5471616694239373 
7.403075836809075 6.492501872915452 15.735138148281116 1.8121723851568239 0.7650237009638197 0.31626161760139065 
6.535992630264527 4.096230574882749 12.662080817251564 1.8310482588623354 9.440995361850561 0.6481575232594309 
7.342985928450268 4.840101923975986 4.103654163826512 1.8345350029347385 10.574661240543772 0.39734973579550725 
5.378773178911146 3.9458499601668926 10.372749089897333 1.8419464484413064 8.306181129599853 0.5697843746871936 
7.578213571385362 5.975469549619554 19.915214303506716 1.842064434378794 0.22603637218169936 0.5395484669564465 
4.817229145574359 4.160807993282544 29.492976464842243 1.8427134072016176 7.705532504752441 0.49676030314709396 
6.242806678796655 3.974180830213675 25.866938045134315 1.8429303151359742 9.183481629956987 0.4263155274970895 
4.02681089062321 5.094746094773454 27.094771212434146 1.8435667568573195 6.461634750296094 0.6615389355062959 
4.020970243519434 5.091579407778673 20.24460325338333 1.8501517708167425 6.485598975430598 0.6411083285998899 
5.901656024720618 3.903363769586596 30.639453211564565 1.852853182880255 8.883190793153283 0.4622783131458405 
4.268621531042745 6.8665540000460314 7.419184753871242 1.8550404317181157 4.629644694896978 0.429140055158698 
7.022678806855241 7.101566165616814 37.71967388491089 1.8564596536037692 1.5138501858336788 0.43241959227142174 
4.667924655023359 4.241478357326748 0.14159030717689802 1.8564817797705209 7.593271877364465 0.45774511687675223 
6.23160655948849 7.550995558678516 21.469116214517577 1.8642773078386405 2.441269026250202 0.6408516047630233 
6.077168114784245 3.910021692109896 18.935837896445513 1.868838984192487 9.13555898665362 0.47580145508292415 
4.060032390302213 6.549993575961728 27.172717652121456 1.8697540596045485 5.047342209697575 0.5568460128067869 
4.22445735844877 6.833364687504974 23.31835635333327 1.8710850855382974 4.722781144544188 0.511645199478793 
6.004698264993957 7.604270914474248 5.684004881362775 1.8716815515616123 2.684539544834834 0.6557921289814664 
4.463539365435 7.11449794924328 0.5138075822673613 1.875322803619285 4.363436577052733 0.5815784718861771 
4.14419761441213 6.728216332184875 10.467327249776538 1.880294789152201 4.878337157553158 0.6116410943686175 
6.408223989016484 7.519704028332534 36.534463644723374 1.8881501973130113 2.293556731337228 0.6060024309950249 
6.433565017688689 7.5111389769771435 11.955706805101151 1.8891457407081766 2.268027939637392 0.5315939336619065 
7.065745244035176 7.112067729336173 26.164073150285823 1.8937829987884531 1.5201302659423668 0.4220780616474556 
7.6088169799445176 6.118951962276752 22.99754858203935 1.8950794483076225 0.3713234301172026 0.6506096350692828 
6.313855537705306 3.940199615495688 7.9229724044206975 1.8956029381579067 9.505338467153118 0.5750283258407783 
6.701983847586744 7.390571838052882 18.042559525073806 1.8967733659766193 1.9821401437234325 0.5926983337227586 
4.471851292371839 4.346648577911492 7.993935483782877 1.8981726298441308 7.542670304008556 0.4670887104820541 
5.61598006158619 3.8557968981787534 28.95848121469875 1.8989383178085784 8.814404555702144 0.5512869057407148 
5.474580543539484 7.63031602598902 30.971550798618967 1.9003800237289772 3.2615028117967615 0.5693400820079351 
4.103156730085419 6.700446068253494 25.94037644784595 1.9014311673898359 4.978246350572922 0.575736792160481 
7.265470043546792 6.898581643644432 7.731151236680979 1.901549169757296 1.2332323285191187 0.49094150892026284 
3.93064557285277 6.310870049719412 32.63018889746168 1.903844989554683 5.411788308323204 0.6147032986943471 
4.703249496798228 7.3440542815570415 31.847076996420583 1.907012236065491 4.103582709711921 0.5037859384196837 
5.2476318777008 3.9092205009542935 33.8610616124163 1.9080992884044017 8.4833452517209 0.45400904505538797 
5.17924203465225 7.57103367212421 32.7036447801193 1.9083836852211051 3.5773108685333774 0.6487405014950658 
7.603241138711918 5.285465995996317 24.159996256439996 1.910574405536183 11.535255887263148 0.6088491829341524 
4.959284970100544 4.009187137850854 3.57656061685649 1.9119779495414682 8.194794492025526 0.5873878126674623 
3.8395689603055576 5.663472047007959 39.97723115010552 1.9123895638904178 6.09450650827101 0.622579027729075 
6.246478312272389 3.901801850957126 22.522469535140495 1.9137207509671692 9.52041984341481 0.5632572701837908 
4.3141834526070175 7.018217497871225 33.31561230822563 1.915709993624885 4.6323714757429855 0.6541058097680215 
3.9338825880740425 5.137668727242582 3.6001798228847335 1.9165677763902165 6.644333703402861 0.6439544943148813 
7.045460624270445 7.1659444305913365 13.292984559675759 1.919144825060837 1.5925157439252686 0.5296100405661586 
7.668535729468582 5.810735218353733 18.329661874422115 1.9194968382354818 0.06074535726849817 0.6356521490562893 
4.356746029359639 4.429351442609717 15.68834804351524 1.919705508363761 7.487320000773096 0.6327349573017973 
3.9272362843839925 5.147080773232213 15.126928557600621 1.9198904023335663 6.644810283813985 0.5795367286674222 
5.530563469877384 7.657396355646401 25.422066212477333 1.9199774082747492 3.2358105516151614 0.6089388161869809 
6.809499519437329 7.35355678434336 35.00117784704798 1.921960871688482 1.8968274795116482 0.5962733714404536 
6.819662119572769 4.152165583313065 16.398084740301556 1.9228239319288118 10.195413405411475 0.6056912106069097 
7.210719872561306 7.001098936531224 20.624820443441685 1.923265736991399 1.3621578651732946 0.5168695545492161 
7.669318120710834 5.900976901000862 6.496071366117512 1.9252470161319006 0.15113207249165228 0.5746157144838157 
4.896158712366695 4.024256426948241 1.5706157583209404 1.9254183504882134 8.18868175038919 0.6078088071231811 
3.8303038535337333 5.905282516198697 38.278829670409856 1.9259662392146006 5.895150141877675 0.5811168236640081 
7.670337129722407 5.59189839069352 3.5131285770951735 1.9268344014615757 11.948378045459338 0.5619876729853437 
7.361860518581643 4.691137040240418 23.242905573593248 1.9285448138202812 10.996487275562291 0.507335976951193 
4.0051466256637 6.571596239960206 29.172943026660384 1.9286092604385987 5.210177957930183 0.6202322331759696 
6.626087005789982 4.029903880085405 1.681843839285527 1.930352067230044 10.00591873169957 0.676639157150278 
5.0961896356254295 3.9336794113318074 31.976100467194378 1.930411477738249 8.429846518767608 0.6194452013850356 
3.821408447951497 5.834814892307927 26.38709291897164 1.930455630308569 5.979863023871351 0.6303927708165579 
3.9099022842113786 5.160766109292017 23.30439458498944 1.9321377232509505 6.66876188583079 0.6140566340631913 
7.326976459760605 6.867954802017796 34.290690714210214 1.9330488079698724 1.1920908076760988 0.6124185237997177 
5.283579373553105 3.8728910261431917 5.341699498915482 1.9341887965007134 8.643586311535142 0.5462002809644447 
7.130712973342316 4.3949862602548935 22.266629115750128 1.934536262170808 10.65384096094709 0.6391208534137015 
4.464104061857348 7.196355962628103 28.49696681949866 1.9353226951497338 4.446469201261481 0.7708607296655602 
4.772926645422357 7.421251641240024 24.64357358961145 1.9359117718979546 4.0651087116727425 0.6940965198200203 
6.012213873775666 7.668550113474843 16.883952118807166 1.9363859774112113 2.778646053309881 0.548036826797365 
4.730356700164501 7.396486633995544 9.916069096695779 1.9366441838462218 4.115901281073381 0.7049216842920631 
4.114486937243468 4.712452039291775 37.65857223897182 1.9368553764329028 7.179755528276688 0.6671557215514317 
5.230379441542728 3.884050142046993 38.800366609554835 1.9369497662991388 8.601596611064902 0.5509904531947591 
6.179631501187384 3.860415107222644 17.317606100919633 1.9378117281678675 9.564954115968588 0.47540945518880234 
4.486770424327787 7.219575530298871 13.663698639421924 1.937885755173977 4.419988903246757 0.7886658784473435 
4.507147729238113 4.262848328753031 9.684533000823109 1.9381181233946057 7.783947380420901 0.6156250903414523 
6.027103090908393 3.83170675723166 34.68001597512422 1.938204088387406 9.411627472935537 0.49498731485227965 
6.389862097262125 7.580690469234634 24.75935673799777 1.9392913906010112 2.3941514009321754 0.5969688580502662 
4.321564572041726 7.062535197399412 3.7313890177917273 1.9398908258607357 4.6527383122619845 0.6046122893402324 
7.189056859836861 7.05219171036641 9.365971378747922 1.9407699236103497 1.4274587050330751 0.5883416362958472 
5.519447134870107 7.6775525264961555 12.453858680399954 1.941291674638644 3.280472140343088 0.656572444099929 
3.833165053089947 5.4352603200169884 35.27754201703412 1.942502839084533 6.4186860029208095 0.944420244532953 
5.5674522320067 3.8157103048638117 0.7680820547826599 1.9428845339621683 8.972810240785567 0.6540735209403972 
5.310662100461627 3.856991823456579 24.944400012987366 1.943321318369928 8.714516832507144 0.5800798571080423 
5.119754539995629 7.588636533479842 19.223105951453142 1.9436547126747825 3.6949332799680263 0.6550769439842344 
3.9344115009248144 6.44433848250569 2.9123044353783456 1.9438280598505622 5.396693669822081 0.6738546826614837 
7.274316446859799 4.543675328339605 10.213507501635057 1.943903249553293 10.912524898595475 0.5788984180472853 
4.103874193254241 4.715773078815158 29.0546533479744 1.94405645394825 7.197959824716836 0.6859029889802453 
7.633374066263578 5.265506801431404 1.03315129466516 1.9446931719254377 11.729216992403526 0.5938070970395227 
3.943301815914439 5.025039752577789 5.644461735994227 1.9467217799985022 6.858664725791918 0.7148031000532056 
4.536748989537775 7.272514018438266 21.696243994117467 1.9467991552105854 4.367892961005133 0.6869472026441512 
6.951432162444813 7.2840117762164605 2.865394043085999 1.9484946421603537 1.7660881311207817 0.6343738186281469 
3.8134730905463687 5.970898189671952 24.739922204888202 1.9490850369438448 5.901857395329884 0.5893737222694948 
5.024961928577865 7.559214878233257 6.192416440779269 1.9490866272775327 3.804513418065838 0.7677296296505414 
7.080002076190558 7.175962986794404 30.977651157573305 1.949942553609931 1.5993496128263676 0.6027567189824982 
5.684822101504329 3.801143230349296 12.07205921034501 1.9499463754333581 9.1237157705237 0.5556166091983382 
6.47894711771007 3.940945632009419 29.817315934110063 1.9503952437297454 9.938103369764217 0.7364729389344993 
7.287614562490888 6.950656282468121 35.98017462116861 1.9508546976682346 1.2933358446265864 0.5140911577136056 
6.059782765678482 7.67661498540875 15.571275750607008 1.9513612335784924 2.754092106757895 0.5728290608277472 
6.6947307568208 7.458549031282209 23.031872314727686 1.9523462795258861 2.080607983267763 0.7454741887269669 
5.438927215805073 7.677721937980748 35.74657745410453 1.9526592501609257 3.379633795323427 0.6289943611548511 
4.850858322148771 4.016038025443327 13.057173771862317 1.9532229483747103 8.26997271224954 0.625948710770731 
5.951317303618079 3.807101035573167 13.483155556738907 1.953301062997437 9.406389835926975 0.510050563898688 
7.254729067568991 6.996099272367998 10.764304473616605 1.9537074917661277 1.3512912682210434 0.5442399534415898 
6.793062985122431 7.40220750978952 33.54736810229007 1.9539114735159842 1.9688959103990396 0.6812169072611676 
3.911967863041455 5.08639977066221 36.70382782048853 1.9541564422710807 6.81622902141156 0.6178345211569987 
3.869939859804658 5.215845285324159 13.32172615423638 1.9544685697042439 6.681182343363805 0.8072466923512696 
7.468910386617059 4.818940096838288 32.68997375222485 1.9548722363611144 11.31239601257108 0.7964267355202514 
6.893609765513829 7.336314801401331 6.773221889230683 1.9555658886684302 1.8502901557117628 0.6988068907721994 
7.608626408114624 6.358378770387491 11.972804481355361 1.955662765713779 0.6186450287758518 0.661003612174723 
4.912793766131109 3.981448159788725 37.02928466251314 1.9567038328637325 8.35563218246226 0.6062600729390281 
7.623838890155554 6.315125307001461 26.671616004633584 1.9572017777615305 0.5732879878095609 0.5276579122198385 
6.929410893076694 4.1875493446872465 3.179967905363881 1.9576164345946856 10.49083679140188 0.6410477370158498 
7.545667130522539 4.969645619826693 39.518911791788945 1.9579002534078997 11.49920141818672 0.8265289626530676 
7.668503127053286 6.141388540091027 29.946000079335732 1.9580192128341884 0.3940429379110366 0.7050149998089104 
4.026440797281635 6.680316601503202 39.512097907815416 1.9586080016960088 5.183733223117452 0.6481624268114021 
7.533495438138972 6.559526223565199 17.269993834611824 1.9586190759058424 0.8345506194048937 0.6112782469226264 
6.457389739210757 7.576571053239186 10.015946380901369 1.9587654417188316 2.353075830076344 0.5759028133426396 
4.5783901730303445 4.1785642366120825 28.130408434595175 1.9601224311523053 7.9810919909177755 0.7217980102915055 
3.818593193514136 6.084557133465047 34.32777943629348 1.9601685457358708 5.82184797528614 0.6778068696105147 
7.2243584976537605 4.457484893695275 0.5582925788319599 1.960695866173481 10.908163566970728 0.6395948131393095 
4.494469604408523 4.242484573230342 32.747200017655786 1.9618764834215734 7.88269712655304 0.6762312815062399 
5.245406810008794 7.646098058415212 27.96929668126584 1.9620912655917513 3.5923733484253972 0.696389716348615 
7.690739190546606 5.459083898207974 38.021190486453 1.9624221727256774 12.038269849517174 0.6533150479990266 
6.205477495135724 7.659139215330149 13.76548177653499 1.96272063526283 2.6233662937590196 0.5608035736462039 
7.707991142371182 5.900798398197979 4.854770125546814 1.9637895687937341 0.1509469931149745 0.5779840422633993 
6.923845806158793 4.175105689337902 18.288341039278464 1.9642316732993692 10.514349001710828 0.7032282796392033 
4.188533439447911 6.941785116242813 9.142029972188062 1.96431402352584 4.890487901087576 0.7351195075839266 
7.552636094509812 4.966406134914979 34.34602279885138 1.965582924892377 11.54413006645314 0.677738002451387 
4.911632577471933 7.528232454433561 17.950501780601527 1.9659528471347334 3.9542257032443704 0.6864135808362486 
4.336125864451699 4.383001439051868 14.21553811673057 1.9666532833234018 7.689881777701457 0.6164775928482986 
6.245050769854338 3.8461968787747773 27.317277183360012 1.9671150421671526 9.770242446756294 0.6418398897231284 
3.890635918327419 5.106523287367914 18.397631459647386 1.96756119800984 6.836813260281575 0.6802643725888411 
4.766018075035394 4.044881548349721 26.56873701358883 1.9686668999135661 8.246738508789091 0.688186290114511 
3.9429183300030566 4.966931982545074 25.81499035619406 1.9694516196138794 6.992538277792338 0.6976444973125926 
3.9984047223161276 6.650614540359104 12.979358783807918 1.969566593723269 5.252193718231114 0.6008004557470901 
7.453496621081098 6.73976500883328 18.783202067941048 1.9701612905408183 1.0369873771557998 0.6054253875452367 
7.3626511180182925 4.616480482210238 13.936739418723938 1.9711697353743978 11.177559498531986 0.7567168642644425 
4.106802433359088 6.839907641301989 20.269284931001977 1.9718004233651738 5.03979398491877 0.6624832278763111 
7.390340188271551 4.655366910670415 2.364389860574363 1.9720389279915265 11.230229233697614 0.6593935034885969 
5.374734963910264 7.686048065918713 37.41373301264184 1.9720816313882705 3.4753060500840665 0.7212061740417319 
3.783249269354381 5.900304379861354 9.874816727895954 1.9724857016213289 6.046296370837101 0.6721069122731239 
5.525281000427579 3.7900202029514025 21.776020441055408 1.9728201726481525 9.071488231129697 0.5540596941532081 
7.130824197782308 4.340845527570106 7.062652208634532 1.9729145425867622 10.826631334459416 0.6833440898424683 
6.250026084281202 7.658649005985304 0.47180347759770314 1.973060341958725 2.5937366097040595 0.5219311829423047 
4.254950195226385 4.4621224456785775 30.969351202794122 1.9732720323560449 7.602393349814756 0.76771889068951 
5.06892553944098 7.602081312921215 16.113856816672417 1.973339203101619 3.7950908395412366 0.7235619266124116 
3.9260247558824757 4.99630331333019 39.223605673369 1.9735613460570784 6.973461389819418 0.7321084531504054 
6.186871900285527 3.824924780955201 39.2138406278073 1.9740242288886596 9.742889097661934 0.6484483588530459 
7.558988263864696 4.958549207491015 5.95377591900359 1.9745462506012144 11.592099616865505 0.7125595110080847 
4.29715819746706 4.412048960015137 24.13197973513671 1.975060072145588 7.6747798029651 0.6598564727217135 
6.142330790237314 7.685737544165145 3.7096891569268564 1.9750957670094764 2.7075154100092806 0.6169506856963275 
4.284677849595191 7.074353258321831 35.05016246674976 1.9751153275934599 4.753478274920736 0.6556392662418482 
4.332704755191592 7.125765446863139 2.042905956314115 1.9752104636567345 4.683347095117902 0.6483629797845373 
6.844632546217329 4.1049524895567435 14.641020400832488 1.9759559010397445 10.471621183304782 0.6620886970294655 
5.741707173360894 7.726006030490283 7.34518276629219 1.9760234319227163 3.112223199507051 0.728542137654649 
3.8565277580089825 5.184102715626 7.126992604058664 1.976227939194351 6.7824342841312735 0.6218853258891148 
7.147172230527914 4.351909217512567 28.261171191743408 1.976549538421608 10.865999127051698 0.6361695603561899 
7.5890925024575395 6.474491059353784 38.65014199664582 1.9766508360555506 0.7417794541650906 0.6590202745485645 
5.31817295521158 7.679008054416214 4.775294016672866 1.9767515449882243 3.540411616680773 0.7259906588203036 
6.869965158093881 7.379284150085845 39.66382948137963 1.9770909936230057 1.9149685706906183 0.70198396981209 
4.542618823739391 4.184094757866149 22.56744294349393 1.9773286353387816 8.01916592575269 0.6621327438069422 
7.0253264305086 4.238729679284156 33.860488010125415 1.9774719938928023 10.704684014838085 0.7565284947705017 
7.085132574551336 7.209137672168083 27.69029887416994 1.9777921371995006 1.6410679080710864 0.6647110242964429 
4.942485073687251 7.5574530586718005 29.32912829875505 1.9796380769019197 3.941381282146475 0.6444653203222909 
7.6200020346407715 5.100163333851055 36.17080807754658 1.9796957600177347 11.776683801980761 0.6343457722802393 
3.8164891614433136 5.32427591749211 30.31160280830622 1.979824526881957 6.648877278076874 0.6441810561386621 
7.630193849806917 6.371210956248427 2.1159258636923965 1.9801595806941517 0.6318803947326845 0.5782242203467981 
7.725501698417893 5.611164515609434 31.776672348698312 1.9803742707321623 12.304109059011143 0.9599173716446514 
7.69961232540397 5.400660601084797 25.79634224242001 1.9806630796280102 12.093696711236202 0.7546027363328972 
4.206114777539042 6.99082268859632 30.16483628215893 1.980712630511736 4.88166205541765 0.7395322739467619 
7.034521012921756 7.257829836778341 14.553330442836746 1.9807940451537442 1.7137829098544959 0.5816759752284761 
7.3033523798768485 4.520507495962641 35.2125532301817 1.981049073989114 11.120902753079962 0.7345789478986228 
6.27968558725925 7.659307023791283 31.56964451036368 1.981418717093613 2.5761988412712906 0.6093412516788655 
7.07390924541307 4.275793454835294 8.502385666775453 1.9814188421170984 10.787091773607825 0.6429255034022495 
4.760883486715825 7.467289411078098 36.54411449371466 1.981775567074234 4.148576363627754 0.6220579551070465 
7.368560833169894 4.606301054501119 30.744098373318295 1.9818643870373371 11.233274136029122 0.7017595648699546 
4.71810036815374 7.442309836696277 8.10250966558349 1.9821022762671534 4.198806223480268 0.5571012535165534 
6.647215386726453 3.9821743757072605 10.97862808136324 1.982473931249717 10.273255861496544 0.7076600063871098 
3.893910273337193 6.446931601915059 14.214732916591508 1.982620168154026 5.516438207565571 0.6571013606216899 
5.730989095520046 7.732908317876154 34.11647178957425 1.9829994482075857 3.1338994449865485 0.704445633254459 
5.228267193362404 7.66327013709296 39.400130597647404 1.9831307922105514 3.6430414622638967 0.6400597455405371 
6.654733954239241 7.51477922313627 30.13668719591295 1.9831765514867379 2.175685650202146 0.6753400943124711 
3.7784135655122437 5.965855176327449 7.995349110959076 1.9833674711972806 6.014649095280754 0.6326043391116236 
7.71255701964432 5.462837548266043 12.690803779588038 1.9834546450678054 12.17423785008259 0.936565205167725 
4.648392681716816 7.3999242861599495 11.781163543720531 1.9838822630780002 4.284182275701863 0.631080296851823 
4.349465155082143 7.155509591135231 15.428904403883877 1.9841761672296667 4.671587274169809 0.5632472227266699 
3.9278568681044117 4.964576519266583 16.844511772472323 1.9842115908344204 7.041116279667538 0.676546669787185 
4.331352326913558 4.362423742354343 4.361936397740074 1.9844216011562423 7.770834147319334 0.7046466642865982 
4.919127501300684 3.947213131920373 23.474057276889255 1.9850414607295221 8.497014239523633 0.5993252792048013 
3.9216317440194564 4.97679193822537 10.730191665502481 1.985140092353841 7.030729218002625 0.6766063349020102 
5.546344056559954 7.724823215893432 11.236625724621511 1.9852965716310835 3.322511389548664 0.6872552966103352 
7.735339923257145 5.74059327683125 16.448851310335648 1.9853622080918776 12.464991896948126 0.9427383275279514 
3.9045778101467246 6.486032196459906 1.2402148078934658 1.9867879738483556 5.487676866287135 0.6523661871091883 
3.7839848288885882 6.038881145456722 20.960831615163737 1.9871255544732505 5.952830547455962 0.6216085575267962 
6.615449402422534 7.539389255206991 19.864191803334556 1.987691267476858 2.2268283178317816 0.5903193303796418 
5.894209661628585 3.7673432476002517 37.55931387031203 1.987894419817951 9.512068207028662 0.5458971759519098 
7.7355614025638 5.647807032832308 14.454966315847479 1.9881894994918519 12.389925032033979 0.9612146761063023 
4.408493981841136 4.281722785366739 34.3781834294307 1.9888379460799848 7.899819501758492 0.6648500557837426 
3.771104354038676 5.952499178164497 17.61384228712616 1.9892294726255142 6.046498135474952 0.6629415464017248 
6.027130706704711 3.7800879296044165 4.329863879745055 1.9893101803612405 9.652438390690076 0.445543793644492 
7.528811243652702 4.858916049542502 15.167113020540153 1.9895225676800499 11.576600441085922 0.7089866415989539 
7.686556881759242 5.293432446953867 11.482840059717237 1.9896498402441594 12.0406661368377 0.61701116848831 
4.366591114787615 7.1805945820007375 38.00154433491097 1.9900806520677583 4.655650177944313 0.46122837765177593 
6.107397179424882 3.792210731814545 6.149659508956454 1.9901436034826747 9.737677418377494 0.5812102267721957 
4.560317896573124 4.154591109241028 19.48160680862922 1.990143973667979 8.103172335892069 0.5881999381058332 
6.16861947666611 7.6958764576307805 28.46646294785103 1.990396305916468 2.704738401460487 0.6725317296310385 
5.133908940436655 3.857174455476093 16.565214351306192 1.9905669382555586 8.753948501354424 0.6458253590901905 
7.529411129112283 6.642466611901671 32.463155735850904 1.9906784320346413 0.9254428517572508 0.5308266074469666 
7.6179999755221806 5.061558365561278 7.773994308929726 1.9908228933231418 11.805750940136955 0.6223186534447818 
5.638848755880029 7.7377435638167045 20.42217505457655 1.9908488326751843 3.2384271039432218 0.7303503181179883 
4.342782487121344 4.341206267434174 20.876166206946905 1.9912209594791697 7.820620978154859 0.7232033592435528 
6.701893317419697 4.000984931998198 31.370660078751456 1.9912695939640173 10.37611417237381 0.6548739132461319 
7.315088758468632 4.518513718949438 26.66554947050875 1.9914972463703344 11.185275654030825 0.6115693200738295 
4.0571666692749 4.700153573805964 1.0691537854102933 1.99194934780135 7.363663083257604 0.7229315955493363 
4.183300938910658 4.51887007876597 2.759859144444114 1.9925428053058085 7.586849640813588 0.639959533919899 
7.388538623073839 6.884727319684205 23.634449499755306 1.993091796516763 1.2071975083933317 0.553637097174461 
7.480845068460861 6.738585278654022 5.796616548557687 1.9932700530000265 1.0343911565263095 0.5064993307910544 
7.627453106757757 5.08001349872883 20.72064761115016 1.9934171866320256 11.841721204880079 0.6968176369182021 
4.152758364675611 6.9428877050541375 18.413688871478044 1.993530014442485 4.984055293282866 0.43537387424512425 
3.757175446225017 5.823098179471799 11.707764780956161 1.9941647489539442 6.191738766071001 0.7377460291576182 
7.261032972469109 7.051732929884793 22.264325851614046 1.9944245447334636 1.4182837333967768 0.5613810457328633 
7.39191516183021 6.882528012018722 29.24844048425242 1.9946190354689286 1.2043921049426736 0.556603653641094 
3.7895328468326097 6.119794153248604 6.156108271374137 1.9950386398325972 5.895653643595777 0.5693473900530087 
4.818163074320496 7.514063047087477 22.804236287965175 1.9950535055881038 4.103375514514958 0.5166555817705377 
7.745094133343608 5.741825930435501 28.338213283802666 1.99511087820084 12.527477263672926 0.9830048150999389 
7.55083457796813 4.890512247454448 19.14093749903197 1.9954258628126125 11.649066576809505 0.6951110581973781 
5.299238441720307 3.8061120480830057 8.822900694592708 1.9954664497382013 8.948728208146461 0.5159937843460239 
7.687359367527628 5.271368922999438 29.21900460699233 1.9956074330433249 12.055428383667332 0.6803690335157574 
6.235252060007578 7.685827555188217 2.2142505383126974 1.995719891459618 2.6447041831115072 0.5004423456434397 
4.432754654745188 4.250635090414629 6.226575449339144 1.9958032046500527 7.96636836289761 0.5956319143686517 
6.562048364214706 7.573430689593614 8.219217018141109 1.9960766582412668 2.299128230414011 0.5103484425385689 
6.778423746498098 4.037738117185019 21.367236669995023 1.9973723132411456 10.492728842419355 0.5424519587790202 
3.9666956203225006 6.650157354448563 22.31337267019928 1.9976130189165238 5.341890616135956 0.5619278817033934 
6.379790107982751 3.854076778406635 9.59079869426445 1.997788888318755 10.055075816277464 0.6743759115001058 
7.368613549127175 4.57842870138822 36.991819536205234 1.9981214000027525 11.30268640476053 0.7018365211189121 
3.9086846270530557 4.972956259625285 31.79817380147744 1.9985593003727145 7.076745635556591 0.602329445622655 
5.96648374965941 3.7631311653949098 16.01201192420114 1.9986277741969833 9.635220811551513 0.38782144546500347 
4.8539318366634525 3.9632819943579385 35.23464842639796 1.9988245008081322 8.490065203295863 0.5249129796872596 
7.572893668856895 6.570529216687279 4.02975340922864 1.9990521562470525 0.8455141189104038 0.47355130701411124 
5.269898786352814 3.8093851139484327 20.168678907387925 1.999120634506692 8.93579380556238 0.4970963747549104 
3.929944116605636 4.922883372905893 12.209670897676368 1.9991811657511112 7.133353279486576 0.7115407247935637 
5.5031291114935 7.734031022398483 23.978134679424905 1.9993309714580931 3.388044297796938 0.6751740011489195 
7.704844419025179 6.1700559507708945 10.235358783789835 1.9994658547651991 0.4232088649907837 0.5861066572605289 
3.8475383310824043 6.365430811062259 35.68382581989976 1.999528815722712 5.656118038675725 0.0 
