125

4.750850506980558 4.749009276207767 7.436935478648515 0.0013057165682019978 0.007079307974663607 0.0 
4.758392963502236 4.749788273079013 17.38235420853028 0.008395633665121527 0.05253957271930343 0.0 
4.750688582505567 4.738973505452531 21.274555957886783 0.011047973926124888 0.05275137968339161 0.0 
4.752006447496228 4.737014310111996 22.990799111942536 0.013139785897135714 0.06393411023746154 0.0 
4.763110184222732 4.747701790173401 14.423353642960919 0.013310097624023132 0.08132002430144603 0.0 
4.7606366613377835 4.732629719256717 6.3924909361762445 0.02036824041283747 0.10717439461362588 0.0 
4.771378864834264 4.747822463602475 5.36585974099367 0.021489474781022366 0.1328410720476798 0.0 
4.774675266354373 4.763743898981265 33.452265382639034 0.02824470797983991 0.0143538097965763 0.0 
4.765628478681192 4.77472280524304 34.476952696155976 0.02924835798765113 0.029455237046103866 0.0 
4.772339608520901 4.775242750313562 38.28042874669206 0.033708375105602095 0.028528598185802778 0.0 
4.785570595817628 4.743681592749699 13.293591415171633 0.03612740728313879 0.22064412523823917 0.0 
4.763443427893727 4.71537139969519 20.17622565629079 0.03714654375045079 0.18880462380328922 0.0 
4.7623121228137775 4.78797292073391 32.41470758064581 0.03991905656757733 0.05018851914332334 0.0 
4.7819373198070165 4.780224997977221 37.25046196238796 0.043972069534861435 0.03332463521863893 0.0 
4.799549238650417 4.7545070934799 0.21653050887976377 0.04975380329655632 0.004513280685167764 0.0 
4.774820857357976 4.6920479970117785 19.15769779478628 0.06304371190159852 0.32259792968638745 0.0 
4.7701184919401065 4.689525020365961 10.267275009702928 0.06373364009439253 0.3208062468684485 0.0 
4.805920796399294 4.7860977923568075 2.2989382523582584 0.06655964305017281 0.03815310956649487 0.0 
4.809594231338053 4.7078938528518535 11.307167843251005 0.07296848659821975 0.4135911203307763 0.0 
4.829709413588617 4.752664099501203 29.46810937092981 0.07975392178942453 0.002664595195744468 0.0 
4.751826389351441 4.850916080269521 31.31594687422934 0.10093260600533016 0.15671807773055413 0.0 
4.780412580525108 4.870602179118849 1.2165897146183298 0.12437769358856676 0.1646479309358555 0.0 
4.890258464401069 4.717215934322493 25.009881331623774 0.14403899402069298 0.8719497565954928 0.0 
4.77619640066258 4.608346413267297 8.473624183387582 0.14405551027959085 0.705188573979898 0.0 
4.766895744038497 4.604487033031077 26.087060008013324 0.14649057895548512 0.7072540195119288 0.0 
5.004784992255743 4.705190484748442 15.425614639547774 0.2586953515930248 1.5803941672932726 0.0 
4.761589601667186 5.071191481745824 35.469486016379676 0.32140050842038637 0.4932626232569728 0.0 
4.826949092010024 5.608464394699601 2.919343567737343 0.8619061896332592 1.2768273955258111 0.5861482148835042 
4.844074596672411 3.884493685702944 11.997079381523537 0.8706039339603008 4.196883023133938 0.761501590751899 
5.617831070462267 4.596291888632974 12.624172107386578 0.8813381589150122 5.383112787853414 0.6587445714695545 
3.8657020312012706 4.541375805949258 26.56734753454056 0.9085741312434996 3.0648721728042094 0.30336895834090594 
4.839832162064083 3.8441942411031604 26.93788303527321 0.9102493560512896 4.379427661933723 0.7044450473099864 
5.665011963288002 4.869613455134001 39.64718843570235 0.9227969828782815 0.11995096051301068 0.5335514170762535 
5.245575204705687 3.9623365427448682 7.824119528236778 0.9305957798175264 4.907945603307541 0.5157980001845948 
3.820178515943618 4.699362026020559 20.614594289119125 0.9311993323781727 2.976111945876556 0.5492200537725318 
5.683716979925932 4.752677849027874 37.846052993933405 0.9337208198800213 0.0026778526987918383 0.8076500045210755 
5.6657142455653196 4.53552044771101 26.57398075565407 0.9404967080651316 5.692931588200849 0.5947865598894092 
4.861484690664409 3.815494602254505 14.020405915131043 0.9411318582791698 4.546726480490737 0.6804978496384846 
5.6936381836259 4.651614766310622 10.83696139741432 0.9487532217625957 5.8626298782877155 0.680594199068309 
5.5456648463008325 5.267475227894911 38.73443774231135 0.9491381138294983 0.5473054189426838 0.7855873414040361 
5.12343039087048 3.8773869563986807 6.768173202417952 0.9491595127737151 4.85661328895496 0.36443956871459104 
3.7987688998436093 4.816807810723506 36.96940453754603 0.9535742705622909 2.928879337320106 0.4433111241683117 
3.9037064550136975 4.308208326167183 25.497679969446487 0.9546688679083882 3.458487994995589 0.8701693147108956 
3.795743908807988 4.718799682108408 8.876444388049663 0.9547660171024078 3.03069177884196 0.45790998299079194 
3.859276728816954 5.094457314849116 1.7207734759900788 0.9550072186010378 2.6478432977999224 0.9175924207474824 
4.780857426056597 5.707200815911975 16.73803170958179 0.9576980644886935 1.4734858341934567 0.5712246859114524 
5.685581275431829 4.962042927793433 30.059699806783676 0.9593094006449949 0.21380867523527192 0.382175249357123 
5.160287223387237 3.8824566344341225 9.81966238447815 0.9596703063095042 4.946281802607308 0.675902263936798 
4.762036419207334 5.710780053422921 39.35456324685342 0.9608554451334955 1.4972714697743754 0.5123644329665527 
3.7973223901393514 4.6117108150218 11.88157619574097 0.962662208155972 3.1630618037905904 0.5402183627973197 
4.751084117896471 3.787172545084089 16.733619255057363 0.962828065259558 4.538304482859802 0.7739464779528079 
5.187769356340106 5.608182844715686 36.82080036990547 0.9633897468391159 1.0588538588601288 0.6627747369156078 
3.788748743936736 4.816325718132435 34.81850948029857 0.9635367549652613 2.9606617816248866 0.47976937628072747 
3.8421498715211753 5.074331793143494 2.8227017773214342 0.9640451067365522 2.697852672157471 0.8974078151645406 
4.7852344645927305 3.7855440546055794 28.0148064987474 0.9650993410534404 4.583165796271568 0.6803371489279049 
3.8014977673015915 4.568554548949908 22.721829708779985 0.9657012670285967 3.21637036446399 0.5982856038300515 
5.152310512005388 3.8706440926990258 19.696683925131794 0.9670163182569141 4.97188273217996 0.6299368136112116 
4.753575466282899 5.71844450932483 29.721158029529178 0.968451109556158 1.5176639711657742 0.6335621131698068 
5.187678549314456 3.8859214488974763 18.667061199749448 0.9686042819466792 5.018575146579145 0.6357943832980606 
3.791848659987923 4.605840381533677 18.901095350469134 0.9689354911258504 3.188697458812279 0.4647026156025153 
5.71917107864189 4.735326630638029 22.638970023353068 0.9692821505858443 6.075505437201349 0.5305565817862261 
3.7815305573764872 4.690665323284679 7.8301153130580055 0.9702853524383473 3.1076130549263725 0.29131326626640963 
4.76771794100329 5.72033341481276 31.813084357203326 0.9704951629635215 1.5067313117626906 0.542260486382562 
5.655773111319379 5.1003976282447425 1.6574877937336048 0.9711866077478244 0.35848280049183234 0.6564584719292678 
5.629821717605809 4.3377841989494 28.51406369219211 0.9716008035230432 5.6790414007601004 0.8213877224160759 
5.721243457748708 4.720431984538789 9.803796701452058 0.971693429924263 6.075757301553523 0.568492741659912 
3.776588618466322 4.7090489573653125 21.620845864852242 0.9742723980449057 3.101730118734557 0.4134290824521133 
5.19370165579665 5.617891412878208 0.693035114677329 0.9747341503735392 1.0704495618405012 0.5744621008692302 
5.576168391450947 5.268462897314066 28.983088321862322 0.9753758182997669 0.5466315511838769 0.8102052145791547 
4.790006678206643 3.7753266869902795 13.005200717799486 0.9754940293997065 4.636925216218884 0.6704552044304679 
4.771314993859532 5.72702781087288 1.9228342460391445 0.9772602888597701 1.5137601878530136 0.42651169894123675 
4.793291195692754 3.773319773850469 17.751834563841506 0.977639193044145 4.6503215161292335 0.5811429820712618 
4.856406866302473 5.7240352275628155 3.9704663197492316 0.9798301106465632 1.4324964054010358 0.6327527467529254 
3.7703757086147345 4.7008549931982255 12.9656438228918 0.9808562504086058 3.1306163830916303 0.5063340991085341 
5.7057167744333785 4.975599869703892 35.14562719059785 0.9819826139722396 0.22763307059548765 0.642192399093445 
3.7680168666022844 4.756949407775072 39.80870218598195 0.9820077232618998 3.0781187833870582 0.20373452472575915 
5.7327588576186175 4.7535935383434 36.83110237759536 0.9827654276304573 0.003593546351297383 0.5833648819431996 
5.716807958934147 4.929778474165173 31.064440684916214 0.9833808668219908 0.18079526681994196 0.5768018110841813 
3.7663256561258045 4.724646145598708 17.769669529425705 0.9840010328903803 3.116687076659482 0.3983622805967827 
3.7663800556759437 4.778988082024963 35.87648710031026 0.9840470028263604 3.0624825586798368 0.39202601629999473 
4.9217409259707905 3.7806258903185412 23.68889880923959 0.9844699640791605 4.81182958071853 0.4570555607932031 
5.734604737107937 4.744149873980727 27.560202221672483 0.9846221165045155 6.1807130551058655 0.6558756260410948 
5.5542167954793475 4.181350576625985 24.47319996126741 0.9849501615993923 5.582422018574828 0.7509683163279802 
5.734908918838062 4.705759808016182 18.859512588967007 0.9859020098333942 6.150349970271923 0.6255137217598301 
5.644145422591883 4.334239775929278 25.584032375395793 0.9860794089024225 5.766536800278359 0.6662637100204305 
5.301413291869533 5.567770375216922 15.868147454213812 0.9863087777328257 0.9641518478388651 0.7976265771012 
5.729266222986009 4.630219689475275 16.220041843491217 0.9865645737967108 6.078691479365933 0.8388160937496891 
4.779003430016567 3.7636267777460377 15.069582130121475 0.9867995401966858 4.679190886505178 0.5336735985277704 
5.736983736365482 4.7632872491035405 34.16888633914057 0.9870731719779973 0.013287650423444042 0.41625303934401503 
5.639787439715211 4.318809406395382 13.641918902100798 0.9887603429992804 5.766384853170396 0.6728984915649807 
5.707072876103143 4.501371092436181 6.139864312193069 0.9888401406945009 5.961739778009664 0.8718677704695311 
4.751317826321736 3.75998269736641 29.066405387221053 0.9900181797220196 4.666668587213459 0.5458241653679309 
5.243385686553277 5.608467427053891 33.75837149080902 0.990149361969282 1.0388311635402143 0.7115455205233736 
5.652555046587727 4.342383730754924 5.068620877235539 0.9903315783485092 5.802333894511393 0.8026453785249918 
5.131005661111185 5.664840772808389 37.901616155382925 0.9910090581782905 1.1655961150590013 0.8313448921215139 
4.832923572488524 3.76175663463009 3.608712302181676 0.9917163243951896 4.756373585605178 0.5091908422247011 
5.689039391409759 5.07267673312974 32.09415971961454 0.9929326526620488 0.32864446017362514 0.5392079385205941 
5.742845312283471 4.765735628911368 0.6915992855397839 0.9929700016317197 0.015736287596545218 0.6310197363444928 
5.742953469119575 4.775766564093547 33.04860545573874 0.993287726523279 0.025769454771334743 0.41279203884572047 
5.741851479779543 4.691386175148413 8.743887268939545 0.9935818730253685 6.184211150789748 0.761332164378368 
5.740647682083324 4.673221632020752 7.211439555791884 0.9936185122101027 6.166234257106234 0.8380689512393782 
4.876841388564552 3.7641527321924837 4.730546350455185 0.993973628068938 4.81117856407648 0.3998906009627657 
4.959332228400173 5.721870586415551 23.61554798118175 0.9941591515379653 1.3507107742999835 0.8305939137277365 
5.18015888876319 5.6466348329900855 32.75717794497537 0.994480112075219 1.1172795839880996 0.6571298637362357 
5.074575954558908 3.8099544904732268 22.59680959038968 0.9945024435662676 5.017115567842344 0.6077425332583279 
5.74484636516736 4.737986753037559 23.66351187119408 0.9949188953825772 6.239246246407769 0.9282401759595719 
3.7544167238636525 4.760935004289745 32.62598590330944 0.9956433267195639 3.116970536680591 0.35412385299205684 
4.783257958483416 5.74523206241541 28.58372653404706 0.9957876027859142 1.5309153640945459 0.5077604026478404 
5.744235927888296 4.686697836637127 19.882110134462096 0.9962490874225794 6.196272791473647 0.7571483460968663 
4.774062994117166 5.746000670993479 5.13702892074005 0.9962913049431593 1.5409053879800405 0.41665139529640655 
4.956322499167497 3.775011063546601 10.962079530045745 0.9965803529416248 4.904099833414258 0.5677530691986582 
4.768785710601227 3.7535730431562904 25.3698731216947 0.9966040253017294 4.715172649883036 0.36585276345770695 
5.696595715255521 5.061783407971568 2.672883405074117 0.9966204601685023 0.3171070414316066 0.4456229448104245 
4.814742324615569 5.744931784378703 27.504791636726672 0.9970360194915823 1.501352607977653 0.5039985005515504 
4.760283069347661 3.7529541293125313 21.57691270632854 0.9970988966848477 4.709001104728446 0.3146027118413103 
5.081251847092652 5.690846655783016 14.889152109498628 0.9974568742057877 1.229137248518012 0.82959186184933 
5.747451152231108 4.739582044435199 14.625649292597124 0.9975055563180149 6.257094110319521 0.9755160095425945 
5.465097458308287 4.054034175414795 20.688285148743297 0.9978641209450985 5.499573057745961 0.7995371471624176 
5.0048130522650105 3.7848765703921865 5.745815073341888 0.9981948336785543 4.96154730625306 0.6192831458871201 
4.753384981320467 3.7515108474271495 30.10722066445784 0.9984948902744504 4.708681305703983 0.2982229918709915 
5.743055249196894 4.64382039275448 17.238754728121364 0.998715593626293 6.168734485449228 0.6097783346513684 
3.7547451393051574 4.833979995687447 38.758753508159685 0.9987917087222807 3.0537174303414893 0.46558150919833974 
3.761699119342575 4.6049645459979685 10.762261353621241 0.9988863366899239 3.2836439387611254 0.6763590144593424 
4.785459751671798 5.748440517568405 34.733030399861846 0.999069998103681 1.5338682823491596 0.4167400745385088 
5.094925188092132 5.688002935537267 30.722660181250703 0.9994112729286801 1.21770344903074 0.0 
