431

5.238885960187433 4.216529580631809 30.982194406228857 2.9499047454337055 12.31460275408564 0.7148561375477962 
4.628963248345457 8.800316188727674 31.08691122966013 2.9500158263351772 7.000820420842329 0.6885544751694811 
5.235244079934853 9.281452157866699 0.8301764515965786 2.9500399192113265 6.2246420624191 0.6042739862053258 
5.726146259510244 9.51783058149093 39.94584671009977 2.9511290398339542 5.681215086746654 0.7389882054226914 
4.042478836332085 7.924341184774796 21.710237201843896 2.951228230748671 8.063783792297386 0.725966856430065 
5.976229323045242 9.598065727981206 38.18459312804041 2.9513047032484048 5.418819800760289 0.7441825304752212 
8.851750497011416 8.823197579807395 38.36233186102733 2.9522031360675345 2.2984648022779126 0.7276005021639903 
8.66175052532899 4.500146827355843 35.9120079033889 2.952393837134984 15.99229615572094 0.752063641108024 
4.736929807584458 4.590064664353067 37.96076427117427 2.9525873829182725 11.698654301561923 0.7125729288697628 
8.773938646391791 8.899921159870111 22.70575791727879 2.952708695082448 2.4081485955891537 0.707845979027826 
9.65388090011458 7.285650294079364 3.427990762321926 2.952870725175348 0.5386323419612005 0.6223335433457496 
9.047373380944762 8.605422802707729 34.87888845862191 2.953052357863197 2.0062294008568315 0.6945554919202304 
4.129538454887813 8.112591356209368 35.35206871458812 2.9535527612399677 7.862617288425383 0.733876314510779 
6.341770150428012 9.675964930184296 25.187041770731504 2.9543057361671266 5.050152867863403 0.6098821030220323 
7.843435429306229 9.494728189468734 15.157228750018419 2.9545107669674224 3.520861623098181 0.662523722451505 
8.046147132551994 4.094948375517912 25.579657860502834 2.95453829182966 15.264731936808822 0.6839049999892665 
8.622095323196966 9.035768254063118 1.745135872901379 2.954568904327451 2.6135038904642585 0.6414706765437168 
5.042724423641209 9.16219821653951 38.056954573486344 2.955247896456005 6.462289036063559 0.7634580301885512 
6.849459338921596 3.796379016187027 8.998903773771417 2.9552950912081606 14.025978145256218 0.7825218061057626 
6.085758942108736 3.8701170486560077 16.945555857013716 2.955493528402707 13.257471028332724 0.7998874940283677 
9.423080229643887 8.011006224325254 24.428427965722783 2.9555870164656044 1.3027854031812929 0.6240203075970113 
3.7944987642387584 6.787403188930551 12.239189823172978 2.955737903320996 9.248320295749643 0.7633467813900207 
7.607803944052781 9.578667577950753 29.468223345927413 2.9558734534790716 3.77275023080794 0.6530782089030904 
5.1110451607971115 9.209975205076654 11.387675803970915 2.955951788263556 6.380449686035277 0.6757700775927333 
3.8624755371175414 7.382540668398962 19.036346021440373 2.9559947937916324 8.6490612643328 0.8104546585634554 
9.217674834705626 8.378009260671236 10.808578377014804 2.956320896430353 1.7240901985205923 0.7521649706170381 
9.497353690600008 7.841762338147268 18.327297853438317 2.956331731090117 1.1182374085119502 0.5946219149556017 
5.4089613376630545 4.115316891918004 32.63293843152927 2.95633891390941 12.539523931769626 0.7698611672542224 
4.357152505104402 5.013488660945821 29.213217489900003 2.9565504840086656 11.144319452289714 0.6658287605601902 
9.30703427472951 8.23451383271494 14.433286779409848 2.9567221042335854 1.5552456344479495 0.7110956052204389 
5.185364716183601 4.241133732403206 21.42956131309613 2.9567707926128275 12.284692356083223 0.7012288537013462 
3.818705436131376 6.362013858289483 30.242834661322284 2.95686000113721 9.678357875270674 0.7652183302272642 
4.5040848715257304 4.8261837556220275 23.270761673480322 2.9572290588390615 11.385027284163634 0.5809042688049174 
4.72481577716205 4.594947560199312 28.343653730588862 2.957299808055086 11.705134650394626 0.7240909747547486 
9.588028914949525 5.918028736180066 30.593003195751038 2.9574624775154286 17.738930037594557 0.8133142229353734 
6.310465744015465 9.674924075692552 32.8961629812583 2.957764563103324 5.087213963996994 0.689969524834271 
3.806536137749463 6.458075100781237 18.3053116322112 2.957904605486582 9.584932274948976 0.7707347335073075 
8.887805371697379 8.795071777141942 36.52892491224882 2.9584675730723626 2.2579970747690155 0.7587770500756106 
7.52517517493424 3.894784071162597 32.48000130335079 2.958573060129013 14.726277181017451 0.7976729898998002 
5.838307344110747 9.564893823742388 24.298025307699525 2.9588529429063284 5.574527613028195 0.7491772793832608 
3.8540448674225054 6.142295630157708 33.59358048125242 2.9590303700751965 9.908127578422281 0.722776976231542 
5.638545290735518 4.007353918741753 3.9176961928096006 2.9592970614298615 12.805960805464082 0.7634478976848568 
5.319799300146714 9.341088536362667 25.15620447409848 2.9595969058523597 6.1416076192164155 0.6316671709057148 
7.642840626206739 3.9278358984464496 34.24603057749283 2.960029493079892 14.855776052977735 0.7681260782271437 
5.358622044822628 9.36264940797881 32.87204903808447 2.960045530589957 6.098128996939263 0.6627256223991159 
4.165843740407912 5.3060298543178845 22.458411214929313 2.960221842296656 10.808215057809427 0.6778791304621777 
9.455256913605332 5.54772131420704 25.44027238222607 2.960386631323937 17.36260481675923 0.7778438690524241 
7.970119273522496 9.447438611985268 32.12850801853731 2.9605516558658556 3.392823292778427 0.678172746199953 
6.043232251262101 3.87456879517455 27.428130459588914 2.9610176062191833 13.239809708007623 0.787859776957632 
4.8040297447093625 4.517719056236725 22.33668281694537 2.961398056047946 11.831993230264914 0.7348733298492417 
4.839330925047619 4.486944364699566 39.54657688179553 2.9617692554357493 11.88031047516574 0.7524568198643367 
7.281452820462032 3.8362526586137182 6.458933988314726 2.9618179670284728 14.491585145656959 0.8289711059971 
9.50499569391258 7.838108060361684 7.765433026166868 2.962090549679554 1.1141975600856746 0.6123768392417492 
5.385418457899911 9.379103602212872 18.88045004263038 2.962139182450574 6.07105575958985 0.6299472258509233 
9.683960706745005 6.341915627467021 37.63317026583789 2.962204969921776 18.202696392717954 0.7931214937540884 
8.117608009103193 4.122294481917377 8.868459254959483 2.962294373678124 15.381026335261804 0.7371448867590616 
9.388110380708255 5.402555396796966 8.826461483306929 2.9623020338077675 17.213835785384436 0.6578171918470668 
8.407060069101739 4.2942582466031265 0.16665302953495598 2.9625184610375355 15.7190648900635 0.7385539451088388 
7.590546706180538 3.9087157434508804 28.152255244126522 2.963007761006515 14.815094543842253 0.7667899725583733 
9.14942295912515 8.48858210983328 37.44604821228165 2.963089315125216 1.8579609674071484 0.7508245195971579 
8.94278447637333 8.743133145904034 28.704571704865174 2.963255557174434 2.1861072029830595 0.726571001443872 
8.248706805276662 4.1935458016963825 22.920545921822523 2.9633731044549156 15.535876503285671 0.7021583284148427 
5.176352570932618 9.261232197739748 15.026927141344444 2.963554180705187 6.314079306495618 0.7012416302821709 
9.66301446155208 6.20385051188269 34.02946395495934 2.963769983750826 18.0726273509366 0.7742490674722676 
3.9288126646392243 7.658323541283297 34.46413590437564 2.9638066125929114 8.387893590258422 0.7135964867260014 
8.189590382453748 4.159138099920456 29.03586433289132 2.9639476808029377 15.470482465507828 0.6915625563132132 
3.9285573005510717 7.658382151368567 26.73121270130663 2.964067650914642 8.388654829145825 0.7153441537870651 
8.62896542885068 4.457123365780916 3.790172640045725 2.964421417842588 16.00460094729099 0.7193790777688206 
6.067598455486152 9.63485371191195 36.38722319121828 2.964465011951911 5.345147357056675 0.5969272541001837 
8.44924257100313 4.320867409765864 24.68312934009421 2.96447473526878 15.779297451603597 0.7886470755311367 
3.91099022028925 5.896019769620537 11.626590922638954 2.964668406950807 10.180034492797503 0.8129687414778101 
5.917256325559213 9.595602529776905 22.471604645270133 2.9649478553245867 5.501429155217803 0.745791977646628 
4.464174365444137 8.639215609227854 15.36335123252804 2.965490591747492 7.268137947241225 0.679324889639133 
8.185456338033365 9.346244227493576 20.924072125567555 2.9666511401231306 3.1616534159844036 0.6436730478081095 
7.78971103166694 3.9713797020588046 11.65147502447634 2.9667709364729764 15.042842118905979 0.6868882225886217 
4.480649890018459 4.838571077345209 6.642155568271058 2.967071021737512 11.398264238443204 0.5728752644817923 
7.753172367628814 3.9573316496975846 36.01061439644802 2.9673812215411113 15.006790823602458 0.6976017494447246 
9.525605907222031 7.800160570060806 20.92840169923607 2.967629588596979 1.0734141533888746 0.6243952348106728 
8.543087000532436 9.114962509424002 5.1804281833308465 2.967862642114606 2.736592670591648 0.7548027316638476 
9.528769050220626 5.706490181704995 34.9440011952706 2.9682436179232505 17.58372819823019 0.7752526303496295 
8.035907359061884 9.425562180845649 30.36227377873294 2.968533429096101 3.3330071448332053 0.7145372795696775 
7.542889134652324 3.8890131227625435 26.595469732391848 2.9688245302770313 14.792886956279025 0.7777954704475788 
6.960472476476381 3.788474087971636 24.09805303051757 2.968995518853057 14.201710927281813 0.8215571549954596 
9.717330069563971 6.860526210077349 7.3030137864486235 2.969387779467778 0.11055174776999266 0.6478365739819766 
9.706354253089458 6.4714521132139105 31.44411327531678 2.969447658234293 18.37863187914621 0.779296476958759 
9.714263186763638 6.926006199832539 30.524562184426003 2.9694838647114374 0.1761094184844616 0.5841794806480983 
6.276433118802542 3.8184551044756887 23.119212357679928 2.9695489666684614 13.518072322315135 0.8262989456603538 
3.916046201335117 5.8615953644647565 16.230921252292234 2.969942243446431 10.232566186610775 0.7783210166569431 
8.171032801419473 4.141821591360003 27.367228092023417 2.970173199327936 15.478344321360101 0.7002739754310753 
5.347466568136495 4.131546879695696 0.35691798906847794 2.970420302032385 12.537080440917943 0.7953555068748804 
8.1646629286663 4.13805638919553 4.657709605835798 2.9704411503621846 15.4723457403067 0.7399840435905061 
4.521937762722812 8.714864081784953 5.068652485579207 2.9706821090566478 7.18573597539487 0.6548237774793401 
4.557468687481391 8.75465177709976 9.638093132536156 2.970828555101049 7.132745084167919 0.644883317329 
3.803230113277243 6.369300674262295 10.05290977607622 2.97125979037734 9.716236656969219 0.7618435063951091 
8.690913417884218 8.999732163211775 26.192607550395422 2.971269038965087 2.552194130594991 0.6618334104298363 
3.9023395569580686 5.901813735574832 37.045509701236085 2.9712943203299957 10.194746214379013 0.7870274466014018 
9.558850703915788 7.719918454205477 34.926919212084485 2.971596218313746 0.9880221987197615 0.6695784274945066 
8.820705817791087 4.618572882996588 39.28082323834697 2.971666895688569 16.294654118226042 0.729127826888719 
3.8216983154297157 7.256912238464102 39.69748464878003 2.97185308744592 8.826948778198453 0.8283647135171169 
7.934516258620443 4.024124866491748 23.87472983418398 2.9721160829306115 15.22411994223614 0.7689109165829803 
9.365401477339882 8.161929277682791 33.962410668025406 2.972182560484714 1.4712854697851796 0.7374452006887269 
9.721289955414742 6.671636243621521 16.635521495590147 2.972323144858627 18.597284274490004 0.8171943254595272 
6.184180164585548 3.8319766379311666 31.019283416231424 2.9723748800795526 13.437692594461076 0.8145655371018479 
9.543754075009906 7.765286401945991 16.390094250218382 2.9725188493281105 1.0361417906496726 0.6505686739392956 
6.620889608052625 3.780227219410916 11.57807456929627 2.972577982431517 13.878792706924092 0.7658685466419125 
5.748227111815982 3.9508862440870445 22.216308672503892 2.9729760742464237 12.988050044067485 0.7399379366398646 
4.977755998344415 4.362918989587202 15.287092791281964 2.973046341999666 12.111445664497378 0.6414546966473078 
8.574720949887832 9.0972592752709 11.147439870302605 2.9730847028473333 2.7055034689097326 0.707998891911067 
4.940587600632872 9.109169797959566 20.609010842123382 2.973155792518799 6.6154799071763755 0.7024273049227431 
9.680499670625064 6.2476884284889245 3.4480825104931334 2.973238173172059 18.176674100080575 0.7470234364182737 
4.0476764738011735 7.990339607260225 3.226308336743422 2.973381035384821 8.061691727683753 0.70036996737498 
6.827109759746735 9.722570745522617 24.30086514570747 2.9735707074467066 4.593755540239911 0.6921426443243766 
6.590355788589136 9.719289705380266 5.2401417381790125 2.973578253336243 4.8306068007400285 0.6569131605054589 
4.038902274088317 7.972106463309139 23.268329975210406 2.9738182673299773 8.0831084696694 0.7282797837546232 
4.118544172071303 8.135602428621649 1.603204195834131 2.973962653521748 7.901606283889844 0.7558940439793226 
9.719338363623711 6.58383157295153 15.548132252931595 2.97398424068375 18.51983907576639 0.7040511495385648 
8.317671599724989 9.277369116263525 19.14138853714431 2.9740862284787526 3.020481306607266 0.7127282863630838 
5.996559480905239 3.8729287446990632 33.523927784762044 2.9740900497282667 13.25332749227401 0.8209707289732663 
9.495439556145193 5.605728797781353 15.09917021670617 2.9743562228949023 17.513869844703763 0.7604929106491393 
9.252577304987435 5.142477242065372 26.334880670077702 2.9743944904326223 16.99036284073899 0.7620820131094832 
9.714780713504796 6.508952175943463 9.965303880483184 2.974563620542075 18.44842200659638 0.763048188461001 
6.133744316271283 9.660102297255055 2.6243486101560194 2.9746371960656144 5.293300467797792 0.6046528555065874 
4.239154134755893 8.34506893370633 4.168557495839281 2.9746582765569003 7.661652211409656 0.6850813920219896 
4.045576331650624 7.989209300739722 14.669695891225373 2.974818829604271 8.067493337816543 0.6768085267474323 
7.49106395065918 9.631332283467154 21.663412792460704 2.975105293383181 3.9243350885038986 0.7202459982819572 
6.591767457326721 9.720927833722534 16.385626330964676 2.9751386069808783 4.831644030407183 0.6589220443150221 
5.723935444224615 3.9571776191372177 7.287772390144255 2.975342891780138 12.97339866516624 0.7455721551498832 
4.619264671821666 8.826811426705628 17.745004178924823 2.975429169185899 7.048820814504456 0.6413807478322252 
4.804332634620419 4.498713453660109 11.873608979374175 2.9755524882673647 11.901263125646157 0.677454073501799 
3.7752664392807134 6.82415673116579 5.020988213166561 2.975657738727161 9.274140082278734 0.8514982583689042 
8.970959127792014 4.769576295352083 28.903842892768147 2.975691095737936 16.529893226813908 0.7196229535055609 
4.1235425878350895 8.14930330769516 18.358285613263966 2.975958380898936 7.892456945037907 0.7472108742769383 
4.177112263337499 5.254148751961097 31.956422042857376 2.976125377353555 10.91707055174205 0.7047990889675964 
7.620429416562828 9.596466232328805 35.6066486704052 2.9765781328576004 3.792259880862236 0.7036145781681881 
3.7736444031959184 6.787026469245067 25.075295057978977 2.9765858962999436 9.3141929604033 0.8856036386163668 
9.639074379086912 6.033420211919399 12.610294606082931 2.976615084383951 17.97893593562299 0.7756240802956789 
9.44434686740093 8.015344257113712 38.329398175272395 2.9766761884497717 1.3069311802686272 0.6975747291844073 
4.516952991581647 4.7815138890720945 0.4535119212398655 2.9768165060551226 11.502734925532579 0.6556226154773688 
9.325680264245372 8.24246431824719 35.785805263640555 2.9768403660364697 1.5633418544473372 0.7197915053767504 
9.208499809320212 8.428630703738149 31.279063700950665 2.9769149050585817 1.7834092335486051 0.7534226697187559 
7.220030442958345 3.810306650478152 29.128994345100352 2.9770330207323195 14.500943087805563 0.8586180649655943 
7.717141892701299 3.9341153554765818 3.7589977804646537 2.9773427367168566 15.015409601613161 0.7243398702046492 
5.185746293240031 9.283315531910372 2.534624137350818 2.97734399143442 6.323773184774215 0.6979132086078874 
4.319131132542896 5.030750758968182 3.0573279485696148 2.9774051460223987 11.186624917446515 0.6777166980399348 
3.799935543354211 7.154147148537046 27.594772183555577 2.9776190515301697 8.949067709991567 0.8853348358112448 
7.555820884264932 9.61667441155797 12.465329425433524 2.977779286548743 3.8614897938889143 0.735791923297104 
7.807139679625177 9.534083829884718 20.017491602949832 2.9780307375954944 3.5971759943578228 0.7040206739878108 
9.50754502918176 7.874584836940475 12.428090203745668 2.9780439290650937 1.1531891517798485 0.5947168386446203 
3.8218611532199596 7.292980073284189 13.934921230738428 2.978057162984965 8.809808125424205 0.8300020289107035 
7.019463313202664 3.7841433238562967 1.2499364418599797 2.9780725814842612 14.303668776266093 0.890640403227688 
8.05769906232954 4.074311740337121 33.347547352346915 2.9781511883239484 15.388056583093196 0.7561356024827097 
3.7777622660702814 6.561896360823223 8.469220291359143 2.978184031598317 9.544470004362125 0.795295625916797 
3.895498183455844 5.900228526787037 19.99102075262489 2.9783035737379775 10.218361827442507 0.80549565879259 
6.421069348755552 9.710330257747703 31.243681163786427 2.9785484062315812 5.008295821513716 0.6680617783905131 
5.741753331765155 3.947160122878328 17.882397010440272 2.9786696226319047 13.008083829726374 0.7901203742646583 
4.234587634752483 8.345467136821282 24.18882756768599 2.9787270354829105 7.674244404701785 0.710990687461107 
7.795006559495286 3.96059005299346 29.95480195954307 2.9787323749956465 15.104670341974622 0.7957954117714525 
5.092620644886097 4.274853091562148 17.1164007246943 2.9788015283175935 12.279669934062465 0.7261960588556874 
3.8299542778119378 6.160084035908458 25.854889664144082 2.9790380770239997 9.952765143427854 0.76033500853971 
6.753120480123712 9.729089333770993 33.80346527391839 2.9790909680612763 4.676424669124177 0.7253387233319437 
4.02231900714683 5.55184706403479 2.250268272514866 2.979230447067582 10.592584917229484 0.7016221352337882 
5.573613249023696 9.487197246667105 3.4408988669766174 2.979284235354957 5.889171665861433 0.7105594150434463 
3.9597059841221647 5.705554324207943 12.678956499578675 2.9793636006241977 10.427062398692733 0.6453351511296175 
4.23216779400067 8.343216891018013 31.888643865642564 2.9795669281613004 7.6796046192625305 0.7239598981810418 
9.398369740576904 8.115389690414705 19.893269583548005 2.9796226756913593 1.4183505806294558 0.7146036134602846 
8.706291268668934 8.997859087091921 33.98879860773707 2.979923825082117 2.5467611158306465 0.63603749026254 
4.404363167661671 8.588113941671297 34.48960207052084 2.9800461425603095 7.381314299817777 0.7397525200348413 
7.949090353913 9.478209864196932 22.61061233623947 2.98009173347879 3.4470586720371656 0.5692941683857913 
4.916488877804635 4.4003298198387135 33.45720033170868 2.9803880604299287 12.069854565462403 0.7038283599599623 
9.729007621918115 6.841931296615012 4.341200451613027 2.98042577071524 0.09194588033406603 0.6228320327410206 
8.909317652600432 8.804431078351024 18.367125555973523 2.9804932109512334 2.2667002298814083 0.713656588940112 
6.50483427126321 3.7795094276252303 2.1087654036575145 2.980590625214142 13.800259389154576 0.8035172221336215 
7.039539500026368 9.716514302066399 14.536286098991098 2.9806107136692646 4.391935548877047 0.7896917194659875 
5.5814065701715485 4.008005146760068 28.30813018438547 2.9806285208714796 12.845066840552974 0.7000875790036121 
5.7419584605864795 3.9446812800187416 5.5369436464738016 2.980932885165392 13.018999755706638 0.8149422395157973 
9.73031763837335 6.685433970048109 11.080613301176648 2.9810169402106785 18.665710760018953 0.8799629767655559 
6.929142405929017 3.774360865296204 39.37945896698132 2.9810267126583714 14.227007835694085 0.8488655543371632 
7.076967656010213 3.786897179950479 25.613652418012414 2.9810880849552626 14.375673433178967 0.9069805017904512 
7.511596202380694 9.632302255998576 37.38004876646653 2.981223753832508 3.912762065526376 0.7325686011768398 
9.730241240477584 6.827635652800355 6.177919324420856 2.9812522781591464 0.0776444302326098 0.7073096036662636 
4.6794664531923775 4.605018826655741 10.025162672349289 2.98128385137294 11.760119464706662 0.7859048182913418 
4.575467245491106 4.710487875443706 34.36694376487576 2.9813088412045086 11.61208211256293 0.7022805626491225 
9.629411856133046 7.523705999795773 31.34631783355546 2.981548861139047 0.7826636468083947 0.6858152087210811 
9.721279145300029 6.500070189600384 19.288730118510237 2.9817720686567024 18.484803057899143 0.7603836922035566 
9.083190718140202 4.8932213222275465 30.757437399256347 2.981846070045535 16.73114992815723 0.789180831691116 
3.773549415450768 6.930290023368206 23.32768130515744 2.9819058628316166 9.187533504003358 0.7814946581355745 
8.841691599851208 8.875263142609736 13.813034786895003 2.98193178564224 2.365742664105696 0.6896216701130182 
9.071247286961901 4.877945494423798 5.75561048548434 2.9820759613189165 16.713049802001997 0.8207753059886731 
4.457504310193684 4.842767865306589 12.77595629364432 2.982125232680166 11.437975600445533 0.5594089376099557 
7.6695608393827825 3.913171671703564 20.401262420921668 2.9821447150585296 14.987820450721017 0.6963094636801114 
6.224301584293746 3.814544210589709 6.411247132866741 2.982156856347171 13.524623211499621 0.8220593513164799 
3.8853774805428074 7.579135849368058 36.20439930815016 2.9822019441494168 8.528656269400315 0.8126153978607615 
9.523850724375926 5.654693601097394 4.499496127993588 2.9822716087904966 17.616607668073662 0.7271772378678188 
7.996423152986372 4.0406719284700205 19.455373486604977 2.9822859144422824 15.339590412042817 0.6978010099761778 
3.983354805765094 5.636523998612953 0.43931502561645175 2.9823068984341625 10.510310524214091 0.6655637434463908 
9.35012779357465 5.289154126632331 17.67488445064781 2.982404266469373 17.21235050323355 0.7349399327224683 
4.068902572604461 5.443507832810701 36.16732751956746 2.982483059149534 10.722106376509124 0.6538569746647213 
8.000348835987694 9.457760204140175 5.993106287512539 2.9825052447197837 3.3946929211685593 0.6258293173817062 
7.31259925130551 3.820910868357327 23.083757839779814 2.9826298896572383 14.621302214381053 0.8072830736520572 
4.9343929361344845 9.11676549152761 12.37651852605098 2.982952883007757 6.637571914165861 0.7069057456123635 
7.599881702259847 3.8905593150038165 16.105650653541687 2.9830688793334192 14.919201398722276 0.7311002988965104 
5.564746593838644 4.012437089881853 20.5212770868363 2.9831319655140365 12.838791629658417 0.7017749600749269 
9.732446241328535 6.681338483594082 27.1260202363013 2.983236495192742 18.675560134618745 0.9290917910049594 
7.14576877667934 3.7931212531295433 35.2070733508326 2.983247366258532 14.4551609828189 0.8017286895835247 
9.643011336442605 7.478213140439751 10.461809851585834 2.983254761279122 0.7356459692555077 0.6526508043599479 
4.3146593515397775 8.473415790851245 8.552601653603311 2.9834620933067155 7.535443692762293 0.7841873364516972 
9.085886275822734 4.893981084713548 36.77829491573066 2.9834830161202683 16.742607835394466 0.7821346743361332 
3.792992148897337 7.146792740333732 9.418256464288106 2.9835113390540924 8.97500542769745 0.8480234338358239 
8.995785853117129 8.71431671518458 20.958470280565656 2.983637755427857 2.1441669749094796 0.6310090743953235 
6.377516356426664 3.789594375891582 18.700834750862953 2.983746893418145 13.687117998784547 0.8720410103427577 
5.153565681663482 4.229168750192894 4.7733832836625005 2.983821831605674 12.376432477930312 0.6967818943067059 
9.611383347060112 7.596278276466121 37.43262878458703 2.983907099768925 0.8580550921501349 0.6478791743017718 
9.41199888068853 5.401833601679442 23.651511498124332 2.9839220295355613 17.349692077544372 0.7478312157140286 
6.784192745843164 9.733846304884908 20.002949322155118 2.9840422106672086 4.653129049389877 0.724031458435304 
4.848240974698125 9.049652516432038 26.001795732050084 2.984139589002054 6.749441558769696 0.7951589307374275 
3.7658889392343298 6.730270626387799 6.670470460802292 2.9841762801763485 9.394795796161404 0.8972087398808279 
5.082752081675315 9.2253777151558 28.55201559618491 2.984495008179432 6.457066301036544 0.7594709061814015 
3.9502092104478894 7.784198149071722 12.135390391132646 2.984693330445225 8.32059254852112 0.689412760014069 
4.600330233825439 8.820671751768073 14.33699660896363 2.984754865508262 7.088526261767495 0.6215891170791462 
5.377059059902784 9.400357935160754 5.0976795437791225 2.9848557769957007 6.11524280020693 0.5606788760741999 
4.389244220240599 8.576745795542678 11.70936780944185 2.984990461157334 7.4118345655001505 0.698766028357065 
6.469304952540785 9.721768896141981 37.31488785625751 2.984995826085032 4.969930862373523 0.6964988404923149 
9.690298961498794 7.26526335614119 35.81628671612306 2.9851054100605525 0.5178569701769486 0.6700790719315152 
4.086022545247889 5.402893201240419 10.168335336788132 2.9852089720305726 10.77591763857324 0.7413497493569445 
5.608754273956134 3.991510538536021 14.408136973284165 2.9852480493622666 12.896600491337157 0.7766003172055836 
8.845845878122786 8.876028096229398 32.10518317714982 2.985392002870154 2.3660636289577788 0.6910486071602728 
4.267175286913158 5.092037851668243 15.288786928507811 2.9855078364016414 11.137020404991258 0.723404723901316 
7.030940191830542 9.722366385758583 6.233063776934912 2.985613726283649 4.408434627819901 0.766687695280414 
3.9224853021754136 5.790853923263562 21.59436870893697 2.985766327583751 10.356520811952322 0.8122949849305471 
5.10895489621897 4.2555066998209945 27.448185795387893 2.985887783772463 12.333218873515012 0.7343846920697458 
4.409902375608512 4.895121009348912 21.41807911066107 2.9860731674963175 11.3824210557326 0.6543504922493267 
9.589293740432854 7.675193273673393 0.9090831216346729 2.9862303223481748 0.9406729985044482 0.6067006734408986 
5.695919050735869 9.544066484660696 1.712160537865131 2.986284341502958 5.7681402212594755 0.7168803107221893 
6.589508844639216 3.7679575362072395 14.406390895847096 2.9863580942030774 13.912312465144726 0.7909760252853087 
4.0963503680059805 8.119869687448258 27.644913778126288 2.986368920607699 7.958830282216585 0.7499465222604559 
9.651222354902501 7.458667234600103 14.962195386566705 2.986519780946005 0.7154919702795262 0.6553538747971185 
6.817331229154762 9.73583697023102 11.793554032803208 2.9865960401798306 4.623997155522989 0.7266246820394505 
8.993181341222757 4.778056096361867 4.683153030454633 2.986708102360443 16.612211299707013 0.7256537307781806 
6.039130843621434 3.849080504556838 13.492723037556068 2.986748880728439 13.35696475770975 0.7759510361638465 
9.702016481255955 7.204385612796546 33.993062978586806 2.986782146512076 0.45615685422498586 0.6462967932807846 
9.252777312386797 5.119895979564511 12.319904023872638 2.98682664258206 17.042486579928156 0.7034303144275664 
8.725655115750897 4.509923527861705 17.60660336419346 2.986830383101829 16.233861214936567 0.7571989800373652 
8.493688736041738 4.324968144777564 6.366843164890852 2.9868427991848545 15.937129571970761 0.6956463382725165 
9.094807706065376 8.60061284621748 25.31461681329131 2.9871208688315143 1.9958286951979893 0.7177322874774741 
6.373548910069157 9.713319329340408 17.449160363017853 2.987135228065946 5.0696357945810355 0.7842711815477876 
3.7701902060977375 6.959366190762232 21.7005169598551 2.9871559399653256 9.174889168818758 0.753352952346778 
8.724712707278405 8.991378587505903 16.89665509028 2.9871839998260503 2.5348155269181447 0.5961780893846813 
7.227613184440942 3.801122187210602 13.158600247035793 2.9873055934593316 14.557017696626868 0.8184981128499113 
9.178670869298893 5.010522817023578 24.622493629337775 2.9873438137376533 16.913301755013695 0.7433880270812219 
5.0663822173848665 4.282088756302999 13.60615648185717 2.9874997480676013 12.289698834868428 0.7289834428542327 
9.342335513374183 5.26501493121839 29.825910328528273 2.9875381283600904 17.217117348998215 0.7359926670812883 
4.134411709993721 5.305689394170539 24.07406307295779 2.9878646604104144 10.894108020355752 0.7202806889792622 
3.7701845622226955 6.9696081039180555 29.28498583829853 2.98789687949943 9.166948574712166 0.8162544301378896 
9.587572688930303 5.814082960046941 28.957727452146813 2.9879356536976536 17.82181386885558 0.7723690184322625 
9.313631287371061 8.28493040635012 27.862162266813407 2.988012170310884 1.611994592551092 0.7028228122299529 
6.393307096049618 9.716717632595376 9.188672992754945 2.9880835562749697 5.051216180274661 0.7136700576767864 
8.82521417730166 8.900126409220032 6.121603641459593 2.9882365129452593 2.399929190803398 0.7048788602803612 
4.060005266474464 5.448614168959146 37.92487604256259 2.9882564728665804 10.73437409967321 0.6446989843533882 
8.081444410631057 4.074703500826605 15.126360855856298 2.988303126707547 15.462017438574115 0.7462930885870244 
4.247406263994188 8.383268092850194 20.235403829560383 2.9884009220012695 7.660379365008339 0.6467181256011769 
3.768125445250474 6.9474153762209365 19.954109136586567 2.988402364312935 9.1907836682906 0.8604773640230173 
9.736075976233797 6.871370466870244 36.74900872287211 2.9885415382873504 0.12140385497394846 0.5834356456386959 
7.365426335752696 3.8254861208205515 8.079714544698454 2.9885667140372165 14.70314996342502 0.8546075815553369 
3.7820631873651678 6.399172272966215 4.089658454060384 2.9885998423758062 9.740601814191589 0.7582653051393132 
3.876806555369278 7.572533705153226 8.488586827973904 2.9886120970079135 8.555713169352847 0.7915932455121208 
4.243211814263336 5.122679944517262 9.138497235941244 2.9886715395180614 11.110030523867225 0.7162122290117495 
9.672147842657152 7.3773270054102404 21.8892020222626 2.9887266830646855 0.6320271633438352 0.6611281721303215 
6.976739436713933 9.730392613726305 38.24279573510323 2.9890050023570867 4.468160618083758 0.8129113181275149 
8.481803091693159 4.313780061296882 10.931749693023761 2.98903153849748 15.932626618092804 0.7043184692703645 
4.65791055700851 8.88513827456839 23.09630516365717 2.9892563772622998 7.012828759031226 0.7230355081866046 
3.7659223395110217 6.573684338054623 2.336817988285617 2.989281970051773 9.567524331136934 0.8330890561996273 
7.208587066265006 9.703907255317983 34.69785092247133 2.9892925869452407 4.235164650822998 0.7666086334404988 
8.191952698048233 4.131404400579079 21.335643088101868 2.989359546243173 15.591715713196564 0.7244601268098785 
9.338993314622725 5.2555125406143794 28.09894211396268 2.989377719429588 17.21781220248222 0.7505194549675501 
7.90458641968444 9.507550600861677 17.22514277652448 2.9895075040602164 3.5105006940773116 0.6367516477981627 
3.8457839494132244 7.4590502873588385 37.93337616567072 2.9895188874615757 8.675978354449533 0.8027292779628418 
3.7670419430950837 6.551428042556271 16.975768603483196 2.9895601000041765 9.590698307517226 0.8018526632587888 
9.40787403287091 5.3813060587004085 7.108409641898952 2.989584833979408 17.362441130069598 0.742419991631369 
5.405503144543879 4.079735589041714 12.672432239689591 2.989646102595054 12.69385707336086 0.7007198753533469 
7.455106752678484 9.655341681580396 31.277765924378834 2.989679885773924 3.9843653969313344 0.793307240933163 
6.015424705816363 9.648076948457266 30.311427338453 2.989724211696516 5.4384222760221625 0.7168241506613274 
4.862679630270666 4.431111113711051 7.474335093542699 2.989853482187658 12.046824543043297 0.6637660030567613 
3.7602562002868645 6.778904718005805 38.73843900345821 2.9898835212506407 9.364090937183022 0.8849978165553216 
6.414301327824635 9.721059097518415 23.38604755225871 2.989964173605971 5.03303273102015 0.6576195038774121 
7.530875567002822 3.8638037327001094 9.745590800875512 2.989965809924553 14.879918475548795 0.7127905380644379 
3.792075860071412 7.186584286958594 1.5036495626542887 2.9899700763036767 8.955117278805343 0.8827121268056489 
6.982965475927417 9.730932674624125 22.522398882577065 2.9900221610576443 4.46351399728794 0.8180311907262969 
7.379463066330684 3.826877015947634 18.627806720070055 2.9901290493504833 14.724858701123846 0.837586507120917 
5.121719772035947 4.2420530190885675 37.01282699582705 2.990166309729516 12.368949727008541 0.6853296124263961 
9.190942647807978 8.47722121783929 39.30312635707215 2.990233125567646 1.8414191370823048 0.7250012025421948 
8.252297764577062 9.335524283560957 0.8554308181694807 2.9902900184324332 3.123158487751553 0.6737392069462261 
7.7924880951847 3.946956314549457 17.685124963960604 2.9906245720828935 15.157832325324865 0.7552631409469795 
3.828911967761387 7.391248714333191 31.88704057942506 2.99064461374494 8.749120318226591 0.8052704686385799 
7.743305502675268 9.570973472426033 27.71473405674739 2.9907435787403047 3.685311055979515 0.6583880436021496 
3.7624293219845377 6.887898750421595 11.164523802195184 2.9907515145036045 9.257775327693565 0.9011086206677388 
4.231427881406189 5.136959402462763 1.3446285542138625 2.990836920639672 11.099686562509639 0.7290360046688472 
8.852897614718364 4.623187299156934 19.601614511900593 2.990904652852639 16.426446539060827 0.7005772906262802 
8.34282766595168 4.218406815879035 18.52576042338132 2.9909971620362334 15.774484502307047 0.714660181861723 
3.7735406374193197 6.4550414224572314 20.829882021153857 2.991038431642134 9.692063111261351 0.8214828042656592 
9.58637199111549 5.8004165839404465 6.072033419088392 2.9911059386186567 17.827368542041157 0.7688875421118421 
4.881092290796479 4.414635401314593 25.732689817954785 2.9911108027476034 12.076571625822414 0.7124051906652822 
3.8546208222689415 7.501067432034247 16.48537364957305 2.9912075939829217 8.637963584269222 0.7619781339942068 
8.64910521056589 9.061063189454227 24.351673710283677 2.991256202074452 2.641087805016248 0.7236928359735779 
3.919645256032098 7.7179695997367155 6.842852143129733 2.99129957087485 8.411732392278957 0.7497709695047607 
5.449613346477159 9.443866837398065 31.186245704680367 2.991308072782438 6.044014532130138 0.6092407173962446 
5.254829916798444 9.34102723342905 26.89029975210933 2.991480520088998 6.264683808490247 0.6997627742778182 
8.335433131285816 4.213110427233033 38.493569867038424 2.9915559359959314 15.76835214662314 0.7333025433428356 
3.9793351989847103 5.6215476550984675 34.46774080513397 2.9916530771964283 10.555641150616776 0.6550453448901314 
6.463274625777975 3.7720090677993277 0.34085542200219265 2.9917622620275477 13.81118138942744 0.7823185672969426 
3.932743329108364 5.743044532742708 31.052503029214265 2.991804549552456 10.426037987933366 0.6910490761519257 
3.9722207802822833 7.861293687529031 10.999378660932749 2.991827376944973 8.260524529646844 0.7158714599330553 
6.1975046134647656 9.69057633714535 26.936836644091336 2.992029469561065 5.255553272443713 0.6350692282671181 
7.753790028126742 9.568677601390752 11.47413010672414 2.9920791836361245 3.676304928708369 0.6427879728581548 
5.5852647690773765 9.506211426463265 16.814447988739467 2.992208145420209 5.896505726795475 0.6823276295838862 
8.624659701628437 9.08220088395672 27.799278153667245 2.992241627950209 2.674265269205531 0.6564965784944058 
3.771414605659796 7.036989931446602 35.27625258586378 2.9923793496360913 9.113405256746013 0.8286266797937804 
6.162905471594021 3.8155958681442925 36.868540271373 2.9925587035739314 13.511173305114589 0.734121953459734 
8.733825210810172 4.509418516398405 22.10331629671265 2.992618895165963 16.271116032673937 0.6780261392905795 
9.638136471619573 5.966140072974575 24.517025422951804 2.9926190308650176 18.010068253822066 0.7808318363140034 
3.783510951802521 7.145219850889577 33.590893575916475 2.992700453371966 9.00546801302302 0.8461236874359431 
3.758901299967331 6.651511655256936 26.72336160207619 2.9927197308447306 9.500412451607545 0.8273086984215166 
5.5891725797034795 3.991544213124632 16.069436092488154 2.992757696148902 12.910935734413215 0.7759861582878355 
4.594566212882105 8.826297793549205 3.279227912710894 2.992809271929419 7.10760157529527 0.6496175976179154 
8.22168041523551 9.356012234155347 13.17024210516989 2.9928486445450435 3.1625976933624607 0.6697273351077208 
5.678704728764487 9.544606869421337 19.94356214908354 2.992908470499642 5.79685064193437 0.7023167656427897 
5.451864255522985 9.4468860684276 23.36745452946959 2.993050430107677 6.044195394127836 0.606909625140878 
8.919353310194621 4.687878484201841 2.826568033968247 2.9930651396804047 16.53106748715462 0.7127061311740566 
9.237871797127527 5.08588548663532 9.765411864692005 2.993122649096346 17.041776342560116 0.6892072356008243 
6.721627347542002 3.756983819963331 7.283959309751907 2.9931506579804497 14.076517099918497 0.7733754195244528 
3.942030546617314 5.71342258506942 6.648634606162496 2.9931898015786462 10.461885515363253 0.672888547668339 
3.8116274944487216 6.179389179142598 7.532407665584159 2.993264052879273 9.977740990021367 0.7236549173287734 
8.914486370496464 8.81761671966931 9.161621641169155 2.993332615584348 2.2824547723024367 0.6682382320437774 
9.73340360113661 6.505133196798088 39.24727580451714 2.9934356179121697 18.563169978160605 0.7677585342367743 
4.865544918773679 9.075859119129731 33.72206596770574 2.993458133196225 6.74048144294273 0.8136160757630807 
8.535185622177783 4.347058203355564 15.996670009499496 2.993495779801779 16.01921775183508 0.7986702522120854 
6.651066937206627 9.741879874415517 3.537677271921517 2.9935151467541083 4.801153678231415 0.6702520103828254 
9.733272856067051 6.997745038577541 22.812724258893333 2.9935421389862276 0.24802872258745978 0.5823150566270964 
3.9467830871897362 7.800406632153361 32.851668742095754 2.993556271917611 8.331282993750765 0.6657432725352305 
9.664247014976702 6.065456215445085 14.208312731860225 2.993565742934899 18.1184737095421 0.7199110559332532 
9.541728259147545 7.830652835856684 28.7851019130293 2.99358601422576 1.1056169947280061 0.5497192115523988 
9.366051187467884 8.205419515984934 26.195320527004434 2.993654920487988 1.5198767258667338 0.6487919924933677 
3.7845759003755735 6.339321453503855 14.23433782218003 2.993726266575742 9.817046067412459 0.7702075577892246 
8.429703477903614 9.228108495140479 12.15591643434947 2.9937310312332506 2.9192293359333004 0.7144689398195524 
3.8250901020646015 6.111643071311493 1.4274139552559753 2.9937597564676235 10.048469650842154 0.7922445981068055 
7.397304517271783 9.673016039875282 32.95293858861066 2.9938313091169046 4.05024220109572 0.8143512794021501 
4.345665181804701 4.966034058486276 38.80556186585139 2.993887171966767 11.316715453899196 0.6100111566440021 
9.721178576415063 6.381683756341932 23.610979084285226 2.9939203376660224 18.442104615683352 0.7839068581906232 
9.16108575522695 8.524922198150882 23.589822508949787 2.9939411030524736 1.8998903703904375 0.711138847905969 
4.647322235635379 8.881317796747716 29.41718956397939 2.9939554658489733 7.034089656969254 0.7231128942673385 
5.487038698355141 4.035374188104587 26.53834809789427 2.9940381674356296 12.805295648098515 0.7654646779911686 
9.634836446871688 7.551598063970399 39.291413430227976 2.9941343960083637 0.8114966020171508 0.6467565728032327 
6.744399082188046 3.7557363512905084 5.55686512556283 2.994268887101393 14.104558786807157 0.8365059141168181 
8.803214213984205 4.570507426122282 23.758623881838673 2.994307346966056 16.37275891258248 0.7157351561293736 
5.240007814910474 9.335725909516121 6.849947133114977 2.994337135022443 6.286153728162134 0.6907679459337839 
8.751753437457168 4.522955258111914 7.323251824156756 2.99445238845819 16.3034815935914 0.7527794247582557 
9.743507446713071 6.8255799160122805 28.86677242302728 2.9944614135485264 0.07558794304535255 0.6615947787328811 
4.941534669497226 4.363215304567383 9.06407908217109 2.994543042599634 12.169758360792258 0.6419255320716727 
3.802882446956115 6.218511898271405 39.63694211831528 2.9946588242633654 9.942316767047217 0.8120226164109066 
9.338125422909982 8.256533061798233 17.36668190008608 2.994667773059998 1.578637593344503 0.7105342295171228 
4.323537380272093 4.994836389287409 27.444106437704228 2.9947153696647844 11.283529207170943 0.6184577514364482 
9.729278849102457 7.053738020059065 38.34314692402378 2.994721897862746 0.30426120028996095 0.7351526010670705 
6.7921883700976196 3.755348616958438 17.773204312422617 2.99494854121473 14.155552267899601 0.8081911072075149 
4.469980281970738 8.69197385059745 10.695726370406362 2.9949544822929326 7.295984280784424 0.6744026291612235 
8.896058582322837 4.660657013060947 33.423459249179466 2.9951496716913697 16.506800539243493 0.7524697709769375 
5.315108833632372 4.120908646073094 23.182765640897742 2.9951684437795922 12.618032619587982 0.6959880922926984 
6.155758269645242 3.8142368109865394 29.184589367853775 2.995301109414795 13.516813368123579 0.7591531733001174 
3.7553920646744636 6.677498336147515 0.5952328198396799 2.9954854660932764 9.483103878709947 0.8341514356270399 
7.944484997650704 9.497044532674632 38.36777316412298 2.995504644314577 3.4766812992404503 0.5865076908482266 
4.381648641989884 8.584129092620383 36.21255959254937 2.9955162632482626 7.436779547411074 0.660549635319161 
8.184205506073283 4.120025557812978 13.512191250799091 2.995615295762769 15.612068985732314 0.7112565273504966 
5.001053265363451 9.182094144634473 16.06441794732373 2.99564627567427 6.5731487348074396 0.701392515798441 
5.982649715465424 3.8542630367760644 2.961813504591369 2.9956833977169017 13.340825781106076 0.7591850861654569 
6.245159931180417 3.797108674188884 8.179992189408225 2.995735415075285 13.609809947224065 0.7860133449028984 
9.545567542039105 5.673142397952912 10.583190524269227 2.9958004234576707 17.721659628019843 0.8018858279127387 
9.032438201208269 8.69051588124001 8.138318951734135 2.9958514695624556 2.11089742933396 0.5980289104514385 
6.638549361766131 3.7561723827008002 3.73319635730887 2.995901374689451 14.006376263741348 0.8518853856300788 
5.840290546861937 3.8955412246144405 9.1967828664515 2.9959149169334536 13.193613268830195 0.8161438264497232 
9.68355078392176 6.141705704872717 20.251947389776845 2.9959542972703 18.211582780782926 0.8093552513081318 
7.214066505303201 3.790168511375608 2.8170989443109207 2.995990681293385 14.58421600672046 0.7771827879022106 
3.774596541783799 6.3988231982233685 36.08263731147167 2.996055888208862 9.764373112722211 0.7621993518333844 
7.072699711908964 9.728636785353984 36.45677448820296 2.996066121288056 4.382882727970731 0.7621499277545289 
9.719039697362096 6.3482539096623825 8.964558802479232 2.9960969019064674 18.422072191791315 0.7957834227295036 
6.3017772430654695 9.71240890213705 39.12384732306643 2.996125855716821 5.156215211706037 0.7049262628034586 
8.174217271514625 9.385980473350557 28.65213759992117 2.9961288177189545 3.2221318987147107 0.6874951009350784 
8.986301901989211 4.756000094975544 27.270856509750345 2.9961778682311415 16.64377506418886 0.7365857230677655 
8.998172312752857 4.769346455607984 21.120860044405788 2.9962088062652086 16.66180848364416 0.7558935938051723 
6.5454513529195175 3.7607509152876517 26.563890584727005 2.996239349497311 13.914737425952701 0.778306264885492 
5.7007165502733415 3.9434891913720893 30.0718591860781 2.996247432508798 13.047474708743817 0.795040878412642 
4.006241811954688 7.953897352536497 29.3206368303416 2.996260641184289 8.174131811568103 0.7070621270352765 
7.124715679189542 3.7771956188246847 4.607518618828735 2.996327373463325 14.495559447181996 0.8298625248167302 
7.23175740454403 3.792651586519373 36.85110080271291 2.9963310624077204 14.603735059854536 0.7660447078614794 
7.904028783573352 3.9847397367738413 7.247277836729722 2.9964056395443848 15.304878953133148 0.6863935541944381 
8.04629554484281 9.451562388752034 36.54834696761276 2.99646816767656 3.366271484849932 0.591778290208396 
8.311076286181994 4.192224243752385 36.81090544850656 2.996527321839035 15.762831446251408 0.7145490248142328 
9.483980278479972 7.976630356324733 8.821021561402347 2.9965430406010807 1.26376165488535 0.6199556765805856 
7.597919193644817 9.624107843300397 5.075769260363288 2.9965751874218256 3.8473466669011174 0.6819293339798765 
4.230448630013381 8.37225075105276 30.26170189273195 2.9966375498703046 7.699987282820864 0.6445946039179441 
9.702687248468429 6.2382073546121575 35.812208674618574 2.996713816690068 18.314594401510366 0.8102748740546555 
6.7153941004854865 3.753463369314206 30.03617272564263 2.9967364494267734 14.087181152701078 0.7737249180063609 
4.442054968259434 4.838466460153839 17.782021058315266 2.996760041026435 11.487533558244952 0.5546352223431885 
9.487878183717573 7.968455966834647 13.450596391718861 2.9967669065163527 1.254802318645872 0.6456081520689113 
9.700350653185517 6.224581271445352 28.027323964624458 2.996770564635903 18.301116222375487 0.8104628422043334 
8.71224792669674 9.015036189004316 14.833539919896431 2.9967992697751473 2.5679668358229577 0.6804769780276019 
3.763808146881976 7.002071341715549 3.263355415775706 2.9968119301922718 9.16239281686958 0.7258062823582023 
9.550236022857199 5.682327606656244 27.143906055382047 2.996872723893272 17.73825224319689 0.7827743855661093 
5.8314328905797765 9.602656021631137 7.630357775380766 2.996900384106385 5.641114174243981 0.6508224598625968 
8.27780377938625 9.328267629450295 7.065810590348647 2.9969398321251237 3.1044042547715307 0.639243117046201 
7.5151083521704685 3.8522754235956995 0.27684545294275864 2.9970316166598057 14.896851391753113 0.6475896147414195 
9.348000288318918 5.255715827707476 35.841381892145165 2.9970803602287894 17.2668557695208 0.708756575877163 
9.375309466497935 5.304155773617026 22.041214072396848 2.997117835829725 17.322680537019174 0.732742150663733 
9.675067470545045 7.40323499952223 5.19003350416574 2.997121230754871 0.6585206690189018 0.6181096651489294 
7.215360083334929 9.71082787575429 9.78807432959917 2.9971756233169202 4.240702011036831 0.7709773223308765 
7.62255238344834 3.882600832864691 22.127818246291724 2.9972196525362698 15.00943744560713 0.6409939372619547 
4.910505573468701 9.116406005582558 24.16935826269048 2.9972682776983612 6.688597970743576 0.7236253835529123 
3.9827741275954516 5.598396660557672 17.220851564771692 2.9972869866463956 10.59825788737259 0.7421918307271228 
7.333660212216788 9.689925995380218 13.510236049832685 2.997302804462259 4.120738970366833 0.8024896098492608 
3.864298857863467 5.939168103791223 29.32702102996528 2.9974521590239958 10.237834767212416 0.7787884990737942 
7.683546636821795 9.598386708871448 1.652120191381158 2.99746829280925 3.7590740262780216 0.6377652743723167 
8.172443279530349 4.111500999017666 35.09824125502925 2.997502604113267 15.607497069438331 0.6879412177398653 
3.8965605177462237 5.831850200431187 4.932324682949165 2.997518295746157 10.350130648397496 0.782873842204677 
6.6263769848753 9.744997385063419 35.54239344860167 2.9975476620739876 4.832194943023371 0.6656895852822088 
5.644230504504041 3.9638554355241364 11.693711735052617 2.9975536210930054 12.993117305487093 0.744412583821219 
9.51714309001061 5.597392212509682 0.9913491345977192 2.99759663603641 17.651370761905774 0.718434633041084 
4.821391912214894 4.455166579118494 31.870191669317066 2.99763066201706 12.030951686921831 0.6285469636961734 
6.033858547685057 3.839060528352345 10.711801570799032 2.9977370110335038 13.403368543097102 0.739241514530555 
9.020784265875662 8.707164269529976 12.810061799115118 2.997824738051454 2.1325204611223896 0.6380259324124387 
8.439873556016941 4.273732752461068 9.925497800068925 2.997927970542218 15.922666680942662 0.7409237703432604 
9.488156198558034 5.528994518051286 39.26796001686341 2.9980583307618627 17.57979676551373 0.7219773944574296 
8.909187328427642 4.670017630620698 13.957980819737664 2.9980688077779725 16.538753769183767 0.7324223772373208 
4.880839503735402 9.094072003098635 32.01835773395656 2.998071799758466 6.7275209194791294 0.7267162921697592 
3.768707078313417 7.06707598372628 14.980140577944915 2.9981068467208614 9.101160387921645 0.7978523128393422 
