428

11.64272527017538 8.507648079437185 6.080618106840902 3.9657711282090924 0.7623343514383727 0.6312712570098865 
6.035477426636401 4.173818008351748 2.032172853767584 3.9659381351658256 16.916050048071195 0.7982217390448436 
11.618399317265254 6.874868690806673 38.50998802432591 3.966152806706856 24.0376803260241 0.8262895646161192 
8.103801910765867 11.70034098111405 28.579980597426427 3.9661530050075817 5.875745737773773 0.7499202641617474 
9.550056409697376 11.284178101645242 17.11917887768155 3.9661843038670535 4.361668692723734 0.763872251848989 
9.905819664314205 11.079123833155935 21.72080229436314 3.96618505891123 3.950858608343168 0.7502620023981506 
11.58357473296724 6.731660428748992 36.502035517635946 3.966523757097708 23.89253196643656 0.7033778825341752 
3.8040037054265596 8.153340782383742 16.978024626766725 3.966556509558545 12.057265668922842 0.690612548570123 
4.261660576930156 5.861855925162882 15.43252214661004 3.9665602198738594 14.429199825724393 0.7794775150820477 
5.376554426460167 10.928195848868523 3.9296609079748777 3.96663241860409 8.775142936189098 0.7776672491579282 
11.460083005754694 6.346281854332663 20.391031005517235 3.9667544090938542 23.489052722219892 0.8438087858174604 
11.662155593951715 8.406593516466916 13.591675780917825 3.966872374699511 0.659629164366784 0.777950734932526 
10.426497367522254 4.821872807615957 30.479137286778993 3.9670602482357706 21.632063966005603 0.7952445755879073 
3.867103757545145 6.937165113010149 28.427514042142462 3.967062361896753 13.281526522736385 0.7065812086809756 
10.126909130057992 4.573837598932673 8.827527691679109 3.9670775906839517 21.243061413582215 0.8158436044349054 
11.37493817896269 6.138304037284469 21.376793154880858 3.9670821364744735 23.266222373304768 0.7829983719402709 
6.754832709366749 3.9096158319968684 10.074348386183836 3.967229322108244 17.68921667857435 0.6720232777506412 
4.092682076570156 6.212814172378522 9.21526444818545 3.9672300994121215 14.041928192254321 0.7491170005509648 
4.861750533070293 10.469730613924828 0.4630574808501535 3.9672307212386424 9.466745915072334 0.8385815089369922 
4.604914200414836 10.168179420110707 32.69387227037292 3.967260565503507 9.863086883972326 0.7039971207319838 
11.657789528813531 8.435391920609637 35.33909001095921 3.9674401175495584 0.6888476756588986 0.7106699274668299 
11.706187555564892 8.049524662107473 1.0152907901578132 3.967509924123329 0.29980991277718516 0.719168733539328 
6.1986919595967755 11.401690966015256 11.758577032221176 3.9675437675591083 7.826034569942376 0.7743117946314075 
5.4644224165734485 10.993320661931426 2.9331902812081196 3.9677441709330603 8.668218218115502 0.7278899750469575 
11.233264590398466 9.650267178531852 22.23524590491028 3.9678895595176518 1.9816201160852849 0.7689503168030157 
4.044819149020761 9.16998833428607 17.25548226915167 3.9679632064790815 11.013534335237736 0.7212927970999131 
3.8753033725201487 8.605443030127113 31.590365780351988 3.9680041245942252 11.603640626393624 0.6881096609142967 
10.839370581712735 5.259714268808128 21.60379883091612 3.9680894160955997 22.240136740279343 0.7281456882002052 
4.07760132371066 9.253239144505315 35.21068570648904 3.968153218209293 10.924585174209557 0.7430304321339724 
9.818262781437156 11.136545367793182 11.80958284219647 3.9681734414210807 4.057556151205183 0.7024851519812192 
10.111496565081136 10.939205819738241 37.698602857335004 3.9683371564853545 3.704146460762548 0.7915942404417261 
7.112580557161014 3.8330166969050623 31.736538776600455 3.968508755544543 18.060964416048552 0.7530589027655 
9.368053533833557 11.37382921881178 37.093947534723 3.9686566298264285 4.567342929411126 0.7313341631891379 
4.209236219251958 9.542627416749268 30.125976685831333 3.968692631879963 10.608043680018547 0.7764746360358299 
8.73047288219766 11.595682521043766 33.48834130428433 3.968702700554241 5.243292676095329 0.7634503122620181 
10.319028002508162 4.724899862986767 10.840320512070107 3.968770050863184 21.496605315654968 0.8223059836182324 
7.526167941213096 3.787297229196776 37.86203387903004 3.9690192794029526 18.47961184134852 0.6898236121159833 
5.2090002387689704 4.700878898683831 27.763526200929817 3.9691081211107977 15.94643971149991 0.7363130929966056 
3.8167390762978712 8.282309649202336 10.682826581132538 3.9691176672600723 11.935432490678092 0.7125937334420075 
8.177857037228097 11.696049603527332 12.297393516551317 3.969177385530133 5.8060792597223205 0.8255878584728515 
6.88309426646031 3.876592344159482 1.43566421922894 3.96923322811446 17.83062081315538 0.7482350780800744 
5.518394811243125 4.467396792247268 22.238028383099575 3.969325577227842 16.335084733882052 0.73770723838756 
8.923938260506386 3.9582123649135976 13.194122487389329 3.96935567933574 19.896910857044833 0.7230526882043447 
6.75129956858758 11.592070695035705 37.40322978864028 3.9697493343226977 7.245214811080253 0.803178465399667 
8.032321340946112 3.790201001849022 3.8802122106043697 3.969850557050114 18.990039878126456 0.7465243036337683 
6.025034709690665 11.325615161504945 33.77663416550213 3.969953278812734 8.020437642101523 0.782016863963502 
5.19222523405929 10.786278223070045 24.113001797576672 3.9700374307016855 9.015416326762654 0.8124148634077879 
8.876540564147636 3.942895225153718 31.60501067978565 3.970282157394791 19.851746219607843 0.7108522762235248 
3.9638836920827085 6.554178215093405 7.497984110413384 3.9704743341739985 13.688293749491624 0.7476035636655951 
9.197947814653993 11.447276731770462 12.53772185082721 3.970693655427539 4.755025313047003 0.722496574140809 
10.08096371709642 4.535312519884847 36.1095829351424 3.9708446765428973 21.2033633577357 0.7466561728159086 
5.5900060433511864 4.417976204794629 6.6368313122859774 3.97088862404553 16.428530996982456 0.7425899591549152 
4.5691599710871 5.37297670829928 1.1484543111312746 3.9708919676594507 15.023313030447383 0.7064418280356753 
8.566681317453526 11.636026045461167 10.595075187223202 3.97091510867208 5.414947733602222 0.7683081583437603 
6.33106226795454 11.458958699238554 19.00851253088834 3.9711155762681685 7.688824206037097 0.7847907771197609 
3.7803284229033594 7.859435681713256 28.922294656965114 3.9711797489462706 12.366379587753958 0.8660474331461042 
9.805568875763157 11.14786624685767 30.045996922734155 3.971254012845413 4.07744006744176 0.7060154008620494 
4.014777721096214 6.40100041169606 38.67036825133132 3.9713581256370434 13.85277870284779 0.7504608991633653 
7.879518085490076 11.719331332482941 21.192426068376598 3.971443838391754 6.108788338452104 0.7260482049013014 
9.032471576016619 11.508889944185308 2.1677503669059845 3.9716478892001446 4.932775779022258 0.7952249265338933 
4.9276339809558 4.955367811154625 21.561690068707406 3.97186593635612 15.577870199293123 0.7729723204222143 
4.851326293674008 5.034583605219483 15.17288322344293 3.9718755585728625 15.467913358270582 0.7824303886735017 
8.181582954503607 3.8013772741138467 34.235866611197224 3.9721386277423223 19.15069896193145 0.833679972172684 
11.4764173936111 6.374140118129775 3.113554706607303 3.9723012229622396 23.553734342661727 0.8249987277944886 
6.925900564712048 3.864096677642369 28.70604315941369 3.972327341742117 17.889023143519502 0.7820577171111086 
9.705825173202122 11.20767339800046 3.7540351698282706 3.972500149197124 4.195035296496968 0.6627254077121072 
7.149369092506976 3.8230949851242837 32.76209147353699 3.972573533981711 18.117368593474854 0.6977006061652905 
10.412489607660763 10.69897500234311 11.06788424637272 3.973072422615287 3.323107424354788 0.7044528735743751 
4.124354980115864 9.375035972097246 14.564970395043808 3.9731654534917955 10.807930190259881 0.7304537659632152 
11.722282169701355 7.664400451531696 36.92271186593514 3.9732043640398436 24.87877311082429 0.8865653273436217 
9.654387521825246 4.262904232801107 2.7640622533347567 3.973226487742691 20.709456475162554 0.8377439154145548 
7.177309805668138 3.81823434778172 19.0289957205092 3.97325498837506 18.148831092808454 0.7385273408859316 
6.095816667636704 4.137401716218079 30.224017318388455 3.9733095596810246 17.01764782679268 0.7222365721636435 
8.212861299067356 3.80372012038368 5.977752001182203 3.973331784590725 19.187799528631714 0.8078067003161961 
11.231564391831125 5.835045443888935 35.009774523407984 3.9734546136123097 22.967844483114035 0.7905270413080511 
6.451768626101877 11.505592607683232 12.723994213578592 3.9736482651410343 7.564304290610856 0.8440675085329534 
4.022123197553679 9.126010439624602 13.594337823605407 3.9737224593790277 11.078708516550726 0.7281547558428637 
3.7808163408301336 7.941086166214879 1.7963878611842645 3.973780673758907 12.292840286178034 0.7624469354673249 
10.763130551586553 10.340873683000519 19.328109678358935 3.973862373330128 2.822201861742858 0.8004237709595948 
6.057698409173277 11.345574389488878 31.760405560055304 3.9739199620353407 7.990359309543347 0.7765160852816408 
11.15235000710172 9.803359658954593 24.937547344975194 3.9739491013156156 2.157846343152528 0.8172003843961286 
11.712402184202876 8.053580421914466 14.560320325507298 3.9740146126990394 0.30387646441034377 0.7448166051428874 
6.847476782535715 3.879825133916711 27.702455664363583 3.9740158092444577 17.81664102576728 0.7534476755077789 
3.7937055517288982 7.374605236163388 14.013689924154072 3.974064291142845 12.860846468504509 0.7660434959263936 
7.759974140509769 3.7758943034669166 27.105422979488033 3.974118212974499 18.737565024548044 0.6938529104773423 
8.14009474865092 11.705052840325619 2.5924753527048097 3.974244190118765 5.852004298094794 0.7915360216123719 
5.775103805060716 11.198879269361226 13.429304433482258 3.9742902756863705 8.30960469909591 0.8048230618395397 
6.973526264061409 11.647802787321796 5.060826568853919 3.974390271658784 7.024457754876906 0.7827827885262622 
9.522916723040598 4.19290936183906 11.260406882699115 3.974434238345027 20.566782669088848 0.7912380228432515 
11.473244318561992 9.140577999881943 30.635477541278817 3.9744503304809076 1.420636603438144 0.7751681514908234 
4.53068553023709 5.419234712768958 17.16249230390565 3.9744751199857884 14.97678136295361 0.7592725195377769 
11.488001644918022 9.100605335011256 31.704818967662703 3.974517715191457 1.378050406200508 0.8029422399068606 
8.647688791345875 3.8779661062551796 28.61467197651944 3.974731643824109 19.6359825806723 0.7444854684776592 
10.30307309021316 4.703635733229232 1.1586754164237405 3.9747348905088495 21.50298757553236 0.8401916961860251 
3.8417917938630666 7.0253870314635165 16.712054111092186 3.974815132391357 13.21593781831072 0.7627399015676296 
8.578780829150837 3.8624421096923403 0.2506912847999345 3.9749193719195484 19.56627265823525 0.756817783633776 
10.711530765982573 10.401335872045124 15.712077057295232 3.974952375092637 2.9024679167258434 0.7408710180583049 
10.864631457954296 10.219733933447424 6.905595598907105 3.9749861409695777 2.6649291903247523 0.8181376801858624 
4.35001031302755 9.809305148299822 12.874640001207354 3.975005354126351 10.323117829451078 0.802366599022018 
11.558532428959005 6.611588593268676 23.05464541449509 3.9750345650583183 23.821301314905856 0.7022401574225375 
3.7922242607796584 8.120518940960805 9.688058517846287 3.975081519613382 12.117029327466184 0.6903116137372207 
9.312656753550637 4.094895370559447 36.662922524517015 3.975133454561642 20.33836590830603 0.7029907615548266 
3.9645866261903073 6.536379760873151 11.056624143789222 3.975201692422109 13.721775210736425 0.6657580310107734 
5.057140843072791 10.674641333516592 36.35616963151251 3.975552460823586 9.203233594620247 0.7440358786962489 
6.466061188063762 3.9873373434345805 18.323884691592376 3.9756922843585603 17.427634176873028 0.8189410259047829 
3.7926985986991895 7.367849103918969 38.15277425602794 3.9757104633150657 12.872804610069018 0.793463295078942 
3.7748370912685303 7.677657142773446 4.848231025123063 3.9758211277604207 12.562757296702642 0.8420912155394582 
5.104224375347126 4.782325507811668 39.491047232660286 3.9758295420695005 15.840787496227918 0.7352374901893809 
11.631002249027901 8.614108161418812 12.599842809257332 3.9760358866074395 0.8710591872260665 0.7713444981340873 
7.906932410686746 11.723042414563594 4.622978703827847 3.9761405671134495 6.088733814408176 0.7716734852233827 
5.184627019830732 4.711646254119673 16.878515637246593 3.9765226030399443 15.950611213390417 0.7384293846635283 
8.117822860376254 3.790516460977976 33.22807431545742 3.976531598315515 19.107313086965085 0.747650361600467 
4.069256826847624 9.255226210643563 10.960387143146122 3.9766287546005845 10.949241025228968 0.7721368646446489 
4.5815895687631745 5.346909191762782 19.804025894153995 3.976640553709191 15.073383846605633 0.7056083241102655 
11.240177438085883 9.656062980086968 39.833597409207414 3.976734166798402 1.987814518507978 0.7945690154257783 
4.260733648294668 9.657910935712616 28.058906930012085 3.976820817154679 10.503634688381283 0.7900592503140096 
5.671394488452581 11.140736288692606 19.730639696221473 3.9771463956073125 8.434485082440276 0.8297868479787732 
4.598069569805933 10.175507387291322 5.48499943374572 3.9771536961234153 9.88604511031729 0.697965627088926 
9.191092801209049 11.457041915864206 0.12703257582018068 3.9772991121703054 4.7728795017550105 0.7566522918064044 
11.38080749742291 9.37377430133513 23.212092190361837 3.977361696529346 1.67264255863833 0.7506377062128394 
3.875355861412647 8.648138490593107 18.916421405312825 3.9773760130234352 11.589343296316386 0.7083647324166015 
11.665091462539309 8.451408090896772 19.796934645775842 3.977425608358203 0.7050953679183358 0.7087123742187013 
8.78226235056514 11.591296201459146 5.192129539974559 3.9775774119102634 5.203748407456217 0.7343376479513362 
9.797416067273076 4.3398227079745695 4.775890470947665 3.9775899380873634 20.89464121104375 0.7758519280627626 
5.448061250599206 10.993824048973424 18.7409711409774 3.9776018486886326 8.70283803409436 0.7570981931486669 
4.435491000844468 9.948992623985438 6.676427434446609 3.9776297547440698 10.166122104046497 0.7712903098572024 
9.15168586987625 11.472475047890045 1.1385116366697048 3.9776304202344783 4.815598992135914 0.7827943443239433 
10.528734171457458 4.9038492518651715 9.875330746882113 3.977679936437045 21.820765756863242 0.7636140172137215 
10.830350724953817 10.266841267614138 22.982736757385354 3.97781982436222 2.7250416261524464 0.8177537613678804 
11.722356270715565 7.961060903047736 39.94725006927732 3.977959407320362 0.2111600552053332 0.7806576684509665 
6.296778398629538 11.45302673501705 2.493171625096224 3.9779718479321526 7.736239817977761 0.8352864521373764 
4.558534045527825 10.124650775421175 21.122676351212675 3.977992112079078 9.952547449486932 0.7729276715214148 
4.449916837324842 5.528256260244881 39.060456579978144 3.9782777838799954 14.855411770930118 0.7602945627914013 
10.913039970361474 5.337069733239952 0.6632407147590698 3.978323054548363 22.40396507344275 0.74124573925765 
10.62968754901253 10.495066136933596 12.080705009994261 3.9784404577770593 3.0294590301948077 0.7298510054192396 
4.174586618327188 6.0049390786999535 29.92665582050042 3.97854476773777 14.305465662952155 0.7891883190251417 
11.726972628789351 7.86701227201935 25.428723433479043 3.9786936501749923 0.11702914652560281 0.6339717921387806 
11.620486771717491 8.671924786869951 22.53079956314673 3.978770307857101 0.9303804028491065 0.7645346704850341 
4.70700481219208 10.31347292259202 30.63503953013143 3.978845704206765 9.71441952616346 0.7755088638446004 
10.074439922864812 10.979309070155395 12.770854984235555 3.9788764778006986 3.7676316378675025 0.7879081907571416 
11.073499437888657 5.5623477708835605 3.6905357851792004 3.9788780817215725 22.683746873412243 0.8031006176919068 
11.713008847723902 7.394837409388543 32.86064007578062 3.978891754359216 24.644478285022263 0.8731481227136648 
9.454058003649628 11.345541172422394 36.0958113540774 3.9789106552405724 4.489071112778721 0.7500112989093961 
10.129006448765647 10.93948692125602 22.69463335065634 3.9790072259461584 3.7002013788958052 0.8033726549538002 
7.955553668360853 3.77628446902167 19.763625455584567 3.9790284532427003 18.95637504016167 0.7885478736617639 
4.343142234404073 9.80601684622683 39.84562063188578 3.9791814619303048 10.340333938727564 0.7927391077430178 
5.007513653936725 4.866794157732565 37.48504646839396 3.9792093796668406 15.72583277561354 0.8211086794543401 
9.249277804686514 4.064010321109372 25.940037857082565 3.9792403607364366 20.288957184278868 0.7767249125175943 
9.495150228953253 11.326163961631837 7.8166967921770905 3.979258473898113 4.444030839353232 0.7259566017115212 
10.569837526651893 10.557677447637456 18.354479742750776 3.97926328944018 3.116707598179069 0.7254841790200446 
11.305475933446495 9.53701702340764 7.48831659537116 3.979301314962957 1.8532929867987242 0.7952797123027332 
10.296564832200662 4.69214472844636 20.865551471143448 3.9793807692114087 21.51575227418792 0.8699761925556184 
3.81521918488615 8.344434882442824 14.308345505975403 3.97942871433235 11.905075984508876 0.7800092323889416 
6.902759303789294 11.63821365996566 6.149318684657672 3.9794499950193103 7.104680959079037 0.793271495526939 
10.918620444120956 10.157479455328284 35.19099301036859 3.9794613764590094 2.585599266693407 0.7966155992973577 
11.478153867399044 6.357571919508631 14.102032435103084 3.9796968751832495 23.58264559659965 0.7813624147231749 
11.506728777241829 6.4365671711617605 16.767099455286562 3.9797131682606097 23.666748489620225 0.7948661871262226 
4.624472161232184 10.213746630767883 14.845760683727022 3.9798205652431995 9.846266283007463 0.6850687837323842 
5.749710399887393 11.19084368086629 37.95078964230704 3.9800205678458656 8.347615370550962 0.8485351621247185 
3.9677744445583585 8.989346692306176 0.29056015571325844 3.9801018047238554 11.243555946497402 0.6850966301587305 
6.247260256922399 11.435553000005026 29.73103461104494 3.980141662211406 7.792940185234645 0.7433368669422731 
10.88447425928223 5.297083966192261 17.949013411244273 3.980166573274785 22.365228531208345 0.7077629975849045 
7.645375915792213 11.728898266802801 26.539411921104765 3.9802735605185036 6.356835224538646 0.7524758948609589 
6.684504042345562 11.585111428291047 13.743487431800546 3.980372005627936 7.331003380938107 0.8492562830741128 
6.541915748153384 3.9570078184772672 8.07654288305217 3.9807357672486092 17.531333113215027 0.7919548976702148 
7.045558833828128 11.668097433952724 18.29580085639543 3.9809201020046228 6.961384971667876 0.7736984453855252 
11.667440792111954 7.041871232299027 39.528320569080606 3.980928121851536 24.300991755427827 0.8038894398833469 
3.7779423044479863 7.48237645466812 6.875454306613257 3.981063262347131 12.77470462372365 0.8036667629789663 
11.690991566011391 8.313992881754807 8.331191991598828 3.981143365170745 0.5658966130212022 0.7887471884733535 
8.61472883923788 3.8638734666988537 14.154900268724582 3.9811726159809826 19.632510679273196 0.7653598235733104 
7.8938697817975445 11.728646315644994 11.329856350593964 3.9812466664488273 6.10982652689518 0.759348544047543 
6.575489505917448 11.554112033281129 38.407057843300386 3.9812991927842254 7.446060663249156 0.8473600610666024 
3.7690359142066665 7.69793409764538 3.8462883165886694 3.9813045488337555 12.559704508871459 0.8409443851117032 
3.8868491715865794 6.786691371344954 32.50887345346208 3.9814441898779105 13.481039633038556 0.7866974503145119 
5.023554665576466 4.848482187123254 10.533067004310816 3.9814959223941084 15.7591128169244 0.7673920710193526 
9.924754316050183 4.4147620204084355 19.217736832779472 3.9816289023073117 21.06363943005887 0.7772988368847793 
4.12241841933764 9.391357189840416 4.881532429956785 3.9816330254057384 10.81686232472789 0.7012872260813172 
7.997272211605772 3.775974879175033 16.117275481837964 3.9817105881241943 19.01080052740805 0.7564603871889931 
10.534209114334304 4.903301030789137 23.56411369115741 3.98189846852584 21.847442301033894 0.76524556348574 
11.289873378760895 5.926377730364717 12.4038269046901 3.9819972024060686 23.125363826887025 0.7478444435808773 
3.799681778213415 7.24833456135412 39.185920285974596 3.982044985395179 13.012965303939765 0.8052522906205654 
10.586347879904531 4.954888875186098 32.50481681002345 3.9821496074227745 21.922169966039608 0.7375290092632657 
11.316637902929706 9.521627316442753 15.91603141965993 3.9824074727457215 1.8359763745168394 0.7955170517428818 
3.9526703753110954 6.549888213401623 14.760952140858194 3.9824591120151287 13.730325119668294 0.7047745583132863 
5.604172148160087 4.39501002337472 14.890776969944362 3.9825287083695984 16.50106858980618 0.7269992592622139 
4.513583318178899 5.429182997815005 0.0932780252169394 3.9825349334313276 14.989065228115404 0.7286607556036868 
7.056597616747194 11.671717053045697 8.383302824392572 3.9825458577711426 6.9527228064432265 0.7659503416747364 
4.213357418141346 5.918838689151251 4.76603411884512 3.9825861570297687 14.414387651013921 0.7428394882489827 
5.024092674195099 4.846431087756329 14.185249879225466 3.982622650594043 15.76536913099197 0.7402904138998764 
7.674438320419906 3.767846904178546 9.599683635605835 3.9828699258174827 18.69326613566823 0.6649429026391876 
5.093861102118437 10.717887919167612 10.488390886226654 3.982892484813084 9.163916781463623 0.7501050180331096 
9.346835923695306 4.101213775851884 37.67627319285397 3.982904201300465 20.41203585281411 0.7630392721033926 
3.7698639314297253 7.6014523320255165 5.874219961853299 3.982907171149573 12.66125403699532 0.7775729913647671 
11.249354562824802 5.8474396442167915 22.328071632609785 3.983116652040295 23.04312785916342 0.725764052872833 
7.413850654567945 11.718950415090571 0.01065992875560795 3.983160024387925 6.59328278081167 0.7774060696469045 
5.750568646764702 4.3048615271969695 10.0036604411045 3.983303256480474 16.676232547185993 0.7980503377653319 
11.697980093574106 7.220168217477497 2.5324787140554434 3.9833740142030796 24.49687043984129 0.7783783702353363 
10.24274359504545 10.857069706647685 35.65067657351118 3.983422246336414 3.563832285909548 0.7618209537042677 
11.708391887612605 8.195999044101878 29.291079298741337 3.9834383995810776 0.4469361651077399 0.7230409269218421 
11.688346474066991 8.347683873875745 4.041970899371606 3.98344059361841 0.5999494753126591 0.8238468038371988 
8.348761806340057 11.688185364673991 39.587308893176115 3.9834431924233633 5.6561381648818205 0.8234844870344968 
10.71301398880201 10.412637893019397 39.25138603607558 3.983602947983035 2.9162157011561405 0.6978540381571458 
10.480774480652402 4.8495419811022416 3.2213471299695584 3.9836899959171927 21.78147711580149 0.7674041367572944 
6.890509017038912 11.640024613659179 7.20679170537278 3.983844405177702 7.124110369134751 0.7776222726264569 
9.364152143386843 4.107788713634243 14.902963751506455 3.983866237278862 20.435465906284424 0.8272756346501283 
3.82658183318018 7.058595199204145 13.042316018527814 3.9838738321256293 13.210632310780237 0.7765838701326336 
11.642244887810117 8.600247714774287 26.162990674998127 3.9840295484801422 0.8568378623550963 0.7866312922061617 
4.256241980607024 9.664854178963026 1.8974296673622106 3.984094831296678 10.518909820041927 0.7515205835129054 
5.808207672446136 11.228964156287304 17.087240363696168 3.9841873756236503 8.286619900985084 0.8292795686349976 
6.727317615625173 11.600702740392414 23.621588762365505 3.9841926226245885 7.292614440100714 0.8450947946541045 
4.5059999618060225 10.063076264767068 34.76693356717256 3.9842010559748764 10.04884725576493 0.7870682455572999 
5.423345474918241 4.515673528871721 12.203658737028555 3.9842425881118912 16.290713838022054 0.7028858467044976 
6.361127553371114 11.484415756811257 9.110716178456244 3.9843227426659493 7.677218539530166 0.7821890401350108 
8.275764348232494 11.699732061167722 0.5872954908786596 3.9845716839942225 5.731648474230781 0.8302420207934803 
4.640050124007118 5.258914985231833 3.154796499998426 3.984632076113257 15.209125563207191 0.7496272426302061 
7.42320567579379 3.7787690834804817 8.5975903963473 3.9846542538410827 18.45007901333401 0.6468359707156939 
11.727601735274877 7.512527443542888 34.87936818331842 3.9846842760163548 24.79889634243909 0.8622746590375311 
7.4250395018065465 3.7784293324624567 7.580579419201769 3.984842894347372 18.452807984803645 0.6499673020051223 
5.8154611092762245 4.266105298149034 17.61503790589927 3.9849671282594055 16.758781899276375 0.7570134520712848 
10.39404731436115 4.768514187332357 17.25110089898702 3.9850023653341604 21.66994692042405 0.7323300755038205 
11.593750585535377 6.698278487742005 15.783847700564273 3.9850391093626456 23.974409168824096 0.7577559176114793 
11.659904110342442 8.52037274160865 16.26782968387983 3.985075195411793 0.775253474383625 0.716704419786468 
8.679899354405798 11.625089276062454 6.186712319535161 3.985100965694413 5.321230129800494 0.8263531845859526 
11.44804113719899 9.235274802412484 10.686105258610773 3.985166181114343 1.5220061821039081 0.7884822287930306 
10.037254407062239 4.486480058959117 25.4665548688303 3.985234639039104 21.216148089972506 0.7375487974303077 
3.917981327067551 8.844800064771384 22.571359092808585 3.9853424308993053 11.41126307521047 0.6514331495372799 
7.321393703219579 11.71225392818043 1.0581546242490205 3.9853681823667295 6.68963853290164 0.7644031469653808 
8.26132378253051 3.797501779115411 35.26343404759582 3.9854352581213957 19.293658234376323 0.7316706451788607 
3.8788014000880953 6.802494249479256 15.7277961174767 3.9854668167267144 13.477379550820356 0.7839573340541572 
10.132930728061833 4.555374836053399 18.238843087065135 3.9854722170480814 21.33532062015634 0.8071192115319801 
10.905426189429265 10.184712938408914 26.577141404116738 3.9855415603643944 2.619216750310027 0.8304407903642874 
9.775123618720265 11.1827653485819 31.04736327395898 3.9855995294965685 4.136283691976288 0.7116897004926087 
9.969851708985448 11.060179290536642 25.36434841203709 3.9856026577398898 3.9061540960582732 0.7298219143201854 
10.823854988504916 10.287060650198157 13.045295616542418 3.9856318486709736 2.7501608989124158 0.8105898316423493 
11.493297413704212 6.381410459698593 24.06244205545231 3.9856383249445764 23.64548355576835 0.7804275717354301 
9.274776114304968 11.43247824939035 22.423037263366624 3.9856728736799214 4.69602420475632 0.7019979680709032 
8.61288694447203 11.641199202606256 26.781055195578475 3.985725167808718 5.390988687168857 0.7732058911920487 
11.726411181996385 7.477667511691138 16.544540980109367 3.985725890285777 24.770509516931597 0.8394868703647393 
11.398251715074139 9.355090315604347 16.91032634940769 3.9857314884206936 1.6519845562456865 0.7788746609481314 
4.323953916162569 5.713216057027255 6.740319775887791 3.9857597266931934 14.659457366061211 0.7733725796717393 
3.765988634554967 7.627829277561117 33.08939813753794 3.9858841234306412 12.644214140138018 0.7677254854740576 
11.074714508301026 9.94880600392446 30.102381401983507 3.9860349226520277 2.3290962716216583 0.8101605254063965 
3.774780413603086 7.45638302055319 35.08057657904044 3.9860483803753715 12.816423464560117 0.7963858038538101 
5.708212640256612 4.3265719885518195 8.520344230425977 3.9860701162894667 16.640283847083012 0.7731233657071314 
4.3619094167655525 5.650011184898684 10.704183804297472 3.986114752958394 14.734492297349192 0.7337609566754518 
11.632848074409653 6.8485378067654 22.078372051696938 3.986118820955803 24.136194528416098 0.7323886049803479 
11.190444183466049 5.736814211137826 33.99599462107675 3.986172750900547 22.935458812889333 0.8054672655622248 
11.467055698361282 9.190404888569354 20.560587015934196 3.986385494120527 1.473746797162832 0.752184212186092 
5.865499951898347 4.237172570881379 39.00651228984661 3.986388964722745 16.822556041426864 0.6784468453972087 
5.9025059601285825 4.217339626520154 24.050880736097923 3.986592974171703 16.865403330401225 0.6989713538899497 
5.016787527537339 4.847655130403767 17.8804693715527 3.986735025267796 15.775484443171198 0.7395470020589552 
8.40672330679714 3.817636522665291 21.470097401430834 3.9868243025704677 19.447196976913837 0.8146828783178919 
3.9113856888733007 6.673043333367822 24.757743202324697 3.986827747895589 13.615492666841288 0.7540561137986245 
6.521251310967386 3.9572472074352003 14.639765566509425 3.9868279479189273 17.53840077042181 0.7752268436563545 
5.865379455089872 4.236722940607891 0.010598533639132768 3.9868421456521466 16.824574837242107 0.6826068651871388 
8.416858009042434 11.680784135558888 38.5699030901457 3.9869491499874297 5.59267792767216 0.8109236396057533 
4.6253312380144855 10.226486982521685 31.665442755964634 3.9870468578545006 9.853607086538545 0.6906138507332081 
4.556159176057935 5.363309124783793 13.461925238943799 3.987093244773594 15.084569973117652 0.684522552025048 
6.466710281925433 11.524990025998385 22.642894139359775 3.987152141178357 7.569551348254635 0.8212128761633622 
9.478365386762936 11.343110782628354 23.424627906422373 3.9871909919641864 4.475406767376214 0.7314994328835476 
11.656179987214019 8.549704722181737 9.936198395845771 3.9872007392644635 0.8051658590143944 0.7331506757829367 
11.339202009839319 9.486581858750256 36.769439705087834 3.987240602167758 1.796779204610477 0.8163014662627031 
11.702020311686965 7.22113603238337 29.77678069731882 3.9872498843475492 24.522202793393344 0.821808278815825 
11.735579801817657 7.866886067167705 27.246961466092216 3.9872934064794903 0.11690281461413932 0.6309787549315181 
4.046131860461008 6.273432290675842 25.966378239221648 3.987341394376811 14.039187866328664 0.7526709533661431 
4.834331407099173 5.0299115946423 11.499521443973315 3.9874809437274648 15.520477231424657 0.7394696377796366 
4.24551104255443 5.847638714869557 32.92871189352651 3.9875332364785496 14.51030931148944 0.8109274663486007 
10.574202536783327 4.934986080580728 26.335003390046325 3.987533490178814 21.929107694228705 0.7295216152222292 
6.7055686706615845 3.9015167730978906 21.030298205532503 3.987688547197548 17.73478268382623 0.7407439938011782 
11.554626269784142 8.94469539813074 1.446642763454122 3.9877911363368055 1.2133295580301997 0.7857853737069866 
5.842429814974812 4.24803268233601 13.920572160557207 3.9878063023150636 16.803073562485526 0.7519464743392138 
3.8073064606885882 8.34832779072199 24.209658197012217 3.9878350630483936 11.927557623033902 0.7565986673404353 
11.597304970525906 8.79935680319351 39.402682595407654 3.9878446856217744 1.0618603953973533 0.7187708513018974 
5.307780363030371 4.597442388454873 2.5716671153752273 3.9878636196980413 16.16392624584999 0.7341978536200399 
3.7956188794801466 8.265914149875151 36.67238899223056 3.9878938622241757 12.010973853488338 0.7396268401981673 
8.679097318367985 3.871817353870579 20.47612578626221 3.9879220734284653 19.730354561633963 0.7570161836715361 
4.252553079594854 9.666394890562312 27.010667866126397 3.988070252343203 10.529827715158255 0.762244414045312 
3.8616419003406737 6.8632448582727115 3.28501813355048 3.9881904910079298 13.423499064115983 0.8339845053641659 
3.811191766470298 8.375681496379784 35.66154796777873 3.9881935303384433 11.901002561150722 0.7937098223024796 
5.227433620248188 4.660920415858193 13.19895658771918 3.9882018275678943 16.06289392318276 0.7582927340269275 
9.654414632208198 4.245799172158643 10.25974762058788 3.9882600884612254 20.77964063161996 0.7886036777522888 
6.736213492103046 3.8926474851989976 17.349881764783987 3.988349471527729 17.76962044692378 0.7512488669133859 
11.496393545276936 9.118064128168433 14.344885082972674 3.9883660883717726 1.3964201098174165 0.8030553235741499 
4.043622696966473 6.276931169668725 39.66756791645178 3.9883786795307734 14.038660773733966 0.75521165433666 
10.902729009695483 5.307106886610633 11.647242761774052 3.9884115850825412 22.430702128134442 0.6840416368190859 
4.465447708806677 10.012716803564864 26.067139020787792 3.988504868583981 10.12425161555182 0.7647391401331394 
11.265564599967272 5.865780077023452 36.01169346260017 3.988668847458357 23.099104318342825 0.7539580856478089 
4.761330487792483 10.391519120391408 28.570021486453093 3.9887051428492577 9.643792691871553 0.7767910068386042 
11.738508560731193 7.797753132978848 15.530573599373461 3.988794416955496 0.04775427375140495 0.758130334381099 
11.22263737836503 9.712470972205963 18.62045525367192 3.9887971468061596 2.05175980836907 0.8030164642856382 
11.025274192592557 10.026878532717392 23.935925487820718 3.98893430497572 2.423190883747605 0.7945910625275051 
9.635370441150673 4.234707368486905 1.7609139107351979 3.9889727982946876 20.761324710883418 0.8012087659224126 
8.622175459035542 11.642461918622876 7.220393251689778 3.9889785433457945 5.386594255479562 0.7788447797700233 
8.259189370851306 3.793553572470554 15.12391857836073 3.989077857011374 19.308668887697593 0.7426322581956089 
4.021110353272297 9.167218007697036 37.28399720657701 3.989125828902093 11.083344987472852 0.7336706003837502 
11.414864212997333 9.3254706573772 26.858418406883388 3.9891524779036853 1.6196003579453624 0.7673189587699978 
11.139171235656704 9.854214257688296 21.256128255617604 3.989260496240063 2.2165111237316424 0.8700136917561625 
10.407219103558282 10.725687931676704 4.312552177058336 3.9894275317445573 3.3586002830290695 0.7285839583607083 
5.638255682253673 11.134724410172938 39.952940112480675 3.989464048760739 8.492002609920224 0.832127518410536 
11.589541268626027 6.666353428432343 9.236757395247274 3.9895321837970745 23.96953555422117 0.7643266807307115 
7.022462545857358 3.827161124488372 30.700818839527393 3.9897337743771444 18.069546402990433 0.75579286640399 
11.397480447780007 6.133060669248515 17.724835740523176 3.989812829728796 23.403900835027393 0.8456367953967597 
3.7839556484523964 7.315045021520033 10.315456849129504 3.989823759484516 12.970222168397047 0.815880141072207 
4.602734690692381 10.202641765620442 11.21844297366124 3.9900790164653284 9.893824226571297 0.686330397423424 
3.7761740553771688 7.388942941660673 17.65996699549285 3.9901948370391884 12.897118375276918 0.7964084977710463 
6.8922918122869525 11.64693072670492 11.077295971637234 3.9902045591682276 7.132253151583441 0.7982865698182787 
4.460056526312291 10.008077564619224 35.77472105313953 3.990318577243806 10.135734364114821 0.762850028063728 
8.065871884374848 11.727918595451474 24.844478316942144 3.9904400007238756 5.9519658095383825 0.7358357703533075 
10.241270838514565 10.867281769926354 20.026598691474327 3.99047315790349 3.5776797500435933 0.7621938406102919 
11.688788420071115 7.109717441245095 17.48833442945805 3.990490693277211 24.429930276750227 0.8243029946785738 
11.739248873658541 7.647148355425216 12.870813344651182 3.990574524649012 24.970656185439555 0.9196862789569814 
4.333235620298288 5.688179976028572 24.457884568576986 3.9906616791765215 14.70375012940394 0.7503154367059245 
4.2020073248826435 9.576825209416493 2.908650999223852 3.990681942781964 10.639574249587032 0.7883697023468089 
5.391693241883253 10.969323755137957 29.1158400575139 3.9906962056481667 8.791638577333174 0.7677651585007705 
4.551518011741711 5.363358935731892 27.327192713506655 3.990782203887293 15.0957084756444 0.655917813655959 
11.216506927873843 5.772418208137427 9.692634502798178 3.990927213631404 23.006708113983134 0.7226107248305066 
6.859140490015239 3.859689476098584 23.831385149768288 3.9910082233576505 17.90875475010986 0.7713370469850966 
5.9035279349130825 11.288320958157179 20.704823064617017 3.9911369670910437 8.188897444387678 0.7980258168256297 
4.745136730983548 10.376837633296212 29.606137053525977 3.9911751674394678 9.671489666245016 0.7636578168403407 
10.88440795306756 5.278936410560165 27.827874489700953 3.9913241511193314 22.41359232770566 0.7382331185871689 
7.49618854550307 3.7667529339251598 14.420940517786264 3.99132527411982 18.554694412488193 0.7005516909113301 
10.898198890444753 10.203508216418895 36.20757290124145 3.9913479955815214 2.642328320308419 0.768116642921295 
10.200436835550097 4.599361038489931 39.15008555862174 3.9913865448996564 21.447397313077918 0.8511882378723109 
5.621837058370254 11.126774127700763 16.10591036137655 3.991450991260625 8.514370238686304 0.8261315876272983 
5.323704058215142 10.919368469272664 11.492519167634939 3.991466959795784 8.87771136580838 0.8130210081787541 
10.488917503931015 10.653704671525794 3.2698055832653665 3.991637497666897 3.25156343862319 0.6982969725985572 
8.863749923916103 3.916825891961075 3.287484161641757 3.991699216569697 19.939171300560734 0.7252895371907118 
6.3464520495926156 11.486837976352895 25.300112013008338 3.9917295638114005 7.704401114805151 0.7984877422467629 
5.261624821518533 10.871279136151156 4.937309181948422 3.991790885637069 8.956962145284855 0.8127710410380182 
6.251752662898875 11.450032591035338 15.360561406642532 3.9918650099739454 7.806267161512654 0.749014117590384 
9.559089455337139 4.191312714144528 28.004971980028856 3.992124729504504 20.689989329695933 0.8033248503008116 
11.090884741122267 9.935531312470395 31.115363503926474 3.9922497380865556 2.3127353527719414 0.7970902640447725 
8.956244734715186 11.555709401957587 29.428843590639204 3.9922988881315535 5.0456929591861055 0.7023959140847073 
5.847229093505014 4.240234557265923 26.229466764522883 3.992366539486833 16.830233459632908 0.7058120522366139 
4.075835659126399 6.18797877004981 26.96924147399333 3.99241705318498 14.147444750559515 0.752329683227302 
6.298641786275498 4.0307152158129185 11.963151880223947 3.992432838562363 17.328506180263886 0.799772738629376 
10.031623879331578 4.473759124704971 7.778461588864204 3.9924380771265597 21.24258512464429 0.8123358019842173 
11.577282609191775 6.612930257456702 34.464941374361054 3.9926206644294813 23.933345365758854 0.7406928080139508 
3.790132873901346 8.260687017225441 37.691556332573406 3.9926618797388094 12.031227382692663 0.7529577939134892 
7.878214474494335 3.759354373053883 23.42937149971018 3.9927047813899312 18.943414534109586 0.7517176857844695 
10.132247942168286 4.54572758716963 21.870891212200377 3.9928018926050934 21.368242941428786 0.8182395222952318 
11.403755919287354 9.36025493456746 35.77910340505205 3.992850269171918 1.6574458377432393 0.7943045022826991 
3.989964889663673 9.093558241648056 26.057586221977573 3.9928702432789263 11.173673293349854 0.7063933211288947 
6.2289872469929275 11.441885815192771 3.5078404243853 3.9929313376555498 7.832511358878321 0.8122589984925385 
11.526559342258384 6.452914973634405 31.403579816666124 3.993097798855033 23.76832151396893 0.7445284492950586 
3.7662670243698297 8.024966542972626 0.7773754941234117 3.9932111164922808 12.269858407874956 0.7471620941675537 
3.9762840419927485 9.056065954756447 39.288786124479984 3.9933370017934195 11.214889606595921 0.717385037704679 
8.87621022213915 11.581255760971526 4.189286984493279 3.993353248890995 5.131044280530503 0.698916256227552 
4.117286534836037 9.408414907956526 24.503865673885933 3.993362884451652 10.835303291210913 0.7007731592381593 
5.278730068682053 10.886917155285905 32.20151115852376 3.993422631348104 8.937500068435149 0.8015863426327104 
3.9765563906958175 6.442546828553182 37.63000479603569 3.993533581694902 13.878069841404162 0.8432631938017183 
5.005929099080303 10.65152192509335 26.625821994075665 3.993589186567848 9.298323723938616 0.774236271650145 
11.173421477833728 9.806474483737338 1.8751256028066408 3.9936076318481786 2.1602999431019896 0.8107335180167163 
4.718005172930834 10.349369701465418 2.481197887181331 3.993709488216513 9.716168392150248 0.7612862298055494 
11.448820310709309 6.243730807153943 2.1222229521203317 3.993759954257739 23.54905411495956 0.7813418015799725 
4.120258113033525 9.415962796692915 32.13447997539855 3.993802474580311 10.828395740548174 0.7289555234594969 
8.009770393374227 3.764630886339539 32.19032439340323 3.993826189181569 19.080416430116813 0.7430873099226252 
9.982068871279324 4.438119521744563 35.11713982117695 3.993830711032156 21.1889595833336 0.7234960834615703 
5.128803432569612 10.763322781588757 14.16222108969042 3.993843466030019 9.132773639171628 0.7035680959060112 
11.56882459267822 6.580607435685163 6.125826915095622 3.9938578140838725 23.907367853605113 0.726938165978259 
5.946799360889315 11.313618365058979 14.409461624750733 3.9938588353464377 8.144415061601265 0.7934646639343932 
7.587815113174907 11.740565212610708 37.94028254885997 3.9938596186662902 6.435769513974346 0.7906167799247883 
10.647792326657799 10.498414643872493 1.26058173430782 3.9938682280578055 3.031138481564117 0.7335844347632249 
10.31113479935629 10.81462206536844 34.63543073721114 3.993910347518695 3.493302295814715 0.7264818402926086 
11.742960110094035 7.661234997367364 9.110803713138225 3.9939466278975897 25.00593445829604 0.9808629899799104 
7.917546298875239 3.7594378178250274 1.855216703518174 3.9940779026042885 18.989244171165744 0.7148402432614164 
10.551722037684709 10.596664842325547 29.540993386828383 3.994139093844941 3.16876920589975 0.6982026475289254 
7.779161093447927 11.744068085472017 33.88542744189609 3.994174538093842 6.2448733404979535 0.7469231632841472 
6.923640091446938 11.657864836391047 27.253397464334668 3.9942806959408164 7.1065728135924715 0.7624620949274576 
3.7704297428125777 8.093156531978796 26.89632028697082 3.994337972346667 12.205002769712731 0.7393042149703006 
3.806952992307421 7.111734603058268 1.1933065142742407 3.994371342502671 13.189700916223842 0.7729059792743853 
6.4007771169655285 11.509611159456176 1.4661227106832868 3.9943808604602635 7.650652713678866 0.7742874477142646 
5.534630339600449 11.073752466433227 28.10127252499761 3.9943952221005605 8.622708965503108 0.7719526638122304 
9.569746099863321 4.194188100731221 0.6856888959593306 3.9944053538604734 20.712611779949565 0.7646255281330923 
11.070987253916549 9.96954727475054 27.592768431651614 3.9944144058333158 2.353348753153721 0.8001872509396547 
11.72024073405602 8.189484913205959 31.303860090943665 3.9944910157983 0.4403764394895475 0.7178324535598392 
9.992561963602043 4.444324550251309 6.778197721735026 3.9945681042718317 21.205041033443322 0.7207335981542645 
4.994412488995209 10.641941944083065 16.775696536683583 3.9945701569446155 9.31555768568954 0.7492589238303646 
10.840233390480527 5.218738405610452 38.62414711044667 3.9945998131067246 22.35736005394601 0.6800004277266267 
8.842087897721491 3.907529437570906 2.2767879324254636 3.9946509233578724 19.930519799519935 0.722661109265823 
3.992555992768464 9.106846816027 38.284161223142334 3.994924123139612 11.166035298683383 0.6952580000276293 
11.681308302202915 7.039489242843297 24.86350625267727 3.994998185607217 24.38700315101604 0.7629222654472263 
10.322650624364622 10.806456640539116 23.682667365228426 3.9950542462574075 3.4802302604656425 0.7636850975282586 
6.6443163600480215 11.589074540683686 26.265423606252348 3.9951257352657996 7.395837376613109 0.8282100949915217 
4.69664480472607 10.32647064705489 3.4853203996197877 3.9951444208741376 9.750947244609044 0.7216308541075631 
10.789529676776427 5.157136394061796 36.62900646389217 3.9952074207734785 22.280970514361794 0.7480031719890625 
6.153431116324526 11.41239386543089 4.50960864682952 3.9952673284608324 7.918193060423729 0.8188507922262481 
9.606563879165746 4.212296652730908 13.918387980267148 3.99526900354681 20.758115770920003 0.7851068544055372 
9.156482302252916 4.01039073120398 6.3881054943525015 3.9953560479406307 20.264954321599635 0.7407772918658287 
11.591367420340196 8.848573082736149 0.4026078467843206 3.995368127740358 1.1129091244607707 0.7726894178927995 
11.731714775165878 7.419057842060308 20.14101721148637 3.9954443135496227 24.772795254810948 0.7698956181706959 
4.289886532620107 9.747936615112067 9.277975838945473 3.995514475652561 10.460025306536512 0.7302534856454698 
4.674809743800022 10.301012092978995 18.4779756121701 3.9955547562700686 9.785487706653079 0.6949848820673353 
7.632961832972459 3.7561553748690457 39.87483575122791 3.995559137621238 18.7115739401647 0.6593547544121297 
8.957772834239714 11.558700356741543 30.43350019253493 3.9956117962798396 5.049327015265074 0.7016379440986029 
11.000944580730199 10.07301248552532 4.894810052504305 3.995626067950497 2.479024872348681 0.7803898876924499 
6.365607335728413 4.001859828541399 34.313449378038364 3.995634842398727 17.415281723376353 0.7389547294757026 
9.65079070380638 4.235276986721136 23.848262604754566 3.995783172264083 20.8106289260847 0.7855078638167655 
11.526199935881571 9.056548040123817 2.4709724190773983 3.9958420560506878 1.331026405155228 0.7375789509039525 
5.946093571250101 11.315564452080345 10.788585297539086 3.9959139462235966 8.148357027551764 0.7936350215906136 
5.391498165763791 10.975705638899257 25.133823585135445 3.9959614326119364 8.799624037129256 0.7587668530053986 
4.047223385484168 6.247594807123047 0.6820262922339282 3.9959699724333455 14.09397353789329 0.7416959886093812 
7.301459373173067 3.7792672058080594 25.512273074413805 3.9959864385137274 18.38115454817303 0.6585315486546812 
5.058717239613378 4.795992122600946 38.487867311252785 3.9961438207464344 15.87866177985724 0.6996691481111169 
5.939999065953307 4.1872417504943105 27.22482496488429 3.996166879106872 16.95307924662347 0.7527658394510156 
3.865220760751491 6.812521038972449 4.305131975744104 3.9962953519560487 13.501029669007206 0.814744412581583 
4.93032311448578 4.9180473294651375 7.225518541749906 3.996315010963564 15.702172647500145 0.7768360435442198 
7.412618340022769 11.732154789270238 13.021662909105913 3.996421292881531 6.6153475852033665 0.7682591376698821 
5.5823192170377975 11.107490452422427 22.39960663031551 3.996446185666881 8.56874045188017 0.8189634635696508 
8.505319867631185 11.67448499124586 37.5050321275407 3.9965097959284948 5.517812636132636 0.8035409806915375 
5.1818463392086915 10.81214553173682 33.2291322816359 3.9965170439986326 9.066820167937447 0.7314846072631628 
7.232139953374313 3.787062285559358 33.83055781388809 3.9966303752570336 18.314356734604075 0.6634627190657423 
3.7779326544931138 8.193680455690782 38.74049144982962 3.9967701139800487 12.111626823884613 0.742407582156675 
9.860635364403137 4.355964949526156 33.10420583113766 3.996780650137577 21.05796425011433 0.7592346665831682 
4.496756445466737 5.428206890008401 8.736144618797816 3.9967883194781137 15.033698082574688 0.6665107356755576 
8.564339338045059 11.662967494125311 36.503132249734406 3.9968066212376345 5.458087607731169 0.7875866633560599 
4.426011718343197 5.530603040874826 20.780389482066084 3.996826360847542 14.909377580263008 0.7415902627623501 
4.682361504944286 5.187901304360993 31.353041924323307 3.9968432121541606 15.33761766725932 0.7108581511902282 
4.314971668782736 5.706550126449464 36.0401603000324 3.9968871665308447 14.70152340354667 0.7298305180351202 
3.9218296504979566 6.6009106146315695 6.326460285548123 3.996910637026177 13.722203218278171 0.7138773517926166 
11.290441270117725 5.895096562462374 27.13721560226041 3.996922710003498 23.18449525235656 0.7463667400518393 
3.7599617293788334 7.51524342392033 15.0180508524193 3.99693833465494 12.791643868120058 0.7790523597135065 
4.0951779064616005 9.367989052735739 5.912330913383414 3.996950476324306 10.89099507876124 0.7491348397586655 
6.229620529054952 4.053485626827204 19.330853336531106 3.996970383521027 17.275619934567462 0.79407432376886 
11.390303162117853 9.400471002789187 8.497656832427069 3.9969815665290698 1.701387531544448 0.8015252064165015 
10.969484844219348 5.381219794683915 28.834114022381883 3.9970241834714235 22.57862138466108 0.7473266009945135 
10.310075053750655 10.81956777657474 7.484460353677079 3.997027722673736 3.5000135854868546 0.7374641091086208 
7.372540449649263 11.7292023673199 25.567315223600204 3.997064822120761 6.656597573368515 0.763144580198059 
