56

5.437886985873234 5.239688258541819 37.62134734952379 0.18816974111803875 1.1719884430682965 0.0 
4.937904471858238 5.692138294904052 39.79555277290771 0.5411930251830186 1.1827536095375626 0.0 
5.761052783509882 5.010342120758044 10.393507090120174 0.5644562397705868 3.299069091471599 0.0 
4.257996134423463 4.382671654975089 8.963370075995861 1.317698799954847 5.08636628006151 0.0 
4.179225940967159 4.1728749659739846 11.297960681460445 1.518800653286406 5.968807042318486 0.0 
4.231335477594746 3.9816817063179224 26.20958504852979 1.6267478917446736 6.565104235705593 0.0 
3.9216622091691455 4.301499855290305 15.53120759069634 1.6322174521379518 6.1398900494007345 0.0 
4.243595540160545 3.830331997191709 36.61111086765214 1.7402031993369134 7.1273745246268945 0.0 
3.3413295636769345 5.073988150721643 8.83159400543316 1.916768897280022 6.197967242091007 0.0 
6.5444426849541095 3.823943564914609 16.34473900720935 1.9259332337024713 10.495269740655187 0.0 
3.2904393631424913 5.504409675107469 24.0703643111153 1.9760066225369028 5.952690051952224 0.0 
5.335231500498395 3.219886968866173 36.880628915832816 2.031901407021655 9.660366314453988 0.0 
3.266880788995394 5.798876656346749 21.640875465070813 2.057675238937845 5.908773988802398 0.0 
3.204881254483393 5.486255054272897 13.069234079320012 2.058719780332649 6.230882227692055 0.0 
5.807075191793539 7.27182419331999 1.7578211337904293 2.097166144587937 2.7303772329551528 0.0 
5.755786919609287 3.0888302329893573 5.118853762082722 2.2195664373675976 10.969730296511546 0.0 
7.470552774804884 5.070727446379502 20.05686061696848 2.2277776536663785 13.818073216920368 0.0 
5.8577174747481076 3.068048491056185 34.154336751376185 2.2650017475702757 11.288825103908188 0.0 
3.082427746585509 6.072015719896822 19.608352510609116 2.318206055882408 6.442562881053595 0.0 
6.41711924315409 3.1662025663379403 36.29171114623769 2.3883841969576753 12.474405726189708 0.0 
3.0211838644002524 6.283500362895225 30.39253148984053 2.456775196556321 6.651485483200847 0.0 
6.5029798780825026 7.372562366159784 17.13308581426709 2.4647980795832867 2.5572989200477636 0.0 
6.788125297155439 3.0788657888363833 20.811643614696415 2.660761769237255 14.17855844457074 0.0 
7.363700865689621 3.1516375486743 14.399987739141345 2.9783982820889916 16.385445705111813 0.9930207805385737 
8.032379444280583 6.31301458681449 0.3970951974357746 2.978529063772167 1.0869819126817752 0.0 
3.118655808003238 7.370909447010687 30.32077904856753 3.00680643659972 7.091999245335991 0.0 
7.510895916012039 3.2571451886573923 2.9967302278255517 3.013821600913249 16.759008488533546 0.8314996353263352 
6.737086481840748 7.900425876849685 19.23148066985221 3.0391090031698296 3.2199067143706017 0.0 
7.497276328178167 3.193433321366106 25.100591306647544 3.046262857807446 16.882600945576662 0.8515746853108491 
7.583950022635399 3.2352807861514403 18.922792102338136 3.0832476739325276 17.17697183187685 0.8403529434606093 
7.565357728999166 3.170977473519434 7.372096963585928 3.1117866377452374 17.27513522840378 0.95817647206888 
7.167274854224525 7.961941040050867 12.686787663398263 3.3212297528707424 3.173117501854083 0.0 
7.934128742817178 7.20741859867171 0.8987352879553825 3.322052780803344 2.093200946442199 0.0 
8.03994964418942 3.413215941326719 22.950968337420534 3.3402985937351426 19.042899781645957 0.0 
7.504069287562729 7.8021153340380955 10.409368396892894 3.405014101492961 2.885176994735218 0.0 
3.5577304809511787 8.261182039865641 30.159912249692297 3.4541270101591683 7.194263169789409 0.0 
8.518107873706256 3.7047323712003024 0.6705166877332118 3.615021593130125 21.117173717494282 0.0 
4.005755220857665 8.784260233279529 25.295242985984366 3.7468841010850644 7.15391977771101 0.0 
8.791509547387795 3.9017068517463667 5.411589888601377 3.789483380075258 22.43153153046623 0.0 
9.290170129711797 4.653970328174925 21.626493559017273 4.083898388392069 25.061724199622986 0.0 
4.9992662678754485 9.62049108328883 8.009018868063421 4.377677433700691 7.127310655670499 0.266550520846934 
9.699320555136982 5.555693563861233 19.232128198268303 4.459809632411528 0.30593344427693836 0.0 
9.71623693522092 5.202741787780582 25.74745676064797 4.466486952869531 28.016506102959205 0.0 
5.178791470497568 9.7371903850924 12.207369282181865 4.487755363958644 7.1205611591416655 0.38484090667599635 
5.385081100113563 9.762916462266292 39.58594514406295 4.5149376406548525 6.956946200909746 0.3491155388296016 
5.612275543430549 9.750776840752836 20.807049518546975 4.515333402931058 6.730003775328605 0.7892079274707812 
9.745877719042708 5.785165025368231 34.66178416507125 4.527617261757231 0.5364190820906458 0.0 
9.552138437738602 7.383566722452553 25.662842217396346 4.802135160178737 2.2108437486821533 0.0 
7.272493199310912 9.774674382784863 38.49801846715934 4.956123183647525 5.701755458973031 0.0 
6.80194177088714 9.982882030891389 25.706786889583462 4.980832819776118 6.245655747629591 0.0 
7.923904710430319 9.470163473533598 2.985404420116261 4.9959529765409725 5.026103985491105 0.0 
8.947119593157742 8.726681774782202 13.463196782569955 5.0750378766284685 3.830027834239983 0.0 
9.849281712677657 7.4741523595050285 17.294793261278564 5.108839984855945 2.301180513877723 0.0 
9.714703738262164 7.734589397960756 4.281476162600036 5.109477854625768 2.594678668730076 0.0 
8.841715202723481 8.962751368247112 2.67210996277646 5.165746879193343 4.142757520850573 0.0 
9.039057712889399 8.845703280984957 11.296741072611962 5.223604161543311 3.9658712691878257 0.0 
