226

6.444904849652222 6.943104472826131 18.35259595972444 0.3610711677650147 0.9305922507534152 0.0 
7.14387137012487 6.746973435344628 23.669807481404433 0.3938829982338081 2.4718132728116373 0.0 
6.732833057920281 6.311344405760969 7.1498464218982605 0.43899138289670914 2.0515268347748314 0.0 
7.126033352191303 7.010821099211765 1.873901026700338 0.4576338358931302 0.2775208620098546 0.07816972256264798 
7.159300406885194 6.495805924368576 29.040761728389114 0.48181059677273685 2.7595388316285963 0.4194953392451242 
6.783171079271888 6.249407978519252 9.966986961928505 0.5016898369214218 2.3973529549255357 0.2955424031470484 
6.36575155824505 7.0782214318010395 12.357565758328263 0.5053475767079854 1.2303549475261377 0.5345768243965662 
6.389411946346971 6.360442245748337 4.570807048131421 0.530828586584104 2.1050487443156882 0.42847815995208316 
6.392006607322697 6.345912205226468 36.78083613198167 0.5398575877817624 2.1526292876733972 0.35474785211583637 
7.258213237109466 6.964259427975619 39.30760851746467 0.5515322264833884 0.22005133586756465 0.4697375089384738 
6.269902195370544 6.424544196175708 33.94746005809557 0.5800132604112958 2.167700000741288 0.37744792699811647 
6.639942856441978 7.323003762688359 36.746432076594104 0.5834774090769641 1.0272446023093558 0.46182570738920997 
7.204477666962249 7.117138773838729 20.851270087239428 0.5842438095720426 0.39699049847102774 0.29298403444973486 
7.3015436113844565 6.534645711027313 34.20088768063671 0.5920961282071846 3.499840113299559 0.5019753947651507 
7.347777377264657 6.739341099614235 14.908327234325043 0.5978723985323686 3.745883604923751 0.26040937874623 
7.350288619906426 6.690061381092294 4.6675235545128615 0.6032736238438776 3.7304422955968697 0.09534833780181304 
6.1248160371525735 6.813893498298926 31.328818382567384 0.6284404240073118 1.9102997303229472 0.5650695122467532 
6.997564807625928 6.15812609738248 15.707539358048223 0.6415629747534966 3.2774552100721124 0.3363338388536697 
6.157887325163948 7.01085926275581 15.417524475089706 0.64702780053643 1.7641985470585517 0.5188993120261394 
6.171237431822474 7.043098124246232 9.731549021988638 0.6487469620430639 1.7339842547440476 0.5403508790010049 
6.175658015040883 6.437102479435678 28.732091590433896 0.6540440153858751 2.3810010736059475 0.42753213545326835 
7.41383530549151 6.59334716749491 36.78744982619105 0.6820684883124777 4.1274988816310625 0.5836541419367397 
6.736933938410793 7.433242112192495 34.230393202847594 0.6833670359614343 1.0864972877742982 0.7296903881452587 
6.269325187772598 6.257181546884146 23.636325644078738 0.6884172447297869 2.71199527180811 0.5641685733135239 
6.852828726068964 6.058638572673544 26.275925002951865 0.6989666444830109 3.397006018035288 0.40744182988497846 
6.659967603398574 6.0475801766796184 21.14966440704032 0.7081662521126204 3.2468781297364373 0.4836372179557027 
7.407324663188938 6.4689436817632675 31.686002297548256 0.7148904579425004 4.202937299343329 0.757653084834808 
6.040728684307069 6.84653340601194 26.076330566069686 0.7158103783412533 2.1519561913265246 0.6054528571927056 
6.057637184906653 6.984033188893363 2.077055776433575 0.730847317315718 2.0577949931383213 0.4915698968158317 
6.010681532822302 6.7663184840276 39.34212916289239 0.7394985387618687 2.3068833680139473 0.4294078069762531 
7.1026999687672046 6.096712937642788 18.385881708375464 0.7424158227110351 3.86608087853854 0.1970767521437775 
7.259289960679901 7.291048894143511 26.423305610148155 0.7430411629938463 0.6060435421815669 0.6760131178650927 
6.352944116648221 6.1211207011744335 12.697071808732609 0.7437355356547108 3.085923615801187 0.2302397699100677 
6.439296682678101 7.428176800257649 28.81107604877097 0.745962682580394 1.492225962069048 0.527821118376439 
7.103992057375365 7.469717435433646 31.491309898299306 0.8020620696380223 0.8932493299532833 0.0 
7.092140490102192 5.960969558834224 1.773012741866431 0.8600169487013787 4.404610614773137 0.0 
6.027226724629445 8.567303961073206 5.800338752472626 1.9557594163194607 3.812427026498945 0.0 
7.2696241632042256 8.651858880526996 8.084597098216761 1.971567009367193 2.5710940415566803 0.0 
8.289786466919242 8.080424132228506 10.826671699274023 2.0349375261475795 1.4500637708958664 0.0 
4.869070193517594 7.665454541546094 21.926666503063792 2.0918780926601124 5.624304946056753 0.0 
8.726549626767586 5.714007433064527 11.757579796125292 2.2315978638232816 12.944185237089066 0.0 
8.833422937471486 5.492043852329017 8.467531883995008 2.433742962156344 13.969639617726617 0.0 
9.347467823022281 6.4500104144629375 8.3488585230847 2.6147337996566358 16.12820534650772 0.0 
9.314620081788057 7.421088950873967 22.212391137619363 2.6509689820697075 0.6784715961674461 0.5572847753006512 
8.093154042716101 9.075226326803511 18.828452626574993 2.68528215525385 2.8114285384627973 0.24208793495808315 
4.041036079472088 6.638450144703599 35.465694102539146 2.711259650593908 8.629254750792555 0.4698990881445309 
4.795343354585299 4.859259630600947 6.129891586697809 2.719481889246388 10.634182693085378 0.2246277217249159 
8.386538786892858 4.550759718228761 5.857963960110098 2.7413348970838993 14.671975242533286 0.26014007869683625 
4.328746639191493 5.45106429663754 18.83574008296688 2.7476720689878964 9.985014845406438 0.3085050558220385 
9.250872783428262 7.893361285638754 38.03055817091048 2.7498435788949407 1.179168142306711 0.1529121579521433 
9.484901233761455 6.45052195227424 25.117944532494086 2.7512491452973777 16.986535579170287 0.37407705376425276 
5.273442394457929 4.427409773825554 35.24096157465439 2.7522077903394564 11.410944080110662 0.3785520668610455 
4.514875749756257 5.141439229470183 8.778311089845865 2.75376981000866 10.369047492161119 0.286223946309746 
8.152014807436913 4.376796364908687 14.201362465732629 2.7564000097741577 14.46005578409776 0.07870243289229327 
6.667701912560744 3.9859977752262914 35.2112814470096 2.765227164945074 12.948515778620616 0.4354153936500154 
5.90777629054366 4.111250196680519 30.066376173634836 2.7698991500213483 12.197069000405353 0.699257438412174 
5.71954003102576 4.176254446416662 5.946486734168218 2.772366123413068 12.008671619724918 0.5526193686901283 
5.473868221035492 4.282954213744532 37.92358109224121 2.7775577813546874 11.7630129150803 0.56627638294151 
8.869433927388744 4.9427400116924005 22.364621271656222 2.7853525518153113 15.534247479572239 0.5982168480530149 
7.746882559954059 9.35683025800215 24.286723756211813 2.790938700934886 3.3645981689606685 0.1637866613616302 
5.658221272605092 4.180555420291283 0.556330508085253 2.7917783289126916 12.034228147595892 0.5722606858106815 
5.052187457721166 4.523382534034104 32.75161407452187 2.8000701363472498 11.37089162805041 0.5757998477916259 
4.297091512635641 8.11269549291926 35.393373293485894 2.806011235509681 7.392447669975757 0.23099051111997917 
9.108298197150784 8.276315125542862 19.226238055951946 2.8091294468474683 1.6135967298486236 0.43824536205065184 
5.366784388577633 9.2011762493437 25.087470661847178 2.8145249036079236 5.867038460784482 0.5686837829228254 
9.484117075878757 7.435411309522685 35.460626360045325 2.818720427398464 0.6923522096876003 0.212659089032217 
5.631939421900206 9.3380263765598 0.3976844878905652 2.819209105772414 5.5780642187263325 0.3019896407610222 
4.3140981830971 5.329194282284774 16.3152670452766 2.819983430639821 10.348282078328982 0.10378719869423127 
7.081540727860258 9.550916368832723 12.564287013797866 2.8204701309223617 4.0980750938317545 0.37634580785923616 
3.9866558926878533 7.353603651515847 0.6882201350876826 2.8284992528795248 8.277710973978479 0.5306818485992588 
4.041498078169926 7.567389727058501 14.019978304303933 2.82915334092339 8.058836320262444 0.38216868258348813 
4.94905509399549 4.562277125943915 3.52061420593882 2.833643225272338 11.401610656390764 0.3740806427941349 
6.661183584082957 3.910109509565423 8.37340725464179 2.8412789995699286 13.300380961080986 0.32276062046379356 
4.245253079597438 5.398907736223796 35.279132624690014 2.8459106522345397 10.348502621283455 0.14154608308469932 
9.35075674326897 7.915220181178327 6.225976822469391 2.8498550328541756 1.2004030271812134 0.4060415457874407 
7.9849597437375195 4.177756622734661 27.548647925189428 2.853342173756529 14.72324089688453 0.21289440612444632 
8.908889753214073 4.883722449990685 17.000057198519208 2.8537338453684646 15.896311031940058 0.6111720276697183 
9.423217045100223 7.7538731658701785 0.5694201345357612 2.855494826359974 1.0257943596495522 0.5927230802999045 
8.755812333459222 8.783344250803559 35.699254249918354 2.8561813596711647 2.2627077504166877 0.49801305531683326 
8.766343829385196 8.775288369071582 5.990018882586341 2.8578725332310335 2.250892588653393 0.5875116952804399 
4.061185766461325 7.719575547969097 8.275147771533796 2.858285976892399 7.990365856108905 0.4757177993569035 
3.942385920868835 6.20418530677029 5.94562129770938 2.860176654803157 9.534692982818925 0.7270429643215278 
6.109113898777718 9.537915088432094 20.477843801367918 2.860630268847625 5.139839730991021 0.7757504713827782 
7.41933066844513 9.531514206152249 3.9333040390150487 2.8609132847305894 3.8183198541538985 0.2919915699775598 
4.685485034653549 4.767240048244579 11.347268195704054 2.862439356287679 11.182959611261573 0.191760353655898 
5.176124072894778 9.147115815977386 19.71018249711571 2.8676209074998487 6.170480097147546 0.5347363492818781 
9.493477143488265 5.913202756482994 21.90006719630223 2.8682566941611367 17.172641330872068 0.3952584741233675 
5.9585104235186375 9.507295814584108 17.33004678274088 2.868647060689358 5.307952531468505 0.6226898753440397 
4.672599944036559 8.72864757026803 13.256698230081469 2.8689087123581456 6.8295423497406595 0.6137000072069079 
4.62649331473528 4.815704012578886 25.015239560098287 2.872417380764395 11.146116084249506 0.23411340562738958 
9.557344958061378 6.136312069071167 0.5796696727272206 2.873638562888583 17.437152510688815 0.608474912502754 
3.9390500436833644 6.1503699253047905 13.850502905871032 2.8741948234932644 9.633616659492262 0.6160502548272714 
9.60993745064588 7.073731281897528 30.39742474229621 2.8782015503584657 0.3244177880532817 0.6330127892530695 
4.386945897727866 8.394896780591463 0.3721016142164828 2.8791856676958703 7.294405703845758 0.3888647006810034 
3.885245235350519 7.05071273650927 30.173195561363883 2.880494404000953 8.74807840221942 0.8077577292757332 
9.179423659085568 5.196581048941447 32.96212735591446 2.883610541115525 16.477771312431216 0.5601178154055182 
7.802143813199983 4.061837161146071 35.396675795934115 2.8867327641903775 14.680360086345246 0.2237202316784908 
9.501772122465297 5.868330706159076 16.674542561369044 2.889565807812503 17.259720612774213 0.3449574467101825 
7.781834877230271 9.451396809256684 2.9767160230893595 2.891751706998892 3.4872637950505343 0.5766603340755593 
7.034577615467397 3.8694917978714436 38.05358002236029 2.894531382064287 13.925195861949089 0.76552936724399 
9.636907051866249 6.523217704574195 3.616450540419727 2.8958008452988717 17.967838572601323 0.8376477496038699 
9.28841214536757 5.355379704224834 5.9577501374439805 2.896291074656967 16.742873139663963 0.4636276448387472 
4.428481616888478 5.016365398435076 27.510161089026617 2.8974016868338985 10.960933699042727 0.31302534974216945 
8.41527563155648 9.123763226280262 38.15637266030393 2.899637008919619 2.780872424344736 0.6849586172730392 
3.8471824476000336 6.745644091726611 32.74162358858065 2.9028208205912778 9.123836474565168 0.6672713718139797 
4.941268498371029 9.021026181004785 32.87585749267326 2.903285993455377 6.513120102078499 0.7943023459788477 
7.074404930578304 9.635566097391084 18.1506450405509 2.903744179743857 4.236107112284895 0.5824186626016015 
3.84877321846259 6.883342306203533 3.2824223552250515 2.9042894154222303 8.990705094656594 0.4696026139479831 
3.9861865195531223 5.855299542775903 3.3499257557470656 2.905022179408771 10.035881335695175 0.4684882443366345 
7.388303849448519 3.9148457262819054 30.294505365512798 2.906119674067601 14.33831710756201 0.44922168246577227 
6.69931875621679 9.657423285778647 27.53250357722345 2.9078649815903272 4.618347441945453 0.73480728133551 
7.3740141990849 9.59115303583627 38.25385095947438 2.9088733718918096 3.940345383330687 0.41234708757150207 
4.8521960289147685 4.54336434986118 18.958721393036853 2.9104811982094034 11.64801533264363 0.4102048451621331 
9.444387198193226 5.648149638563991 19.378328341964185 2.9109786314544106 17.160199919978844 0.4310073298961772 
4.57469566267342 4.80691729437074 37.99438804634444 2.916765222109479 11.28981789019483 0.4192259451689635 
5.956703912011998 9.557346279101548 6.03650063051483 2.9172781516342203 5.38586315775056 0.423386352434416 
9.27601912816889 5.2904586880998785 11.011442383296085 2.9173675594649096 16.801840613253326 0.4541035217808854 
9.105331360490016 5.028104997743627 14.249254553202881 2.917620300262394 16.49014080837592 0.6619320158433651 
4.070871909210199 7.906845654868839 32.803645443558615 2.918221923714495 7.978351783945321 0.3306949416911822 
4.090166180628177 7.95461487080453 19.534730768049016 2.919899473207513 7.931431412243764 0.465623344290161 
4.564821835245519 8.688336744053746 8.257925688768267 2.920984927223802 7.057055873349082 0.6457930493512846 
4.060305738548031 5.607827168425045 11.36538846166134 2.9221591327776117 10.353691882120415 0.26428235583559 
6.705162536000888 9.672793105102347 0.6973904522731473 2.9231370021625205 4.636492088121706 0.6318311290595097 
7.7238610555215 3.9936439104659787 17.063986471264094 2.923337860694986 14.76874286975687 0.1918322404020358 
8.685878413984646 8.942857594119152 33.11848412691368 2.925106777848929 2.4792022883697165 0.29877651355805673 
8.430548157241535 4.352046179401691 3.2610045314462184 2.9282118493254448 15.58883073143772 0.7477777102627794 
9.677653921323612 6.641667411562176 33.00854538938508 2.929657562371271 18.299224058949015 0.9930718223293562 
9.520672832036679 7.704395725450938 3.6943967080779174 2.930443506185564 0.972127913162435 0.13666649624928498 
4.9890196196613825 9.09432550317979 35.37854540480974 2.932049447877154 6.4946185760184925 0.699055805184049 
3.8223628434095858 6.912261051839883 19.762061911708898 2.9321302784141414 9.049214957789644 0.44051428345014004 
8.240580274689886 9.275260956805067 30.1855317176883 2.9323663576126715 3.0425165260443734 0.4015610577383929 
9.431881499863994 5.563644317206961 30.308915337780313 2.932563415411178 17.204479713094813 0.15466972816923438 
9.02025742882353 4.890625409824533 35.48949507742595 2.934508929909502 16.424320280400867 0.332537121895807 
9.161199235612333 8.425641138264554 16.242215782269483 2.9362654815363722 1.7832602900417118 0.09774303223731545 
4.481401356712237 8.618813510486758 3.7070885999517174 2.939218219408849 7.208498209648887 0.45908896762746826 
5.521592514493975 9.420403828299273 27.587746113660444 2.93939476025978 5.884497184320283 0.5489674676722273 
5.5129689927452254 4.08347850192672 24.98426841248571 2.939486794084425 12.575201954011014 0.5856034193250161 
4.803204626528501 8.954013557031077 37.8963697948286 2.940695153487829 6.746852835928678 0.6214619233594425 
9.650287561794133 7.2391930788159975 16.50770876045172 2.941254461868136 0.49147703041865753 0.06980798222175177 
8.233779093724156 9.28970246935146 15.89761108584564 2.9413753639756304 3.0650618573683435 0.45217500092265406 
6.137609400625326 3.8727490317054514 32.66864157960437 2.9416994035343573 13.245529488697217 0.6019387821522488 
7.528448064926968 9.587792639821833 35.64142241402651 2.942626115634726 3.8344401666289354 0.36076153382634263 
9.686089507138199 6.950394298813267 19.0888752078344 2.942920228093839 0.2005494859020711 0.3922540258078253 
6.183505517412652 3.8620528612644485 19.762525848326597 2.9429839746306405 13.29843279579822 0.2111982154271474 
5.213713143185174 9.261466323128943 24.09990623819271 2.94408566428234 6.240816907429355 0.5506539620527189 
5.137938483828709 9.215762657912393 2.904726990182759 2.945968061109229 6.333309572895303 0.41252627861728763 
3.865790516773453 6.143620521321978 24.7448089012762 2.9472632076717846 9.869841560703108 0.21791980407959632 
3.9089819599436773 5.9580851036824 0.7936297804381809 2.9493241101878227 10.067328176435751 0.385087505661907 
7.113549813301585 9.676959887425284 15.08224468684314 2.9494512454604584 4.268510445086044 0.557097344741411 
9.177050876073794 5.070459777284137 25.08503759899547 2.951513393967749 16.75822912677163 0.0 
6.439662198340537 9.685473620162092 35.36137551494456 2.9518324691293665 4.947639965487353 0.0 
9.660365529838733 6.254789270776287 35.54101016899617 2.9521959934279063 18.05163149831798 0.0 
8.994541131800638 8.667709195455263 27.65707776757485 2.952215007528849 2.087322475449021 0.0 
8.165931344137963 4.159375130606888 38.33971186265759 2.9523209150142224 15.389229937102442 0.0 
9.422997529266677 8.005013853833448 32.96752570301722 2.952960474638908 1.2962433421751918 0.0 
5.428900589091947 4.108082583045178 27.50158006120055 2.953816394346616 12.549876070052598 0.0 
7.7778729646272105 9.520242026093161 8.248705398829 2.9547865768180723 3.5915466279518213 0.0 
3.865118024054741 6.107455341643941 27.46409025984827 2.95557230551305 9.932921135992121 0.0 
8.661585319438737 9.005069018141654 10.658018684606766 2.956263640150529 2.5649977540404976 0.0 
9.121777104296084 8.51531668868557 22.33767275772994 2.9566314690564495 1.8917826928979817 0.0 
9.113240969648079 4.972732024080019 27.67089173126832 2.9569560934944397 16.672428755750893 0.0 
6.501077516735714 3.802339484201614 17.07990981105356 2.95815228125113 13.690747024174772 0.0 
9.362186980030934 5.361215522017259 38.180771132645354 2.9584190279486995 17.14266228549925 0.0 
9.238322666742572 8.350356706424735 13.357568422900243 2.9585285669777646 1.6909244981676146 0.0 
3.816213167934052 7.136698514561456 11.177134984203661 2.959162198523018 8.908674566484954 0.0 
5.587227911437562 4.028339472232869 14.03998430617765 2.9596410184928703 12.752003803243625 0.0 
4.421484940875279 4.921255972726767 13.832630550245248 2.9607916336443054 11.272765569490497 0.0 
6.418331050259377 3.8056223604923396 22.501129281146802 2.962999152253463 13.630439041351016 0.0 
7.2486219743583735 9.672270166264019 21.10949584936374 2.964504477640366 4.155629292501599 0.0 
3.820207148527162 7.202412133313755 5.812989994623642 2.9645173116227292 8.859118934113596 0.0 
4.567539764612851 4.740388959818802 0.6627465881831114 2.9667607271002296 11.528184693738961 0.0 
6.919076957736383 3.786171247718624 11.929734142735068 2.968647485048901 14.158590194731655 0.0 
4.460317966902595 8.640042208051867 30.297286248008113 2.9689902931647705 7.278535019697713 0.0 
9.64846612458994 6.10377981821178 11.790334379622022 2.9696306838975484 18.007307673253024 0.0 
7.841823117676508 9.513593307751668 25.27806925197674 2.971451781695717 3.5495297022444756 0.0 
4.250711512372684 5.141800316774816 22.442963270343675 2.971994139548733 11.036080332196809 0.0 
4.796605273749444 8.990429388256123 17.050605539083385 2.9724190149279384 6.800475097753383 0.0 
7.292518595724193 3.827307756663558 5.442393678648848 2.972617764860722 14.553707570610934 0.0 
7.765379106799504 3.9559634665711485 22.105821268983547 2.972815984998074 15.045301306578052 0.0 
6.3033112137433935 9.68913945455384 32.694598490751176 2.972889437076738 5.118190665088383 0.0 
3.8891499135264755 5.939628754736857 8.525127266305049 2.9734096206921965 10.16199609451593 0.0 
3.810954563653734 7.201110116862067 24.944506280063237 2.9734640429040207 8.888554005179897 0.0 
9.010688271309121 8.68480937202689 0.7807714355347848 2.9756005723412713 2.106369105701921 0.0 
9.184643553273194 8.460816804938668 30.301078237719715 2.9756315920414735 1.8226748136636353 0.0 
9.625945330004813 7.513966231450741 24.790793204191473 2.9756857938924823 0.7726180034474943 0.0 
5.784864374365853 3.9349014182790913 3.0523585563160083 2.97594805073531 13.040915844281598 0.0 
9.320007938171498 8.252377073361641 10.175953540158247 2.9769241966881173 1.5748066853242904 0.0 
3.9168191546624698 7.666516291610252 22.3362421534219 2.977736693392229 8.423194387243667 0.0 
7.367550899729974 3.8360374532306114 19.63751754853397 2.978682063888666 14.65877129727348 0.0 
3.80407581753183 7.190716819624692 38.1779231455813 2.9787078748932156 8.915545960825105 0.0 
6.66515637813945 9.728310768150992 21.92583961421525 2.979519000082831 4.765072593047353 0.0 
9.257236420787947 5.139739538339642 3.3357308077983916 2.9797941580102782 17.021421475069715 0.0 
6.6281298602394045 3.772403443470637 14.575476107848054 2.980089526242591 13.921436909730545 0.0 
3.8240714338338826 6.183364904540213 37.97343235014354 2.9802908089167475 9.932965393340666 0.0 
6.876445130507419 9.727737754251121 30.103784113520987 2.9804211957576645 4.5551515738544275 0.0 
9.621337399162782 7.5517593069675595 27.91706236538785 2.9811736692349844 0.8117532329338459 0.0 
8.773581974943347 4.560579120571225 19.48225850209805 2.9813499956553726 16.273531605324784 0.0 
7.447217540305212 9.649383594791255 32.673386683582564 2.9820358026445475 3.9804395464422946 0.0 
5.5584547037148795 4.015989399420938 8.648225508797346 2.9823806190990916 12.828372636071325 0.0 
3.9533217774526257 5.712955723210534 29.946098003525933 2.982762128043825 10.429786664383958 0.0 
4.343906305276281 4.9866610445564525 21.419959624499782 2.9830606999479534 11.258178723501391 0.0 
8.175102897026498 4.128481169523548 8.484343949725826 2.9838363302393005 15.546737976665185 0.0 
3.871990309569142 7.5414491410966935 27.70948600094163 2.9848503348001576 8.576154307041428 0.0 
6.052566361287829 9.653080580322126 10.085005399157277 2.985680916683956 5.393833898827737 0.0 
8.65755283356392 4.451862004740121 30.290038907417028 2.986669726986033 16.14349386938789 0.0 
4.723011464773871 4.5558468553128755 30.126841451624834 2.9871375168007526 11.848695696187626 0.0 
9.737840229467182 6.803300339826503 38.14736425379351 2.9883156063321206 0.053303166319658146 0.0 
3.966267980709425 7.8377703845028215 16.83260421685749 2.9887134965775815 8.27597874428993 0.0 
4.071510139231934 8.08278544642241 10.911529558348768 2.9917595124663214 8.017545102697328 0.0 
5.155687460583014 9.282147834239145 10.788107118395786 2.992257530324593 6.381638824904858 0.0 
6.992785056618375 9.732886854692518 13.627766755848576 2.992751003945133 4.457950134236988 0.0 
5.437651114323666 9.440087517244601 30.27279571487685 2.993130543122224 6.060112633876837 0.0 
6.919024757096992 3.7607755357731794 25.078019063374697 2.9939993764267583 14.278004338313494 0.0 
4.071674651838567 5.41004156757263 32.553399388511075 2.994814730703266 10.797738394040248 0.0 
9.648010601567087 7.505517757389564 13.938252262382719 2.994874376084276 0.7637699005492742 0.0 
6.927451891574693 3.760155398541249 27.599410813847996 2.9951059938999607 14.291660353115512 0.0 
5.6776508332983555 9.546583068606557 37.75384989285338 2.995130981266526 5.801432036176532 0.0 
4.690160405014531 8.924487862105968 14.37339199574538 2.995218960195745 6.976239942498948 0.0 
4.810759444104323 4.466851278225008 16.42119936448362 2.9955670614047945 12.00701203276254 0.0 
7.238457074729155 3.7943296404069358 10.931946351967909 2.9957599350465243 14.607833772277782 0.0 
3.7541656033253332 6.747624737068644 16.37512313891365 2.9958353382943232 9.41406955333035 0.0 
9.663470887069055 6.050152830650232 27.74183877455532 2.99634755498187 18.12023510765388 0.0 
8.034369249488796 4.042744680508767 24.856318620281357 2.996470546150254 15.447890167236839 0.0 
9.249651535164883 5.096530701933101 0.7326782525666289 2.9970349542342682 17.07944923774486 0.0 
8.583584869476026 4.377842546152159 32.94989246657954 2.9981935326821865 16.10156998443883 0.0 
7.025733300410597 3.7629531085204846 0.5585183179237703 2.99974632008321 14.412094568950547 0.0 
