100

4.752413096364026 4.745393243444571 12.735276793673535 0.0052005038239637535 0.02701613874083364 0.0 
4.7508412440620145 4.755354964516551 22.905602543707303 0.005420639864941568 0.007670063129458171 0.0 
4.735453867862419 4.746022725002642 34.54820165169977 0.015080075482853283 0.05140034582407438 0.0 
4.758077582083649 4.763552509515195 20.269661437007635 0.015777130489336197 0.016302628838824607 0.0 
4.757391699248468 4.7664125797447285 18.784613865470178 0.018000277543884224 0.020657775302836967 0.0 
4.728044318620669 4.739574901476684 39.533161543246216 0.02430503289550634 0.08713106145640559 0.0 
4.760150854425298 4.722084803572384 31.346551580357236 0.029703502102547463 0.15033405772298192 0.0 
4.778082282889353 4.7388203655792305 26.90424213108028 0.030225797558702583 0.17846264647985421 0.0 
4.759772959254662 4.713996457300161 28.367192354084338 0.03730637773266665 0.1856905015934336 0.0 
4.711318758808695 4.7429431371868604 37.398519229349574 0.039319686327124126 0.13062174510575364 0.0 
4.800953317297773 4.740220738593249 29.423045462881298 0.0518832776268896 0.31615413600745246 0.0 
4.783691542315409 4.791204515796784 15.504295432787742 0.053225296106628656 0.04712438478543196 0.0 
4.679701616777092 4.744794932505681 2.428698854258016 0.0704908179224446 0.22666324488577239 0.0 
4.751916608795853 4.677525483711821 25.860166960841482 0.07249985448593566 0.3435643474665957 0.0 
4.739070430680086 4.67672348200833 5.294079382371159 0.07408713501345576 0.3381577924283379 0.0 
4.766873191351057 4.849086504631665 17.48807944781715 0.10051288467898245 0.14093180694299967 0.0 
4.616680966447366 4.7414553510087805 36.40288925466996 0.13359257364760935 0.428243933638627 0.0 
4.78766783685398 4.547939134210718 11.320874671683768 0.20554186779528094 1.0064751648396744 0.0 
4.489412930847966 4.740035214351463 6.341715574193152 0.2607775250328703 0.8292239691110943 0.0 
4.705578456251046 4.465828991592383 1.3925737177929491 0.28762203595768177 1.3107868482442075 0.0 
5.4029267601262125 4.631203241259908 24.08755224697161 0.6636460080314388 4.050370322919454 0.24611288688915686 
3.9757830221714334 4.711830550855347 4.479291686146741 0.7751572973313259 2.4734133613722316 0.57064147674902 
5.539002161091825 4.681778097223497 27.586667183740616 0.7919461081576304 4.907637587103325 0.11784862467015113 
4.619475449745257 3.962999146504207 3.2849052766034106 0.7977512153687456 3.6281999983756563 0.274860808545651 
3.969234479419428 4.44822749298696 32.99715378745292 0.837055221664847 2.9384108662714157 0.6487236747127968 
4.764440907714266 3.905205865974467 9.40566183924637 0.8449175514211789 3.996021769535572 0.4080593204479582 
5.552619332665082 4.483899180845836 32.14788221940584 0.8455811250981513 5.042241821851897 0.4799407173289337 
5.25805189383431 4.014369829606976 14.083068189667117 0.8940181622434171 4.753317529460179 0.48610331352174 
3.8582383424064446 4.6213177180281155 0.021227404511222403 0.9009983261069341 2.95969354812137 0.4454100399780522 
5.572914443251947 5.126640496204119 21.509138841526912 0.9050117371026449 0.38845935358669426 0.7910470166131517 
4.764354016997458 3.838929197460616 25.233071792577476 0.9111838700524266 4.308207439089459 0.32221123139953517 
3.9434784530427427 4.322578900661795 35.78082388731722 0.9127791637991114 3.3123998637321543 0.5087144790745809 
5.6622998633486725 4.6190391580888415 7.838553811690332 0.9216516602166405 5.6595025786374595 0.6328730008192163 
5.632592296269471 4.482718233069613 30.092830010107228 0.9221760701556112 5.523030178802375 0.8513672829131723 
4.776663248635628 3.8263969367431416 27.78981633273993 0.9239878501827057 4.38085711369073 0.3489412908145017 
4.868044430499411 5.67451945259669 12.187249364343913 0.9320250564237067 1.3456592095162083 0.8323491568566437 
4.431398246579849 3.868918019339909 6.847713914792859 0.9369165031774733 4.09002951925812 0.24016725167818923 
4.616968486990179 5.680864691515503 37.790671900591164 0.9403225283720131 1.6105345025207036 0.7826294300039044 
4.7604240519601175 3.8045124252803157 26.372913665727495 0.9455450358436543 4.466200270490173 0.1175167905803579 
5.089952403918589 5.633802880348788 24.480956204710125 0.9469293364569704 1.1397191103816366 0.9271905118996234 
5.684297235920316 4.582787836533039 8.950159049404057 0.9491423669079591 5.7955479552232845 0.9779756703029057 
5.691737827518968 4.868481564177693 16.44182020031765 0.9491617442934244 0.11879143705933348 0.9201227043684362 
4.779619287579025 5.70041158862298 16.45865669094492 0.9508730146478788 1.4640037590736625 0.0 
4.982456854868011 3.8245020110552597 30.78741060774813 0.9542445791912495 4.731591242229898 0.0 
3.793278348892497 4.740683718210184 31.827614117393303 0.9567670096759466 3.015088637810246 0.0 
5.688489082371153 4.55514426426517 35.05405504398905 0.9585043116640689 5.826236732660517 0.0 
5.7121389838308785 4.7531004634787335 17.915631186557306 0.9621439793923241 0.003100468844730919 0.0 
4.382638099863043 3.859002106844679 38.75612515727968 0.9637593119028515 4.164713356510083 0.0 
4.857519290640131 5.708410736292038 15.051991652298454 0.964422903761416 1.4071686820311848 0.0 
3.7858182563471976 4.786502479855135 15.953934826038392 0.9648724609133256 2.994725042238458 0.0 
4.618567752322406 3.793326476909842 7.841123291600567 0.9656597048191067 4.418722688882412 0.0 
5.712483193140436 4.671707362869229 9.959951102451072 0.9656622774586898 5.989056366521782 0.0 
3.783782839455103 4.712530771628968 1.0505780702319427 0.9669434028970696 3.075220902842024 0.0 
4.821360972603085 5.715280018372306 21.868840151032572 0.9679142019206539 1.4489702934522972 0.0 
4.359428060666746 3.863255961804665 5.8286934186815955 0.968948620448737 4.164056635094316 0.0 
3.7791615816719 4.744112043150418 10.004702375973018 0.9708562728528216 3.0559229274299806 0.0 
4.90458329325948 5.7091754688063725 23.347819220757486 0.9715521470898355 1.370867471264357 0.0 
4.65944440098007 3.7816885817637163 4.825666367818165 0.9725365387483506 4.492283503288041 0.0 
5.7231407137229136 4.749213798400318 2.6293673237397144 0.9731410313094905 6.1136392280521745 0.0 
3.776862015099227 4.760961099925976 17.19542906381001 0.9731997140198522 3.046435740357934 0.0 
3.7805842341919202 4.651020166127685 7.216262567749126 0.9744557119287949 3.160493736836907 0.0 
4.724907616605882 3.774885700562609 36.14725932852163 0.9754370941642888 4.571543861954093 0.0 
3.7746386026858207 4.709567354208797 33.973364211562725 0.9761990853388187 3.1072640899483357 0.0 
5.72821680973356 4.74706414834227 34.05133574229935 0.9782212153037055 6.143409311102511 0.0 
5.728561874526542 4.700708778474122 25.610639265091216 0.9798025141815122 6.106968724562665 0.0 
4.6268206358406045 5.723365370229591 5.119555622057568 0.981128584700751 1.6646584599107186 0.0 
3.770372843539538 4.805563259781832 21.112277937299318 0.9812016314256692 3.0269428384380497 0.0 
5.281836007536934 5.576586385782085 13.985523431147364 0.982901110017237 0.9819830711026283 0.0 
5.277673366234565 3.9191358377286276 33.70011495448197 0.9842633984763579 5.195149909437996 0.0 
5.662059656871844 4.372078968683835 26.57268331756257 0.9872573745504553 5.815302580068417 0.0 
3.762230164481106 4.764923068995747 19.803496137608704 0.9878825567592924 3.0886009463094464 0.0 
5.2160831289578615 5.621112579575676 17.95399103384093 0.9879628583070009 1.0665142998528294 0.0 
4.426228204666162 3.8159116413143623 34.32011203156621 0.9886097497423979 4.328855457613259 0.0 
3.800078706589546 4.475222498074339 36.94979962128967 0.9888645707270008 3.3850520486679656 0.0 
4.8315912468182125 3.764025813257857 31.79600051305239 0.9893443427235945 4.7438593973059495 0.0 
3.7604752982693954 4.720593744438374 38.30784175703238 0.9899615463245016 3.139466503003028 0.0 
4.77022785498952 3.760190575939504 23.453229245288426 0.9900160918270209 4.685570184170798 0.0 
5.71888666887545 4.954505636161704 23.0627335285064 0.9902342815447607 0.20598801428775815 0.0 
5.740400200089006 4.736918768479413 31.117964497791014 0.9904865849442073 6.210329145654774 0.0 
4.5314046626903 3.782858896097788 37.178044989087994 0.9915371079040515 4.452102581668 0.0 
4.300615422172078 3.865142900896415 0.6035501201664673 0.9924306447422874 4.210359436959749 0.0 
5.683935938291066 5.087454737373999 20.497343286712827 0.9930317399800319 0.3443122897637627 0.0 
4.805840208642273 3.7573052755066048 13.157465799514767 0.9942640217458507 4.741228425347055 0.0 
3.794409536501937 4.47532943610764 8.239037140826383 0.9942821795634229 3.401919418060187 0.0 
4.896409995625221 5.734001879509342 20.57798226007818 0.9948344514022878 1.4157385703505456 0.0 
5.703959645069864 5.034853814504781 15.164201657176505 0.9955805844128071 0.28889090947826723 0.0 
4.748541927649437 5.745869768489054 38.89379397653778 0.9958708358845634 1.5657683238411284 0.0 
5.745952195731541 4.716704242047396 28.567076444526265 0.9965085968922276 6.227946218232432 0.0 
3.756311916334913 4.6700867821512135 2.944956649234154 0.9968962483653673 3.211840982928523 0.0 
3.7601059156063528 4.631130696442069 5.562336764123387 0.9970056216721563 3.2513382764993928 0.0 
5.744699588874976 4.821696413786823 18.951016056715638 0.9972801250691481 0.0717583177911667 0.0 
4.755975798330036 3.7522246627608915 29.019787995864718 0.9977932319715834 4.707965665099544 0.0 
4.7684881160717065 3.7522082000735484 12.12969039895102 0.9979630686735591 4.721279341425637 0.0 
5.74166683955904 4.637801776791884 12.62223150062728 0.9979937685036265 6.158143857751673 0.0 
4.724061421451289 3.7523024473678284 39.70335435195314 0.9980346769453217 4.677186114153833 0.0 
5.1893523234020185 5.6461855611335485 19.08174010251306 0.9980876835544092 1.1128492815826458 0.0 
4.6995631204029245 3.7526928695933277 2.276796594182315 0.9985816897898143 4.655247001719535 0.0 
4.858575505365305 3.7569245920716785 10.422955793536566 0.9989931962717937 4.8164349357198155 0.0 
5.744926307736386 4.657325946049768 11.605448120485747 0.9992331250021331 6.18555946002491 0.0 
3.8594229965947147 4.295505563693685 2.0104930846829845 0.999846283999561 3.6129202107801452 0.0 
