50

4.725244670877124 4.746823674923412 31.45350953811164 0.024958272395623426 0.08159368760101504 0.0 
4.749900599298673 4.776842048666675 25.76293605326085 0.026842232714950343 0.042263081480132136 0.0 
4.72071886588381 4.740513819847929 34.231202547619276 0.03077941567034448 0.10633955015555152 0.0 
4.724701456947426 4.780930896466497 22.860850445428987 0.039959187138932206 0.09016231775813516 0.0 
4.795922056004174 4.773327877889637 11.35612091509443 0.05150752483360342 0.024209463468386927 0.0 
4.782542018745642 4.704082673924241 19.808406726321415 0.056279515083101916 0.2999099327298609 0.0 
4.747518988761121 4.675192092878841 37.53989173414153 0.07484903729918851 0.3502363127767659 0.0 
4.012819561472895 4.744305381932667 14.530891631239278 0.7372024332718592 2.3216844232771763 0.7109400505372551 
4.077509034103826 5.216316776168181 17.17593436032351 0.8183492133239056 2.074759433761659 0.4759180885780221 
4.582994280445103 3.9074322835079043 8.912943243876931 0.8589594095408439 3.87967462613876 0.6085916341278358 
4.931823319522821 5.592189631921778 16.725856936171084 0.8615933470256362 1.1701869980216335 0.4598009221198305 
4.733046541655437 3.878747879679966 14.548526869526114 0.8714170510794454 4.089501580822082 0.35438909701952337 
3.8684272131744457 4.638927858535088 8.406083609382911 0.888542401397354 2.9028017483115898 0.5431575905122383 
4.645785612844423 3.849851975890777 3.5220656123837344 0.9061606390690066 4.165735912691278 0.4864098599097802 
4.488002871511481 3.8559877959963647 7.918204658215117 0.9316116767428726 4.124536866996796 0.42010091880032563 
4.413140418633833 3.8768893849845005 2.4892200564533624 0.9358400096228698 4.065448218935759 0.49732514109067444 
4.411954712544009 3.8747963989291643 34.658505004741414 0.9382195690234576 4.075432580852539 0.4989434003364434 
3.844683238481787 5.012235351681254 22.242359997439067 0.9425316007207485 2.6953081931774223 0.4920724466639088 
4.722611763623814 3.7961638780275413 38.1599892768107 0.9542292507941983 4.4693074080198025 0.7356899197130149 
5.705110052533889 4.731904610771219 19.247009334199184 0.9552814535845615 5.984113921824187 1.0 
5.705424524713405 4.854608368180168 0.30970832481250454 0.9611341910041231 0.10481600542382807 0.37766940396319715 
3.790557560944828 4.673633342202748 34.926076605092426 0.9624768362320519 3.100157170724204 0.6885486453359497 
4.82779108023793 5.709798683840364 5.278910949439421 0.9629459827354168 1.434716070432053 0.5351449381989825 
3.78582843574819 4.706915485214112 3.1471970676592917 0.9651337113198961 3.07515581477457 0.5470470392668979 
4.39849259159978 5.649630819021293 26.125977156001678 0.9658638976031548 1.8769446889257146 0.7509831681191591 
3.8094540025229975 4.525361019931203 30.981847173675483 0.967000229956726 3.2646309641391857 0.6046528557096491 
5.715603355374356 4.836209053474326 12.022500139660256 0.9694440885430955 0.08632308156401702 0.3758544128064159 
5.679070597355047 4.470196119654001 20.246524028972246 0.9702898465542875 5.812676299376426 0.9739201250262449 
3.944591789185937 4.206288494050557 33.77813757357958 0.971753357467068 3.629881970681353 0.8377880184464356 
5.133842851123203 5.643167310660562 11.796484661407547 0.9721538865791814 1.1324672218866738 0.8414581262921531 
4.955001298956687 5.704608455761587 0.8095434646462607 0.9763722837040436 1.3271437918007754 0.6365592904641963 
5.7072291557469335 4.955600396502815 16.686149329601772 0.9790603554705409 0.20714232520593168 0.6163322975753055 
5.012798914479139 5.694220308592687 10.70674873752785 0.9801098206886207 1.2734985481957837 0.8856313192846914 
4.725689696041203 5.7324672782094765 23.36760123653931 0.9827680009192952 1.5680411498134916 0.41043652751161447 
4.8388037786161355 3.77117103469625 20.272517381841357 0.9828490496582444 4.720492084178117 0.7127332508435831 
5.732126802555615 4.805817856142099 29.14212920673318 0.983711690162527 0.055847852085081584 0.3095509068872283 
4.096916712319395 4.013571411797348 13.767369139138424 0.984299164974681 3.924303078305819 0.8237950249095279 
4.584606537891066 3.7779720812957924 31.11950178489832 0.9859986166566413 4.480229941332393 0.8603892751319383 
4.974787417923185 3.7898088290878524 19.205165802148954 0.9861523553458725 4.873914483628769 0.9437076838842199 
5.718263362133683 4.9430469810828255 10.970461115343696 0.9873201483589892 0.19429868417329477 0.5315985543401673 
4.95547966008785 5.716152381421755 6.289142124655825 0.987761264090035 1.3445804686927367 0.575839860782012 
3.797062400977974 4.489032260483738 37.9867656228833 0.9880254190546376 3.368074955348386 0.5834707241837351 
3.777616705412286 4.92820731818121 26.485058305932306 0.988578332681127 2.926523547674293 0.6509567448235055 
5.226812880192846 5.616093357495666 39.8399881772138 0.9886699280426765 1.0554487271493143 0.7167818030981304 
5.707893596037384 5.002855967230403 5.563812268401961 0.990704941692254 0.25568494199803116 0.7681031954212062 
3.758349096028204 4.755337366877624 25.467355875549856 0.9916652675339928 3.110070926657862 0.3534065636253618 
5.743970933965785 4.823177686585863 28.114171858967097 0.996661021302063 0.07324359570364969 0.6216776739950776 
4.724372531602538 3.7532299628869694 37.14603612971175 0.9970994303592683 4.673090077178636 0.7256064160759911 
4.692807693240002 5.74733378997105 22.169467297265058 0.9989722961977212 1.6264056095116937 0.2649978805054204 
4.872920756244933 5.741871387710761 29.007732532033607 0.9994590347158293 1.446713815208267 0.0 
