439

6.2420172602771 6.25240926428988 34.15585389014035 0.00833838640877671 0.023751700819950372 0.0 
6.258400818742411 6.250412476095205 23.47309748105181 0.008410938834158443 0.0004126416060969973 0.0 
6.240267925672262 6.248953120618868 2.8391890457906257 0.00978821879400149 0.03179948184623704 0.0 
6.260042257645267 6.250996554506235 15.131677293289357 0.01009158359712714 0.0009981813506012571 0.0 
6.259468450643245 6.24583912684823 19.805405094281944 0.010342360609102652 0.06070078959641645 0.0 
6.258294137166848 6.243629137654053 27.523827356539243 0.010458517981694726 0.05886252837640171 0.0 
6.244572735904775 6.258951887882874 11.38261225234541 0.010468595523124957 0.022149596973978447 0.0 
6.23791503720712 6.248486899851505 20.856015312534872 0.012179318444176523 0.03977947707874918 0.0 
6.262360287723931 6.252511142410553 21.93528723453157 0.012612793061984373 0.002528035270803919 0.0 
6.263057011249275 6.248874664195616 25.507897524877855 0.013105415805548137 0.0812170327119599 0.0 
6.243910929274797 6.261860858224367 6.583721346531327 0.013332544397640422 0.0272662101495591 0.0 
6.253660129450616 6.264590601576044 7.620684372029352 0.015042679347313292 0.019931743523081025 0.0 
6.234839128206376 6.250374481832033 12.46603095248976 0.015165496041516402 0.04726929105319044 0.0 
6.235352923740173 6.2552102985747196 18.781040600961937 0.015546190986827746 0.04352667202592286 0.0 
6.232257491606532 6.249899684072237 8.625934357614042 0.017742791983722306 0.05584094141246254 0.0 
6.255942027801542 6.267108227728466 32.64899610158137 0.018110746820695578 0.02239413991003225 0.0 
6.232000131170842 6.2526969934365075 24.503568086662405 0.018200798099628823 0.05447253156576437 0.0 
6.23661556584943 6.263444779687858 35.60810834064752 0.018971167027516778 0.04465708844814387 0.0 
6.274038310937398 6.248411829053828 26.517433883294025 0.024090717707808462 0.14977711996010257 0.0 
6.260929645720006 6.228226469524334 3.864835427337212 0.02436275405079691 0.12614085987018342 0.0 
6.2349885734129415 6.220369173662642 36.74830469142353 0.03321639350702155 0.14095254475621743 0.0 
6.295765629406304 6.26061317785233 9.636227637961802 0.046980127491103474 0.010705589011751115 0.0 
5.347332040159925 6.616449348283571 9.934998353316445 0.9742148482646416 2.6848940118265006 0.0 
5.157944759470768 6.18948590248759 6.2409556058016165 1.0937305903946828 3.4966010022533744 0.0 
5.379292051282727 6.9138318823451135 13.75325427969122 1.0948995844264897 2.7265185679170383 0.0 
6.855265885180922 7.2135946780997475 16.43714671940743 1.1379198106307862 1.149238743311571 0.0 
5.290289610996412 5.622698098808855 38.08409921528337 1.1465390119832133 4.265721508820466 0.0 
5.229476451492925 5.721989410603845 27.87941702880685 1.1490271953143427 4.158394635320116 0.0 
5.07917716648655 6.216531966222811 1.5215952296218234 1.1713010786135953 3.7132234532622537 0.0 
5.277272653017574 6.906297475597349 16.42158133022707 1.1734244193994456 2.9899444311070162 0.0 
5.708109589837244 7.296691619905232 27.898944095594146 1.1786469207554031 2.4144784225786378 0.0 
5.958144071231509 7.400368889836902 36.391055838934804 1.1868144193014802 2.1591243513193064 0.0 
6.9036564330366765 7.250243400437293 26.75901974159042 1.1948864350090291 1.1852872250087998 0.0 
7.40850616892981 6.6043784643758805 5.098202477671016 1.211495208187729 0.35963725168754124 0.0 
7.125810648075774 5.411128269107563 35.19749748493674 1.2127448504006857 6.693534825849337 0.0 
5.038566908707037 6.344716135368703 29.249553929955546 1.2151301498106326 3.7226316407772924 0.0 
5.4967178298791755 7.207390223465101 19.45290624372757 1.2182077276919956 2.7256683663831023 0.0 
7.406132316199915 6.7185067094693025 31.61586722619441 1.2474535940785687 0.48028486311533936 0.0 
7.489753407081865 6.030711336507075 30.146687323007882 1.2589980255376143 7.6901050315167545 0.3509492350594917 
4.991725807143215 6.36714242883995 12.509488767637293 1.263715273724233 3.8527677775442015 0.15832514053431107 
6.34797535643754 7.514004264586266 29.224004346614414 1.267795705688155 1.8933756965740205 0.4568565077508128 
7.016818636841128 5.223771344841296 4.149134059354942 1.281076139218793 6.859020712694715 0.5440761914439937 
7.476223401047077 5.8673559362283125 24.728087959393505 1.2845389479557165 7.682454513082281 0.38871401706068825 
5.303924949471788 5.377529943952501 32.457389662996974 1.2869584297604515 5.001813147139286 0.38992687759602773 
5.231333246991325 7.040921092968153 2.96323938160004 1.2896658982027764 3.2001656522059676 0.40667177260103715 
6.662411257295315 5.026257646018607 18.687937861049036 1.2913668704407049 6.505187385097869 0.4074705928238369 
5.211272086603837 5.481592428056908 12.93171264613001 1.2920549038983693 4.882038205374398 0.15456698204557492 
7.212885364107678 5.382901266250412 14.731148690177115 1.2957655800656682 7.191605604934292 0.3717616880449214 
5.153814453270702 5.5447809391970875 33.45397017407347 1.3034403233665706 4.840027292246191 0.2703708969661782 
5.3704846553336445 5.287429365229819 21.07462735542483 1.3038747901640884 5.179053162398045 0.5508327593437953 
6.217902768479095 4.945204455375112 5.4808320901428615 1.3051902717781272 6.11846378641088 0.38341532284956675 
4.929901848101845 6.282398546235731 25.38287479410974 1.3204956631670997 4.11605767687746 0.32668135348117505 
4.943211471780419 6.518418429001542 30.236390105776554 1.3340707292021494 3.920843523798645 0.2978844004957156 
5.66413801160276 7.450957686536844 17.595852126668632 1.3362386142829052 2.705428624568915 0.4562774113540805 
5.737580292207842 5.014446847951822 21.992694965146974 1.337596930495128 5.7774155901649 0.49446976951536825 
6.223385401914801 4.905405460564332 35.72871793730984 1.344857915287505 6.310877284569097 0.4719573195003317 
6.276601056849387 7.606236691112123 5.968372522321186 1.356497540928204 2.1041785925185046 0.39386330827060884 
7.299240271644354 5.366282252209455 10.961472475933434 1.3718098284384435 7.659103004375199 0.42741697743297064 
4.882153303556189 6.398333261495001 0.4529170959226292 1.3758660332452401 4.173788496836476 0.21704423002345985 
6.87315530470147 5.020385375150186 17.675976560110023 1.3785045010525483 7.142656443873621 0.4289376484772703 
5.05700765612524 6.941710898750689 26.75990557358216 1.379019470491364 3.607721491480836 0.47948008066982956 
7.630158485769375 6.169940662216506 29.149499115693295 1.3824785507947466 8.60626476498493 0.6375163604750421 
5.197605502478538 7.150717444273189 24.926230447573325 1.3852169840250586 3.3711999472832517 0.5011724417644559 
5.782215817287451 7.554610105358753 22.407667681056594 1.3859399585119943 2.654184090322339 0.2175645582438767 
7.505865150983853 6.843958409553171 38.29405452979314 1.3892385935233116 0.613727310761119 0.5214744655227874 
4.868248207056181 6.093327529144043 24.401969078876753 1.3906057242898031 4.525722556601483 0.6807003325041759 
6.865483822344492 5.002682113010277 27.87429713573188 1.3909069871031265 7.192073373350842 0.3546628553327236 
7.598364868743852 5.87364841717825 7.491506530701351 1.3999029727645622 8.414810581151123 0.7324647919613722 
7.323605012936126 5.325647018361071 0.32581476811640186 1.416706094596317 7.894383533795475 0.5074820529281342 
5.046058048425314 5.495888368409833 39.05117079610834 1.4206197857488267 5.25796334882002 0.6148538394769545 
6.960310376714636 5.019432481614336 7.920094061153783 1.4208579269491861 7.439457780110839 0.38335789798000675 
6.571594625426087 7.6453133769608925 13.4866138085765 1.4318947318252668 1.9248534154362495 0.4579059853631921 
7.513008976679888 6.943266123826421 34.46226929998989 1.4407670157313048 0.7232630118953178 0.14309166513504848 
7.0115788495533025 7.473973402090971 33.17063832533607 1.4415662430540888 1.4620360778713337 0.6480272674442713 
6.693434302069825 4.86538608474946 22.397480995140178 1.453887779217359 7.301898899970158 0.31007700036223435 
7.580982688467902 6.839105374872744 1.4090063816198466 1.4555274163358094 0.6065050044814306 0.4614039470434087 
5.080859271018994 5.372483150618638 29.599108953060735 1.4618227885453257 5.5336653607603825 0.508700357501335 
7.535990536314209 6.952129268864239 11.247016617042007 1.4651816166214826 0.732230505342855 0.10124566236405935 
6.9160442413530685 7.555177241983152 22.945138541911575 1.4652994794342669 1.6102692317989895 0.5138910733968932 
5.990571600863571 7.696867033594284 3.3434052420282825 1.469941259772109 2.5697727603896645 0.29968101495766825 
5.798115598298892 4.849189482882849 1.3973975330631347 1.4718932085470016 6.476831100320954 0.3560317541367222 
6.056213209917843 7.7109543193522025 10.374992584408623 1.4737506041539712 2.509311651728769 0.4134650088953038 
5.204527334581561 5.21059171697309 5.912745760866464 1.4742396931849595 5.785037565215818 0.5835097272804367 
4.806440681411043 6.568051831786018 19.927467944083183 1.4781814753227898 4.323285581198194 0.1250025508402775 
6.830436649430979 4.8881572119163295 31.670179621598436 1.4803791688139123 7.572565151704035 0.36679501934373204 
5.739489499309272 4.860075342214879 18.275771917934975 1.4807131814212293 6.456489347487713 0.3804705509892464 
5.925511740992041 7.699912737210745 23.473660991482895 1.4857791140542975 2.6609811340401848 0.40734724063325944 
5.880448472662424 7.693612881765684 4.377875768865842 1.4901632406408907 2.7141912776596673 0.43617565659674645 
4.761165472976682 6.160871675423742 7.454260261824452 1.491499952094709 4.774866747944042 0.5274637236828542 
7.21761642948872 7.387082769935708 21.29482480439387 1.4930635553455733 1.29260919341651 0.5492394733475858 
4.8276849411651295 6.705815143376796 20.92105151480048 1.4935687367911976 4.228979692469906 0.24984771843337422 
7.733832901613733 6.062716918354749 32.83753504790441 1.4956052395541986 9.209388846198555 0.48481536814042075 
7.711423555419751 5.931624510350888 23.7285377405329 1.4957010933823027 9.076937018151567 0.7279985531525808 
4.827064360102787 5.77474828239006 15.937641164756954 1.5002033296793105 5.196610620771901 0.7006111102706151 
4.74715011947832 6.263155050710777 31.935644055921436 1.5029074551492623 4.708367801424032 0.4330399358134022 
6.327789536605885 4.747718321018178 34.66715365353019 1.5042943378906268 7.166644308949255 0.34944764301826614 
5.907217592087071 7.727990728769763 9.373905598510767 1.5172199489539944 2.7290111538903936 0.2570291669552374 
6.22930348669815 4.730392957422444 15.235382029085251 1.519747975657201 7.1409464603630255 0.27663608785446714 
7.663024157239424 6.810724660652529 14.960880770354876 1.520213608018976 0.5742867471751492 0.4231029224355404 
4.9627555608891285 5.436520691921478 10.006708626959984 1.5227431926276256 5.642033048888388 0.30504892670905176 
6.186802754186722 7.771591646959488 34.671310822293115 1.522903487413195 2.4553866023532755 0.5025517732874883 
4.979107355605802 7.100490201572079 36.95769634898192 1.5292160398535568 3.902304639030726 0.4484114224909133 
6.928586851161299 4.879586233678019 13.870007100800223 1.5292200644425917 7.909377855356073 0.35237131609711453 
7.065177440130519 7.548770571750408 5.337200406913524 1.5334012054718822 1.5491820554071634 0.4748949752922426 
4.722981222287794 6.427511214189778 32.93725678148562 1.5373017201085832 4.651667725856949 0.4275287429660573 
6.9098822352519775 4.861032493027658 21.400753311704577 1.5377500771666743 7.928500036320651 0.382491058810691 
7.496663667313072 7.155185134556843 25.945881793202282 1.5406266345942385 0.9675439021229391 0.1388352291631963 
7.745320353091382 5.8565560567535275 27.512884130442593 1.5462150868642657 9.317337496013074 0.33893990539109453 
7.777160944969971 6.000700425952013 3.8145207085425596 1.547375464928305 9.472055911723235 0.9552771511370839 
5.140041386100469 7.329534718879485 0.8385028462639141 1.5483550412731497 3.669739251809201 0.3661564890702829 
7.7523593811825435 6.633725159501504 15.958286841671274 1.5505897936790562 0.387753862856016 0.0 
5.560493419211346 7.639033198178266 7.389004276522883 1.5507522531314302 3.1504374144732274 0.0 
7.508711093775281 5.34418014778284 1.3164006746423382 1.5507621423879558 8.776381504775838 0.0 
5.202297144926019 5.097122812018311 35.24899395128076 1.5578212616018372 6.191947550490827 0.0 
7.710849556624099 5.70811213263179 38.73227199801582 1.5581154924747063 9.236475344145038 0.0 
7.101244449158965 4.943052859821352 24.206590226319726 1.559720468367682 8.250443284908304 0.0 
7.781581508377688 5.949171260018181 19.920116752543983 1.5608458756723915 9.504360834941494 0.0 
6.931762086655848 7.654360836985056 32.109474396743224 1.56109862060624 1.7466314639355698 0.0 
5.632267441930166 4.815826773839703 28.468987779369257 1.5615525466453373 6.723545912212559 0.0 
5.148852494393621 7.372971312151144 35.224893988819844 1.5727652072123193 3.6903087063804545 0.0 
4.890329643120349 5.457506605483061 2.853160849839874 1.5737691252944992 5.774649361439641 0.0 
7.79423705029253 5.911119608744812 37.72325613712272 1.5809832342796817 9.59208009352099 0.0 
5.63043014480791 4.792989096678882 11.639911639469886 1.5832711637174994 6.824406261060524 0.0 
5.839567576817993 4.719337798579074 38.75839683274134 1.5847339047479898 7.052717475335729 0.0 
5.503801289446415 4.846218310188236 4.155689845652397 1.589784749040764 6.71494996948706 0.0 
7.828638603803633 6.049469946375176 8.598982006274845 1.5913240222612943 9.797519107823055 0.0 
7.525868673830491 7.205838766959355 29.662081912647203 1.5941984259446351 1.025018263960769 0.0 
7.822513884448728 5.976070625228132 26.480531175560742 1.5961946056627725 9.75389438066625 0.0 
7.206679288004821 4.971878716306874 36.22184204840071 1.5965053322575464 8.549177746312068 0.0 
7.836053429055525 6.067232753657203 11.696553500073676 1.596549199415576 9.848245663368974 0.0 
6.919733365224323 7.708483496315202 38.74441736055422 1.6049040125560494 1.830103097388573 0.0 
7.852176003091383 6.141861320088447 18.931679654299415 1.605821259971012 9.981451966432628 0.0 
7.834602274429274 5.918519071164093 2.7274305084790242 1.618902089166712 9.838019831700127 0.0 
7.844600991756877 6.537693385011812 20.739552006430223 1.6203455824889876 0.28922679089316183 0.0 
6.9288397363310565 7.7461150242695105 11.682415820207204 1.6429192169632016 1.880880826897231 0.0 
4.6252375984560885 5.470532234111625 8.820842159069521 1.8020607258163532 6.467421903703597 0.0 
6.8164357946825405 7.983808896456457 39.85846269347827 1.8239908988065685 2.289158522302099 0.0 
7.236647461171641 4.67621934429045 9.028418367344159 1.8574872179700255 9.793366680608873 0.0 
8.089201253863234 5.814923593745277 9.64564630214489 1.889961039675582 11.435961663845788 0.0 
4.408196401418554 5.7203215142620465 37.6066851121729 1.9164550070380506 6.5573859342777645 0.0 
8.197334061026726 6.454965743951821 39.79377171319571 1.9580911371610283 0.2053419076792018 0.0 
5.327028183339932 7.986074164164103 39.3874088192327 1.9661715280785859 4.049205978059117 0.0 
6.3115123747948925 8.27363391540238 8.450015492520194 2.0245685949899683 3.1186630697022064 0.0 
4.05887426946672 6.432120175340895 34.3594303540924 2.1986813605593682 6.7250321325599245 0.0 
8.12396768184835 4.998071669523334 15.056083631523101 2.2536813033927774 12.832949683220829 0.5780924525541979 
8.39179646645106 7.042205748545724 27.615866952451356 2.2836116245393225 0.80902324907753 0.5490395968440251 
4.296479144030167 7.446073213361373 11.417827988594013 2.290597054575445 5.937693157355099 0.5672364792900129 
4.796060291633287 8.025163239059749 20.80192468897839 2.2945904211589885 5.178989375383658 0.5243749692745994 
8.04619374734995 7.733496426070758 7.742116747945168 2.3296080408909483 1.6082261484369464 0.7095351022551591 
3.92900456291607 6.54147152416256 6.59774602784443 2.3392253992213052 7.056662275350693 0.5874595803310623 
4.632208456563832 4.555065743085354 30.095161932763595 2.3430859167508946 9.25582994284946 0.5095842352026023 
4.798272608778847 4.388820051674173 12.308109667588774 2.360403189811414 9.559539299578194 0.7144577851457161 
4.403958205610845 4.731546021668713 20.813940465714104 2.390308095401435 9.154714274007514 0.6146393705206453 
3.8559416965151634 6.176171617404345 33.38212804351014 2.3951963991625784 7.598571489703854 0.6741130908004193 
4.86586362311818 8.205383191134406 28.33678916781961 2.3956955010974377 5.238853269863085 0.5855411329383559 
7.343047949735254 4.111836406661837 22.72647694555919 2.4013532377176854 12.450928486128657 0.7418979793812746 
4.278890349151148 4.875253148353924 28.301954798345797 2.40316503007602 9.013320224539662 0.650005920154103 
5.142783103940262 8.39082001160766 35.81322708591035 2.4101949251087507 4.9363285567060835 0.6740097186159864 
7.78558483405798 8.110007953889427 9.708449273107206 2.411980590950271 2.124114182730377 0.7621034739305022 
5.493997809023302 3.9547490706298962 0.15427199841823835 2.416550463271123 10.61881476260211 0.6993572053144727 
6.855247770752653 3.9077659790078965 10.785484101492628 2.4191703274250655 12.011818297065897 0.676801144106101 
8.37994295397154 5.1001159170557315 30.818005655695636 2.420514488984025 14.010314706561001 0.7274783857083842 
5.181743929908816 4.0771740200614985 2.822783457105011 2.4212277402967204 10.303410634356837 0.7357355455583331 
6.432756057032094 3.8339443220351512 4.0936554280574455 2.422957864967549 11.600849734542225 0.7210501589972138 
4.420259105744405 4.661357388026593 10.579649470529212 2.4231667480156927 9.345130379505212 0.6844195495787261 
4.122767120757384 7.416797686529888 24.304286460301505 2.426218572969536 6.40496962230635 0.692935251228315 
7.718541353958482 8.183342123237283 15.143918958627985 2.4278437910561412 2.2365000360949754 0.786477000483671 
7.586463678980174 4.222771594940051 28.254367109226393 2.428124826180715 12.857513341612632 0.5977942210296591 
6.983624996225629 8.566122549821754 4.467714144467216 2.429532733033224 3.0710434348160227 0.6847110072440619 
8.517942770454653 5.376115353658642 33.50045136197486 2.4304811838746407 14.37726218216951 0.6993103833803224 
4.836911059436302 8.228182257568932 18.033495955302023 2.4310543799150097 5.326634206239941 0.7297299556491955 
8.14182083531978 4.720894943669649 29.045782483826834 2.432518930295321 13.630427697707542 0.7384027792129736 
6.738537272380613 3.8638683633495194 18.216735968321387 2.4356298680073274 11.969509204149638 0.7509603143426924 
6.248473114387732 3.8115555383371547 33.30988721370681 2.438444939709298 11.489374177448848 0.7310580010034513 
7.193225346138654 8.49956320824946 33.51294349417517 2.439304958693764 2.863182396850913 0.7517682933911648 
3.934275543657048 5.4760920069187105 17.279587298875853 2.4416210474723505 8.45806888715513 0.7652582136827395 
3.9119126860443476 6.9584868779345275 26.058682789375652 2.443073053325621 6.956327198590808 0.7187945572493775 
8.664178929666466 6.640808098504264 28.5400342538204 2.4456064430529385 0.39249079082307325 0.7694722294865765 
3.81657681427599 5.987005232328329 0.2020851925084841 2.4475936445092086 7.952845698731631 0.8202154083190207 
5.275357565490209 4.004297321922852 33.472430926762165 2.4480825953121017 10.533896745074037 0.7663308728415952 
8.503825870725137 5.292577185783209 10.452343026039813 2.44875264180209 14.402301886647555 0.7541524258258548 
5.516470829038665 3.9123064240870864 26.047177808279272 2.4500767946159825 10.80076032826909 0.7759708114293273 
8.242564624493374 7.675688889901878 21.771357953401264 2.4500821605758616 1.521638306958737 0.7837193107811115 
4.22833933886759 7.635198541965474 35.54775446752671 2.4506910922092175 6.226920261693332 0.7266783667071832 
6.571730274518577 8.680733839341997 7.512574818818116 2.4519333937250507 3.5288272425011904 0.8476965523109004 
3.903634616987736 6.963665662713542 9.308308918527878 2.4524985603940004 6.980609469756349 0.7188024099413691 
4.096119293141317 5.075881769718723 12.525001305827203 2.453111436126965 8.930992850443396 0.8285325003909667 
3.9029227956621355 5.53625385996871 10.702106792542537 2.453202999250575 8.43118436623046 0.8107636778347195 
5.601124031323394 3.883334989294381 4.813457018205746 2.4540055614493284 10.907543454163191 0.8415194106905065 
4.047006540355671 5.167916850028684 22.777149255638165 2.454400971049258 8.83134102282472 0.8000894820908787 
5.740309715763045 8.65124734165093 35.04811599824728 2.4547449931981116 4.369329941431719 0.7533560625891452 
3.9835723442059425 7.194165100163314 16.74438381145726 2.4552274956334585 6.744188580055896 0.8212620499506332 
3.85283599843512 5.719183081211252 6.010206936142062 2.455231527101045 8.248378941260174 0.8334755629333236 
6.089682710075348 3.7999466641560513 23.963840954145773 2.455292850543262 11.409863547877137 0.8172579681514119 
4.382699856894414 4.655566587197654 14.299873206763841 2.455407854573792 9.449219060191826 0.754883690499383 
4.705571793068966 8.15927338842976 14.322137493764409 2.4557246095868037 5.527703383069436 0.7838636655757214 
4.30903694560573 7.755743950834093 12.372332746002648 2.456542778784239 6.096649646987586 0.7571824931666005 
7.2389234667177345 8.498698246054 3.423314436877348 2.4565450178719224 2.8409381935631473 0.7723229903942553 
6.758295815477521 3.8463061717990037 35.01275634028812 2.456849335177784 12.089623338924113 0.718199154626976 
7.866874772787263 4.400046924700636 10.578035790297342 2.456951446749702 13.342860978302344 0.8013597945710015 
5.121980430582683 8.433641130275648 22.755519641956653 2.4577869587944208 5.032608084036076 0.7813162094019485 
4.549497758124339 4.4748300839177695 38.77602952503508 2.458238415123224 9.706281761087105 0.7309275827268145 
3.9586835462320806 7.145969068881273 13.098920430282277 2.4602625192648797 6.812084441249283 0.8460367912277659 
6.341528872288643 8.709304357304198 20.255680777223354 2.4610070004609583 3.7741907703816153 0.8165515899876038 
8.612788729004238 5.5601936551821876 36.332453183810614 2.4614230378503366 14.766406460852082 0.7836697718752751 
4.10583557466097 7.458971975767122 28.064999970822683 2.4615146396232768 6.469312460360836 0.7986627184655729 
3.947510151889775 5.378222719847793 34.165836016179874 2.4620022597146867 8.625714770334591 0.8212144310406495 
4.153147992208053 7.540385435790174 17.705298985036983 2.462089136380021 6.3766446549590015 0.807748312070122 
8.320108876588726 4.916052244414788 5.820084044042794 2.4626748416228783 14.063762893651022 0.8265824272443487 
4.84062934762537 8.269652693778303 34.74856957460153 2.4627875749363475 5.369032649594168 0.7430230241977788 
4.324773889559129 4.71400237170961 24.510054071143642 2.462881298486994 9.395910063654146 0.7879949585580976 
8.01103314003084 7.972051761881783 19.795587728728087 2.4630671917117932 1.906923876495668 0.809269503318988 
3.8371988242499206 5.751296241565925 28.61506373869561 2.4638009157351255 8.242432353787086 0.896270917499013 
3.8266040709486546 6.6947286226937575 25.08879634591694 2.4638651295851655 7.293280954823235 0.811204368723203 
4.279585701022816 7.730634097849951 4.181136955559289 2.464712932844247 6.154819838679018 0.7321944147223634 
6.981472913031109 3.8961428515142824 7.173945018176809 2.464892715307409 12.358191498582025 0.8636898857268634 
7.720743891210942 8.228325553436694 6.1034389865182135 2.465128716500398 2.296302320515755 0.791928956596372 
4.723652358689106 8.185837974767999 1.2186414406285664 2.465198934505931 5.518264807483856 0.7920049413685625 
5.46516306259141 3.912933345299349 3.7735608824895124 2.4653295047183037 10.818854124570956 0.8426835498053533 
8.693282903183178 5.920462898023933 21.311041272047326 2.465405858386404 15.160075527889886 0.7771878430439968 
3.831039631381417 5.773465676895887 18.25226383027499 2.4654521342024966 8.224998797011699 0.8331883130045321 
3.7846685650263687 6.275857225661287 2.908530237213405 2.4654670308864475 7.719635412196544 0.8009940315752463 
7.91707772866269 8.067027423599402 36.453733975070044 2.4659150049252383 2.042788261948468 0.8022033887913138 
6.944514607758652 3.883890627196239 27.53625636572164 2.4659327047711503 12.324474680780023 0.8223465809444424 
5.725557311888965 8.659662669500994 28.58200802161415 2.4660726497611094 4.402176272199975 0.8398238492273536 
8.437292581268467 5.11085470598435 34.549322356425684 2.466151016655324 14.31116141788514 0.8474519260232608 
8.716331239258558 6.241070686962159 2.274635485607263 2.4663474034235287 15.487588435046112 0.7433970294854538 
8.081627762463768 4.597979129288543 4.893057091877807 2.466583308443944 13.687807435672186 0.7672832672729705 
8.245658089044852 7.700129868545886 34.766656170483216 2.46688626491354 1.5501516677644904 0.7543171585513956 
4.0618707681365755 7.3904416980946515 30.71598356182112 2.467492006489227 6.566325113955768 0.8343953537938533 
3.8263229665448897 5.786757300682787 11.842829116561845 2.467550234740616 8.218045560105788 0.8332716275334613 
7.2013093374786585 8.526800615500136 27.097996399007144 2.4675515188777504 2.8994142828675074 0.8554588365573005 
4.644951785995293 4.375770116726702 26.21085725605986 2.4675731852640834 9.880666685400646 0.819226000713493 
8.473369829225312 7.321926148050061 26.622300966081838 2.468278562963029 1.1088489018045795 0.7812020291158284 
6.037963538875868 8.709170565699454 29.548118371601767 2.4682948227569237 4.0894865592299645 0.8150659746932385 
4.713052122768055 4.318370113110552 4.5455919904141595 2.4684818810864964 9.973385996981497 0.8735117401174205 
7.29144182755082 8.48849743650031 16.845585620623524 2.4689009403762725 2.803042328231264 0.8171782759690459 
8.259440684774667 7.687182323848342 0.005819629400498627 2.470494868970548 1.5338428598360014 0.8253655264301213 
6.411241775383953 8.715538117546437 30.48395389593638 2.470804953694931 3.7197749031877905 0.8786753824283291 
3.886860318802242 6.974490854442324 39.876429128533765 2.4717030871490215 7.0297963185428465 0.8004751267775849 
3.84877449416199 5.662435953981742 35.16325326719672 2.4720670375336433 8.359469394478964 0.8860018893683831 
5.398855042541861 8.57101167920575 13.71924041758718 2.4721535052694255 4.752175905381122 0.8037576052808769 
8.672180010580234 5.753226090166303 35.31018627741528 2.472597889092746 15.035612520548469 0.8019029530055771 
8.681071373145066 6.701634164644025 18.31438098896426 2.472666867978607 0.4541838102344187 0.8159311226498138 
3.781083076484025 6.112731985732259 29.564201491523455 2.4727299251969668 7.9056487818510135 0.8388172905938187 
3.8919890424803434 6.994760633694268 3.61399149719162 2.4728291645973948 7.012115978321049 0.800920671639018 
3.834405536818707 6.779828507279106 28.759582148700957 2.473017358951959 7.235245356538247 0.7940991919300654 
6.716308886422869 3.8213119721358257 6.197725089877174 2.4730486275542005 12.123084303820123 0.7668336990796141 
5.975565610675501 3.7922151922748633 6.871594583827161 2.4730589146092714 11.379014800987404 0.8291978133295121 
5.609634006395044 3.860969197535182 22.289015944224836 2.4733654766110402 11.007715268379354 0.9011175746394608 
8.711752220910867 6.490676555609593 15.594550997651844 2.4734892766251644 0.24105796104502275 0.8505487996893137 
7.042248450146733 3.9062038020370817 17.239027649797592 2.4740732051306265 12.465249201571945 0.8037588613768433 
5.899439045003156 8.699408848651942 38.77375983509259 2.474367937680794 4.238472508559509 0.8358341854030144 
7.359346895016689 8.461810882938265 37.28461758748026 2.4744207231930706 2.736473600542938 0.7989136374112998 
4.620221974380721 8.111896819923167 10.739599135358262 2.4744365380489124 5.6660003648977995 0.8761140091018984 
7.3731683475620855 8.455050049527427 8.074316412491946 2.474621760569939 2.7213101886938684 0.8702319695095447 
8.509898154876428 5.241049542417413 20.5620818057023 2.4748981183616383 14.51102187570392 0.8681211711847165 
8.504178357864966 5.227891940232768 4.22936670105566 2.4750807976524545 14.497746513739285 0.8494128358086024 
4.8479038365650045 4.2100521683822905 25.20252112433922 2.4753304440500314 10.174162926766769 0.8492799308562916 
3.922798919714447 7.093483706416654 36.334619721336956 2.475344345959287 6.915799666580709 0.7753568005684224 
5.88038403023546 3.802396920719202 11.056769519518816 2.475353873451193 11.293826887144904 0.8889914085508963 
8.719092276514072 6.428258747990872 4.393623834669384 2.4755187034592816 0.1784131611107913 0.8413416171171021 
7.469760932683428 4.095092575894311 35.80105631895447 2.4761750219575656 12.944112083124162 0.8280618200863562 
3.95911108738777 5.310031683187978 36.77690627364079 2.476229481800923 8.743449633711537 0.8130438197356002 
5.510968802781045 3.886286668117691 26.010703593093474 2.4765515996605125 10.920010559259863 0.8755780661446569 
4.044701121824406 7.37704816355539 7.187748569283272 2.4766066916359777 6.610393452258981 0.8341409515800494 
8.346208149361026 4.931059614429305 21.51302685413674 2.4766292306554374 14.17020587658993 0.8530377404400098 
4.446473940394187 4.552422889977793 33.76581138755316 2.4767870905971354 9.651391511039305 0.7927148641668939 
4.343382026872083 4.668869160151511 31.057928414911657 2.476926891972066 9.496382515314062 0.7885580782347829 
3.7750707640873866 6.150305264922158 23.120532548603173 2.476936366356075 7.881246764235284 0.8351899274236253 
7.357615104249794 8.46597517942906 14.144817678566355 2.4773690106659445 2.743149084790531 0.8275157116283347 
8.673510996873134 6.763937772964997 14.578210230269292 2.4774054142278 0.5176973070535578 0.8127465855077616 
8.688390327677368 5.8120382525438234 6.138594337664976 2.477409510425234 15.1257474061056 0.8601245441578792 
3.8728409039274645 5.552302281350407 2.2036786405899207 2.4774316286527944 8.490346771518714 0.8377107668598505 
8.498493757193607 7.290497562946134 9.49345220473186 2.477571261262828 1.0738009092173328 0.8875778503030618 
5.124480602142684 4.042547123083569 30.80844493827687 2.4778301230632676 10.508166938612442 0.8005329831516824 
6.808605324345219 8.664128358728453 6.532455720791226 2.4779135660478047 3.328849187162893 0.8777564419326984 
8.4049902961649 7.4732257721999815 23.006707774070364 2.4779557030623303 1.2793038550081004 0.9018279009243264 
7.333512263229387 4.021182343124499 33.04719917740635 2.4782306131933054 12.799777030055997 0.7998569630608676 
8.353579999786618 4.939798379244396 28.048176706736903 2.4782407273170404 14.190748571334273 0.8744613045715776 
3.7762856785803827 6.099720230290277 23.149038910859673 2.478274914770459 7.936102286500299 0.8479508218589421 
8.710699037205583 6.544948861372241 36.03520587382261 2.4783128500109233 0.29564960534442264 0.7834789895059394 
6.211226293497841 3.771920683708098 20.166429211913986 2.478382637558141 11.640327742029791 0.822528034501264 
8.697395697157738 6.640752642246923 5.371157116997001 2.478393295239712 0.39238990142546193 0.8184827613782412 
7.982658544367229 4.477854851642876 30.056045354746825 2.4784277391553027 13.597946325030323 0.847677510376394 
7.860772069269167 8.133657265136236 32.68697630852208 2.478457454070616 2.1397303695137246 0.8325655607146356 
8.590259975560656 5.433780884963033 0.05732905770745589 2.478513747584002 14.741218639234743 0.8326842542654298 
8.617780619982423 6.983321713527998 10.972385837258443 2.478738751844569 0.7444635986250532 0.8187972915022238 
8.680071580032818 5.760372124889566 25.086911713390506 2.4789076909333176 15.082567622624358 0.8604091061924037 
4.9817625963609675 4.12003769330979 1.8056539499191828 2.4789444406662615 10.350432529427342 0.8508846566653427 
8.560035244069425 5.350172627211393 37.342651682052285 2.4791030897610002 14.655806690767122 0.895520252557628 
6.3279175781388215 3.772043983560339 12.839994221727032 2.479180745406136 11.760794436279648 0.813315308408837 
6.030152215906924 8.719490629876965 19.30006652695232 2.47925735235791 4.114545269588618 0.7918051892815834 
8.020942564737002 4.514872554568392 13.32692294144993 2.479295226367221 13.65596297531181 0.7926209721139447 
3.794820060931915 5.9030138634454286 15.573741838244025 2.4795781722227326 8.137953281164608 0.8924219382776454 
5.744010697706939 3.8223875792311794 35.29955246533851 2.479783708210469 11.176137541463168 0.8793682033338232 
3.882983093306711 6.989315672985022 38.85149281751185 2.479789648517221 7.03975812522714 0.8265705229537836 
6.638287594500108 8.699577238448075 21.261267475469097 2.48016045915694 3.505935420180162 0.9033700253456134 
6.4390679697561595 8.723074638925146 27.864238522403184 2.4802912867005076 3.7067808885695808 0.8630959957122767 
7.77663767511881 8.204833204979796 22.610828308214685 2.4803216425261723 2.251577107011107 0.8363574284673599 
8.434661538362494 5.075238732864294 27.047861034593566 2.480485854013821 14.361541998072349 0.864008994304348 
6.52264302512312 3.784520781409638 36.001340519759395 2.4805084149119963 11.962315523844437 0.8493792557368439 
5.760972903605078 8.681979193436037 11.935633757943954 2.4806592467153252 4.388861714498548 0.8501074604251262 
8.614017725562665 7.002687251287874 37.743879558417554 2.480951008187336 0.764740123440184 0.8319415545042316 
6.995717292665585 3.8836288493083586 14.590024160730167 2.4810898217126645 12.44928779133616 0.8472975491266789 
4.492148995422381 4.4990225994668105 7.241075884913208 2.4811211198715193 9.738479478428976 0.7600746277698227 
8.435557038758073 7.424801867363165 4.666109287240943 2.4812938151748445 1.2238205506428148 0.9045940136578076 
7.895785525038949 4.392958510568157 39.03040135648324 2.4813732262396484 13.49259092061214 0.7887523062453582 
8.418412047808594 5.043671276341566 38.47140060755851 2.481378608476516 14.331211184778175 0.883586899392387 
3.7707405890759134 6.145511832328371 26.77641564451264 2.4814602563488735 7.900256380878654 0.8551969757816419 
3.945360471595782 5.329980715244044 3.256363405121867 2.481491253300336 8.738352765665194 0.8203665344841943 
8.462943651799925 5.1266045243730805 24.209474259192916 2.4817608669452045 14.427563856711625 0.9210181766563263 
5.160161080647363 8.47977261249903 9.982405660296017 2.481861151149769 5.026804000288564 0.814924075727353 
7.032885822554016 8.605292450765567 26.114586649891898 2.4819977316245363 3.1022269399219713 0.8530618278576847 
7.090397197072464 3.9145806148546765 23.796659146459206 2.4820256149685105 12.553615090773244 0.911388286412609 
8.728512367089628 6.387995332443323 12.868627836887512 2.4823509553631546 0.13806650625359218 0.8523856430499437 
6.398743304080668 8.727890624824624 37.05758088200162 2.4823510064256786 3.7504353853608343 0.8818045303074976 
8.729813953083335 6.134883697502309 1.1850713981225205 2.482484442047426 15.482752173194344 0.7962991155415191 
5.668555020086037 3.8363535270177653 28.77087587200696 2.4826936100144796 11.112522079105927 0.9092013693670384 
5.346743184417866 8.56260002235237 23.77801364526561 2.48273875755782 4.824349439725383 0.8080152763813985 
3.7944209488215197 5.880984145680861 32.38219029829037 2.4831514608105336 8.171438162410956 0.8575808581051493 
6.414565063687153 3.7721575379786128 23.00600672996287 2.4833012154755942 11.86696703403436 0.8710919915430633 
3.935949542273974 7.151086049304293 19.52228812271028 2.48330134884046 6.879388965463836 0.8201683021331473 
5.040382226140142 8.418785842194584 3.9166701336837164 2.4833056976822943 5.164188740233945 0.8292501684146487 
7.523448863383351 8.381990471262377 34.456608082361484 2.4833556686882203 2.5637187927343295 0.8711213657506716 
4.904117602497479 8.337086626909663 32.01164727899739 2.4834109640033977 5.323317948858634 0.8260402206362515 
7.02100624860242 3.889271634632083 38.84199963260032 2.483442983125775 12.486911304513852 0.857921664134271 
4.224366426653221 4.813215612648085 18.171665605643774 2.48345339179294 9.334143553510419 0.801956511223414 
4.747639679654606 8.227500802775754 24.599129650225272 2.483464506919128 5.514516962117954 0.8161979221122561 
8.443102085986403 5.084615443301402 6.799756535149982 2.4835091955838426 14.391302513447625 0.9189139869351676 
5.974899588589613 8.718259131592468 15.668740577611942 2.483542505585065 4.176805559216442 0.8858338421306239 
4.0142660922085955 7.331740802721427 10.400793788404727 2.4836805895123937 6.683473250513819 0.817637013129284 
5.905072771482473 8.70975686387543 39.882824923749624 2.483823387915303 4.247626253477067 0.8514229264130122 
3.771468306987069 6.413324207266632 20.196372326986435 2.4839070332741566 7.63998196376823 0.8255146975248884 
7.355625882159297 8.474296919103045 30.73031677659047 2.4839294224337016 2.7559132510771907 0.7679432049631651 
3.7904736161867216 5.902569861495941 25.788466166897678 2.4839439876564398 8.152113250402959 0.866949232273804 
8.645102256753137 6.908539165326749 31.33397681938837 2.483986443717685 0.6665081535462534 0.8563335127939882 
3.9273688075131243 7.130737539356691 23.246908436898558 2.484011728946761 6.903432427545507 0.8307432364955242 
8.032318786437031 4.519752960226596 37.52732127615002 2.4840320197475303 13.693500936547364 0.8421708168643353 
6.2236719303001475 8.733904936242102 26.794221908256944 2.484044464083126 3.928256482433815 0.8914764606333312 
8.086743266839648 7.922389797988135 33.747076588232886 2.4840518240760554 1.8347118508315727 0.8815091713479356 
8.566805866767307 7.146069776294718 8.439405272401785 2.4840552466232064 0.9167380426151048 0.8721814329142095 
8.720873413385538 5.993196639309604 7.147028341564514 2.484182640434756 15.35131690541591 0.8875520386345089 
5.007913726487482 8.401461462722015 0.2412162000694238 2.4842634192907496 5.202976673609893 0.8055468608266905 
6.469506863133921 3.7753898183680636 0.4995378336018206 2.4843266319063884 11.92690692656387 0.9128828494164842 
3.768060945001512 6.1385138594708355 19.212381085306546 2.484441714401222 7.916627428399524 0.821172622492428 
8.458853461321894 7.387512950020266 19.098560804905112 2.48454610040899 1.18154777292483 0.9272825754336206 
4.366433625015363 7.870277889602093 9.633502099117571 2.4845769717411 6.0404943049292665 0.8264226627028938 
3.790626558401602 5.895577978946353 22.12346153911868 2.4847802104506753 8.161802221585749 0.8428467856492026 
7.241058241693233 3.971378214626215 26.52267812209444 2.4848166288899676 12.728837569592049 0.8432073443168319 
7.035554103424904 3.892448040960444 2.4108398162943203 2.4849842029636626 12.509475887804411 0.8723613234497163 
4.7591408566202205 4.261745662823275 18.815024413739998 2.4851189699290352 10.111935723808694 0.9095693233692317 
8.63235230133824 5.542399581388334 12.125587702231734 2.485216457395816 14.897547932603972 0.8895960255656571 
6.0396455148247945 8.726313869920268 23.061646556945597 2.4852322611363378 4.11440017678081 0.7994044945629879 
8.610757106801225 5.472667378933764 15.841799930200771 2.4854416350190536 14.825892630667429 0.8593867677999588 
6.672357392586266 3.800613389131538 11.772581617928829 2.4855342557635285 12.137221092611338 0.799370682657874 
6.6196987794777495 3.792015207627971 32.313420693236424 2.4856319975168284 12.084340437543297 0.8339317478455772 
7.129559652906671 8.574876540848777 9.097739682618524 2.4856942919856944 3.005486531793146 0.927382968070546 
8.68067477041993 6.770179929492086 24.937838744504823 2.4857125736099097 0.5240534737538791 0.8172586535629712 
3.7770334318946173 6.501475236908805 24.0938114450532 2.4857199041213893 7.55721319181653 0.8976123207222618 
6.046739492168186 8.727417844282131 36.08073830117643 2.485742144553928 4.108082336434311 0.8414458821062414 
6.1884734664631775 3.764880205667918 10.030022236973593 2.485881313842274 11.65290689295267 0.8287789168849179 
6.283826281584316 8.735763328660946 16.63013493580825 2.4859934721236434 3.8711620889903973 0.906342763547439 
4.681948101648475 8.179200329894705 2.228577114901654 2.486081388207083 5.601869531509045 0.8264462078763021 
7.464168338857695 4.080530421765749 25.55091139644243 2.486122081871353 12.984069627457869 0.8478916720803396 
5.492537990430046 3.8819328739377124 15.777440303157356 2.48626036638938 10.946528068246925 0.8531842915990495 
4.7023670638410415 4.304090416839868 22.569103266457034 2.486308872790836 10.045941943419141 0.910113948039208 
6.2594171921325295 3.7636143523495207 7.924509371539706 2.4864034814064166 11.72631758121729 0.8623813231432662 
3.8503969797893003 6.901616626202145 4.612893281746182 2.486503344487471 7.152265205352979 0.8794134645157838 
3.788158117213934 5.899531313257954 9.198952153494247 2.4866631770761245 8.163722230705478 0.802936884069606 
4.76676883940025 4.254058879271868 9.178455021907041 2.486715832817966 10.129147671880478 0.8800026233884326 
5.151366020553462 8.48086747349434 26.663010669510967 2.48671797859941 5.044062060421602 0.8388696582905653 
4.961617793521501 4.123034714969986 21.53656799205566 2.486746877688442 10.364168031025134 0.838380680653806 
6.563502170115006 8.717185782589972 1.590032854570019 2.4870241849408927 3.592270037917885 0.9027450317205694 
8.520522570346344 7.265077824055512 36.77465760304847 2.487097853189829 1.0456081211038804 0.8917153549474341 
4.077543008383845 7.460831832840151 6.187361982507781 2.4871033568874767 6.548840165523666 0.8063588302447467 
7.720790081040873 4.2441651976601555 1.7507105555819251 2.487287019377927 13.29476655686091 0.8302430596877763 
4.196845229648185 4.845971834567386 21.824713985856626 2.487315741989039 9.306018368854557 0.8340724783799149 
8.73415940953697 6.3773995081573975 10.184749892561022 2.487424090634689 0.1274552736437009 0.807363257259948 
6.392929305621131 3.766614703199094 29.45769374036169 2.4874949886928928 11.865052044265706 0.8709742756380616 
8.10948695326495 4.5977101064626105 9.587313457464319 2.4875195721136256 13.82244840938459 0.8693902878982087 
4.155725502785483 4.907607850269802 15.29646600127274 2.487569567537837 9.232868554531835 0.8095545996954145 
8.083126965394575 4.568371864066474 8.50621408377404 2.4876148533926985 13.783535947446294 0.8683805602144028 
3.762471968544622 6.225611595262233 38.187362407846095 2.487647583875562 7.839564169658566 0.9021892558197819 
3.7928300632818335 6.638556779597383 14.784724288715033 2.4877018448525243 7.425191611807062 0.8231167404581268 
7.3877070569812915 4.0376200724923095 36.84538773292954 2.487770546321337 12.904981722209417 0.8509501093248325 
4.579073543294129 8.09343748230783 33.78451861479586 2.488022703854824 5.740232746952174 0.882201443797215 
4.9279913050547695 8.357996172750212 8.9626343520899 2.488243326895569 5.302279892483618 0.8548947553612215 
7.526681802935428 8.385808989129107 1.4369178729657222 2.488291876768309 2.5679973342397755 0.9043225143772095 
8.466891142227379 5.119950495664682 3.0867757463017753 2.4882962481856348 14.461410481028999 0.8167743174388568 
8.55705954306879 7.182371779028275 2.6703329563759226 2.488340987403676 0.9556946928678922 0.9239381721221183 
6.8911569956207295 8.654399907757373 22.270297416081533 2.4884174106160453 3.260325161557155 0.9340150336293604 
6.543194785931924 8.721193288805122 17.604632563752432 2.488525558063074 3.6150894294294975 0.9323012421597066 
5.690171662398351 8.674751396018772 14.672175144471886 2.488539149797892 4.473649368582965 0.8902208083191984 
4.504728708522663 4.475959324532045 13.320250661230851 2.48861250480459 9.79310170648316 0.8611212033458657 
8.059801045298492 7.958266508897562 3.077146826508539 2.4886852530974206 1.882803105353764 0.897024985213232 
3.7668549930259907 6.417064857081746 30.561799957772863 2.4887586849937255 7.651475419554064 0.836392875489126 
4.018630756709275 7.352249056380989 20.50945773727741 2.4887671008345906 6.6767987064118515 0.7937897984070208 
7.078559324183754 8.596797431622793 36.292923865346474 2.4887685185173787 3.0646656336986737 0.8660625046408911 
8.512486528208052 7.286949922521874 32.99454922172286 2.488796984918827 1.069570092709947 0.9046536046645314 
8.72450132559521 5.982842146264936 17.58306604330874 2.4888813007423187 15.37042885627987 0.9033176130566819 
3.8146922649849877 5.736341017084895 1.2158320831512768 2.4888891728948748 8.336453021872565 0.8304046359397493 
4.4935907239806845 8.013426666980953 13.341415183304811 2.4889048102943283 5.859381752606398 0.8379662038768012 
8.18462103052618 7.815871261989978 24.58106904699401 2.4889177047223283 1.693566605532455 0.8895934445029965 
4.976544559868094 8.38882167995536 38.52522768628938 2.489226172256876 5.246858031037741 0.8530518201091875 
7.5841723481320145 4.148422495197382 11.521377648510018 2.4893058998870536 13.138644446570266 0.9114936626759368 
4.627543350080639 4.361645413558817 39.793600503768104 2.489628210195452 9.96494453610383 0.9117862724112988 
6.314310170832021 3.7611634815753128 16.55278778295002 2.4896672495570082 11.79659783624876 0.8354753668618737 
7.023571972825618 8.616568929096326 32.401108222013555 2.489791576278113 3.1243637195821563 0.875783142611397 
5.377796239836522 3.917973754097172 29.781373166332777 2.489796339225953 10.841782183089231 0.8533743754070677 
8.300094486675913 7.662893104730195 38.493569652003096 2.489810099122643 1.5024266539661841 0.8969764324057933 
7.8322748167016805 8.172518847994809 5.064188681561177 2.489914118290755 2.196538793771378 0.8440015733175464 
7.51238900023043 4.103824670084618 19.0613215828405 2.489918579921877 13.057356697274757 0.9014704306599057 
7.981962983656812 8.038937262134183 13.49048210990501 2.4899783743256796 1.9959130986840297 0.9140826904597179 
7.150199302423182 3.92842251373785 37.84405463013649 2.4899961463428952 12.654891155982899 0.9257420183485573 
7.6684525580051215 4.203409295537979 34.784683142001555 2.49008858695863 13.24342663900895 0.8475300524327016 
4.335167762735779 4.6581579206678505 37.604395855171916 2.4900890952732615 9.54984704625496 0.7887052820304797 
7.35371339333599 4.01786310801393 4.479764017074345 2.49010408601618 12.877819129282138 0.8274336669213574 
6.311149831363879 8.739360644814623 24.101228929459964 2.4901115882280673 3.8503021570039238 0.9066057963151227 
8.551800519955613 5.299976359602965 16.861590912535767 2.4901466926631346 14.671328320233522 0.9023528714146892 
4.965288852657789 4.116836841194118 17.836501505888975 2.490154170767751 10.384719869742167 0.8616234984262391 
5.138105880412818 4.021833606742133 10.28529320685464 2.490187544988596 10.582120815128995 0.8842473430749023 
8.596996468990518 5.417629290770229 8.775944160962126 2.490227584586926 14.797855650158947 0.8278787900414722 
7.201859192391746 3.948731161528949 39.825813710140565 2.4903562373802197 12.712233665514233 0.8635516081582923 
8.232643557941131 4.742905257101322 35.498435937950326 2.4904236671535034 14.029113231447464 0.8985807058465805 
6.1706950765683395 3.760822530021148 30.4897178752881 2.4904404726736233 11.656605907338903 0.8492963044059327 
7.381410012357433 8.468607220879328 20.543760034216987 2.490443056285478 2.7375180618062984 0.8053441221196513 
4.021977724022687 7.363000590491907 14.095293228332167 2.490552865667875 6.670467566080916 0.7752212498363319 
3.795768464363782 5.826120595566511 4.9452066309940435 2.4905674413703793 8.250301270224089 0.8249119293590962 
8.640027405811463 6.950526744926423 21.19681693069777 2.4905759817534325 0.7101087946233609 0.8468840099986251 
7.845090198792054 4.3372138046773525 14.30673095343571 2.4905950636944882 13.467810805475963 0.8388748425845578 
3.9527792945132187 7.212323073813577 27.09606855378447 2.4906402124978224 6.836542556379962 0.8504437006990676 
8.322265791267984 4.868090095144272 11.362340477673989 2.490775079126554 14.185086847241827 0.8759464403265295 
3.7623970806570917 6.3760465631581855 10.132993913429608 2.490794254933023 7.6989605096604095 0.9251329137443097 
4.454952609570906 7.97689170288905 3.213730535311953 2.490853284999608 5.917131142200114 0.8728974865787507 
8.728333698263459 6.000470664932212 3.4892826451164893 2.490863868020012 15.400610663845736 0.8799285371199614 
5.274625033189135 8.54195382758025 32.99725447229767 2.4908650452485444 4.9148386633703645 0.9042527500653638 
8.737064808931787 6.38765100909337 29.51032455481301 2.4908711657031413 0.13772116785695232 0.8129978401509089 
7.7102262745800765 8.268014306192747 12.347292930844546 2.4909119841882403 2.352440416398073 0.8398886846438116 
