429

4.703258702598035 9.413354739386241 15.806652558284398 3.341555770044481 8.144748796873639 0.5942189276406417 
8.905785721523884 4.345719768487012 15.222723237228195 3.343122794448256 17.486362311067907 0.5479612476111022 
7.7899661025510305 10.554826097596754 32.505845722035005 3.3486473279909186 4.717709044388538 0.5756262406126889 
4.926456678293869 4.832807534510032 1.263126673163299 3.352860418070909 13.232876322892086 0.36664098491167885 
9.586648964912321 4.842894004768022 39.46352020501158 3.3547112629118376 18.393665976905375 0.5382106373796037 
10.498211454676957 6.405115000927973 6.711025880118832 3.356293836354552 20.234143414009658 0.6358922097739919 
3.899579191097571 7.4579179385742815 4.183098670041915 3.3568660184623678 10.337854513797375 0.44034814799984 
7.066336718048785 3.8969207744801864 12.194281108340988 3.3581054917541913 15.640944344393798 0.5040580251401918 
10.301132572118368 5.847018502157928 8.668867209447058 3.3582386835853137 19.653059274906845 0.5184663031113746 
4.949151539836095 4.802585344440642 31.986842471761186 3.3591281804785815 13.294919917427823 0.3682988590436649 
8.138840513324986 4.009581036170818 24.155190124632362 3.3601119801684574 16.733701908712824 0.5791341638503349 
8.357603848749754 10.42232218915908 25.067067071600533 3.360121181980843 4.1493546528045435 0.44351593578145343 
9.0109614698403 10.114486996947187 7.10077083875688 3.3624798964368017 3.428375061539498 0.4429061092199399 
3.9006527865271625 6.896318876584566 5.022821606412293 3.367969283330636 10.9351219807345 0.5634266349838487 
5.892443974305204 4.167013887080904 2.7185256047899173 3.368643901535491 14.477080462452474 0.6010934538752174 
10.345977563346793 5.914069601961321 0.7484191159576596 3.371911490705311 19.812736984676455 0.5691930440350357 
10.578797267047522 7.794943083510274 21.49351413835207 3.373107500416899 0.5473418757708082 0.5742526308558962 
10.084697219717949 9.078912490594888 27.869233721934307 3.3734891767620434 1.9329585868094057 0.49192695171309514 
10.138845171616467 8.992505304318499 17.74517087878941 3.373685101065287 1.8310926161589727 0.6179288604653428 
4.9419706065035065 4.7871213272680695 28.102377131017768 3.375317916558613 13.36435665170093 0.33594392334138634 
7.28339430055828 10.62627416539271 35.03999426370609 3.376439310754452 5.270303621959393 0.5542980620337793 
8.72470688356632 10.287831453965836 14.667616611190681 3.37685953737227 3.7782282022813494 0.48635425345648164 
4.967235646916116 9.74128628841547 12.431097204016048 3.3789821636932915 7.814045048231932 0.644909178403539 
9.585843779961083 9.69281760648257 8.715976521340053 3.3798704151082646 2.7301922505743548 0.4419328940582886 
4.912174958009791 4.803510292706195 33.872761609493324 3.383893883509212 13.365364332353188 0.3527745845864223 
5.740459345292805 10.279040846675766 16.992391837206128 3.384346530579289 6.880809234014315 0.6372812917229153 
4.42739126801076 5.377893584761756 32.65199000138448 3.3870197052686435 12.624197697449794 0.4759867329464197 
10.241474280668447 5.658433644298613 22.833091828720562 3.3885102680236066 19.633841846591217 0.5534342651092593 
6.3695666979154915 10.529932869184654 2.9893259513846466 3.39604511539192 6.225101896692085 0.6307339345900035 
4.415354543544273 9.122780803792526 29.040929314603865 3.3974288517728937 8.689771124253653 0.4897765870299095 
7.319396483901203 10.648422792873792 16.717423250002298 3.399131264176475 5.26994159838803 0.5268246623875421 
7.424536200904834 10.644760712956769 1.2084315184086876 3.3992445018946515 5.164907795112441 0.6288282307507743 
6.749523297392679 10.612487477344557 6.1413125839380385 3.3995292269888893 5.842270439874724 0.5891940430709395 
9.93170034362029 5.158749770268365 37.487548537751955 3.40071231601937 19.11495975935601 0.5481436596845392 
3.95036184210767 6.426794660054091 10.317234217948432 3.4007762356165907 11.515317937655634 0.5818170200830486 
4.640394024125577 9.431476448607215 33.171936041332074 3.401306049908982 8.31727300128074 0.6136038560029553 
9.01675245793813 4.342977239927357 3.934983007106112 3.401792994173924 17.88829405638278 0.5314722207810092 
10.328549408282944 8.697685672768667 10.92152070635995 3.4019494802802317 1.4953781033905251 0.6713068475217144 
8.735070514885122 10.310881017030628 22.58999887630116 3.402120961194595 3.807234978242402 0.45597539754144056 
3.933611447280251 6.489541231323928 31.798037960123736 3.4024594885857082 11.456078459409309 0.6572800122491441 
4.056858246462173 8.425676938663871 22.59758593845026 3.402700474959949 9.489476106888201 0.5619980611172718 
4.920315337639813 4.769733633117484 22.104352310651542 3.402815286894792 13.469319111343268 0.5420216514015707 
4.361634213302949 5.449331297239558 14.31291426971606 3.4036839886897594 12.590417359630138 0.5763817281139195 
10.616709668257199 7.752532053565094 33.31920908344961 3.4040082924688706 0.5043755952954001 0.5298839398685611 
10.095566294822538 5.380570356101272 24.899487459582105 3.404704793622699 19.413392722679177 0.46810776851082164 
3.8709435496135605 6.799090924868047 17.96615887939157 3.409008871935444 11.16195156274469 0.7601287632935542 
3.9359943159105057 8.049503472649384 34.139723659349166 3.4090819111537787 9.902926819913347 0.5567672435524694 
9.00078480044422 4.324091900932247 22.6953214045594 3.4097192878090077 17.90652067376675 0.5605971481463865 
6.342111304058763 10.537119871645796 16.12177484423639 3.4101933867138072 6.275689956197251 0.6287468960397383 
10.277836695318731 5.680815306309697 27.394102248958077 3.4102984702853467 19.79692705612927 0.5859289282384729 
5.659025497228086 4.2328311254866 28.562952381153558 3.4109394432916567 14.418501879215114 0.5495181093093666 
5.656422029182663 10.26777351529321 5.398048277729103 3.4126892238642883 7.018681241737973 0.6820803468392223 
8.985510204990762 10.189265629383637 13.680087081681172 3.413396858219545 3.5411371885890226 0.6533607630599121 
9.118471804584507 10.106831648457597 3.672311384318114 3.413601317107233 3.3848888962000174 0.5963185121378136 
10.603388973844508 7.888685804367018 4.130011696096176 3.4136691647847037 0.6424719667934227 0.5331228895207143 
7.210627559112151 3.8360707680752917 28.82447607485799 3.4141562632210465 16.049459038486205 0.5661948341521384 
9.73607124485471 9.590812426274793 18.57487504708604 3.4146673409712873 2.5791444668611483 0.5701985141846876 
9.757323387231924 9.568238615276936 7.695891529645891 3.414806121219961 2.5482451460626265 0.6216207650870621 
10.49097749141848 8.326677428214413 39.84510006536442 3.415138267231304 1.0953614519432158 0.6427713261598843 
4.769007381986206 4.902419420212119 15.095725129655023 3.415619848466182 13.318759224600285 0.5451263274506996 
10.221667721170748 8.934864433615648 11.899393497786228 3.416076287893918 1.7619546307410943 0.7708449956472843 
4.2439451830306645 5.626687725432655 1.229758512628969 3.4163589248475548 12.424398592524614 0.7070724673906352 
10.08195432624046 9.163587442759178 6.310264856175316 3.417862227620894 2.0310274011044243 0.6293010435093657 
3.8367561143272706 7.437959920580003 17.18906441778593 3.4184152402577874 10.551213446259219 0.55307728576705 
9.59491470444961 9.737538623215896 31.667094800472505 3.418548430713661 2.785786633237315 0.5790546808294695 
10.47782449272579 8.378649199579263 37.65756558554285 3.4194590173814636 1.1502175333706823 0.6180274101804856 
7.582230313564539 3.8452055057016583 3.241164520842865 3.4209651459281893 16.453673237417114 0.5926032364877867 
4.332539037779254 5.46310545067562 38.56404583994769 3.4211943231110356 12.628107665423936 0.5740832731166078 
10.62620078812213 6.696242152695467 5.7544941346485885 3.4213125427484448 20.940536082832043 0.5606169529636872 
10.390663866766616 5.890760315806697 10.259609204917908 3.4221779677713027 20.104396256784366 0.7279125764847064 
3.9126560326719915 6.491373426723101 19.787427026133244 3.4224814146964353 11.517022827264874 0.6277041118961995 
10.295863004723106 8.812627698309473 16.037072248454926 3.423315172032052 1.6227178879907669 0.7094804168500596 
7.034926215634023 3.83288422764174 4.096714267866297 3.4238774707078954 15.919426986232658 0.677902488762472 
10.596375910126936 7.977513169576884 24.12774981699704 3.4245448082607557 0.7330996319180905 0.5503055654193687 
9.19557949331757 4.431765015272083 19.685452977080338 3.4245770532961037 18.20714631847183 0.648370126894022 
3.892862337249042 6.570794369950789 13.26814079925117 3.4251559927325217 11.444182547330506 0.6667018932589164 
9.778354583168936 4.938144336461077 0.5394802011656736 3.4259675286360123 18.988379079310732 0.5813593040579571 
10.388083983799245 8.62589748645839 5.454205434636215 3.4264653774144396 1.4158455105582064 0.6660836747654854 
4.032533842762309 8.433504397310678 29.835351435273765 3.42823148743249 9.561736180954963 0.6319396842426945 
6.417437449071031 10.575617421970861 1.1982997991940536 3.4282490630824194 6.226052522604064 0.7027761547141975 
6.155228881985774 10.498784133333565 35.178800810438844 3.4282826817282768 6.4994210433529425 0.7090794163916042 
10.368318922347092 5.825235892744839 35.11521917177454 3.4283911187013807 20.07188286141804 0.7434393447926521 
6.853185391736869 3.8439767438546966 5.118156388930984 3.429060549878593 15.761361511590472 0.6022824092814165 
6.960373376025778 10.666909458887906 20.56262275786011 3.4291622638120147 5.67648756253876 0.7313552557314699 
9.05854261739416 4.335385758691874 38.53441479468104 3.4301315681132465 18.069081942812282 0.7517865740327171 
9.822292131856532 4.979646821433246 38.48243449258034 3.430916840589286 19.076091616966885 0.6294630095308852 
7.439738584155666 3.823753780828781 11.21425829694735 3.4314958669219573 16.36037870963022 0.6442383362223587 
6.589482193016613 3.8824431257150174 19.008975833031478 3.431723047520908 15.50694825149236 0.5010864591937877 
10.440475794252757 5.984665194867899 25.69154830981048 3.4322307560523155 20.269435271753053 0.673338098227765 
5.28558885306315 10.065685059259092 14.964411101045826 3.4332191172636524 7.484262994149496 0.7003925661445511 
7.928062424826196 10.615828791435263 2.700830010553254 3.4334490101377257 4.71069992564108 0.6631480126810227 
10.074750743988748 9.202275129943633 2.7729391175675815 3.4337435764281254 2.0765541551992577 0.708930365317493 
8.648864551286342 10.386165021595312 9.891432218389085 3.4339995741880127 3.953350415540857 0.6506578243214157 
4.474743758788527 9.273419444769365 0.24048598802858123 3.434570344869063 8.626290740639462 0.6496152538794421 
8.586044779746716 4.085757102237732 18.81436099957196 3.4347414414373914 17.55809880457072 0.7109833128013936 
4.914037530680307 4.731783072383257 19.480720048872833 3.434841648839968 13.617495231364973 0.6898678795722832 
7.940554007693807 10.615848010440176 15.26301608070186 3.4359565868802946 4.701898529481884 0.6398438960764007 
3.819733916936144 7.458875262772214 0.8251190372780854 3.4366196001327243 10.587454810192344 0.5619423959002754 
4.280924034286322 5.51881577774069 28.510577172748498 3.436918809279349 12.611676939761477 0.7194111868642007 
4.412353046875351 9.189259572667416 20.224558354529506 3.4369998429967703 8.7371695537784 0.6454071135084115 
10.686222867994548 7.334304443938105 26.870912093409217 3.4372568769000083 0.08431289855173318 0.6929661883804258 
10.508538576213823 8.34588301302481 2.4431444068084716 3.4378820850794085 1.115346014463288 0.5813105885960679 
4.825147164327598 9.687696084940827 5.420169612171932 3.4383533089553664 8.09234756268593 0.7216287553064833 
8.762730952777831 4.161721971270239 7.441349816166557 3.4388684357252055 17.771616312640347 0.672876503482163 
5.009982534612346 9.859303120799117 34.291056731973626 3.438915675246154 7.841378194464653 0.7537217584827909 
5.794392833714777 10.36581351604797 4.4029141034793255 3.4390530803301242 6.905050349112663 0.7485359515226293 
8.842098966612104 10.300026132283778 2.1988818548492333 3.4405578802137997 3.749202749921743 0.656554898260998 
4.027447110065484 6.044501552589027 35.99287756109459 3.440650176221868 12.040755195191995 0.8025684214923293 
10.152124288180925 5.401258316550283 15.854834524533857 3.4409549831658808 19.668435314221078 0.5689622187931324 
8.698899711208929 4.1286481587755866 28.56631685400466 3.4412421725092748 17.712005647744785 0.6335268992172791 
9.921766078608364 9.419038801110679 25.271896680431297 3.441375204700292 2.346732668855335 0.7343430898183135 
6.127527990301303 3.996062638359682 15.654260187831646 3.4420999064576536 15.077130359804336 0.6352408963737455 
10.618337716357942 6.540965356878218 39.53699868910803 3.4421547171192497 20.913549004744453 0.6012261287610043 
10.662843379306747 7.7026094578020015 5.774411118418925 3.4427249749246176 0.45392351609324066 0.5692270439097983 
8.167189735712359 3.9316053174234113 23.134330050641097 3.4428157488672975 17.152287841170235 0.8487666294565119 
8.245977360008881 3.9541606180160684 1.5647602466854948 3.443040536137571 17.23536466141535 0.8023701286019701 
8.983294513156377 10.225704650955125 27.84432320461047 3.443708471844556 3.5930182910886863 0.7476736919029365 
8.609740870195767 4.085454292837381 21.329322641979203 3.4443061372070414 17.628704988588453 0.5914227652011287 
7.787609632232124 10.652355061456973 12.34206685305395 3.4445673285465976 4.8708971647672215 0.8107730643162468 
8.331895873017809 3.9796861708365032 35.94473633297153 3.444626426954158 17.332942580440182 0.753641088039104 
3.811326032339732 7.047285813834602 18.961040186799835 3.4446439144180214 11.024499391839015 0.7492686342685185 
7.797618488579339 10.651135906459638 22.41084316760751 3.4449399796285176 4.861347629577526 0.8387116042912993 
3.8086451367554623 7.08966735393725 7.651502108457308 3.4450877858438256 10.983453059596714 0.8148308533666822 
5.417286800092494 10.167567508660865 15.968500185424475 3.4454372495677204 7.344529069502135 0.6812930001070199 
10.526088781077071 8.317091843666413 26.7198753387999 3.445496002655995 1.0849320361808559 0.6297171368139922 
10.346978907431778 8.760070143448127 21.255083608905025 3.4455174054430175 1.563142061345637 0.6913527192809711 
3.8645093893361135 7.890524922829803 9.377663825594126 3.445550587592562 10.180243646385705 0.635951641389666 
8.789497890674427 4.167442369623895 39.60680732031974 3.4456081175869313 17.833000781946794 0.6572046001738443 
8.516256162976767 10.45464717032881 10.881248544493968 3.4457463859914466 4.115924083128906 0.666086961384266 
6.07267840549205 10.489112927101269 23.14364454995661 3.446438551811026 6.615165568670836 0.7331559521404588 
7.345846091388156 10.695242432775506 7.6532183395122 3.4465753863554545 5.318009507537898 0.727547027601232 
4.063184340206345 5.937004866596263 27.615052268867686 3.446701360699526 12.175155904322963 0.7899556052470864 
4.087415308682269 5.879463604062472 4.874881978142149 3.446782839452857 12.237880319058604 0.810321694711752 
3.9566519861872944 8.267716239777146 10.431332710111793 3.4470113844880506 9.795991653230043 0.6936663828313842 
4.074988189361337 8.592412675815213 35.64790199778066 3.447139653377038 9.450616632157416 0.7774402623278465 
8.727002330922254 10.364947636899466 17.3477262779306 3.4473808414759337 3.888744395111086 0.6076960831355321 
5.460793100281004 10.196768553560695 11.515882402921157 3.447420229426091 7.296380580625023 0.761328139090715 
3.8070625277381005 7.426500092566492 38.25184313664555 3.447458588668055 10.653933286543015 0.7176825884329444 
3.8098489632425476 7.4767383982360585 19.998408738524894 3.447615038970858 10.604099911073881 0.5948288877448478 
4.56870287581949 5.082647129617623 20.407792296522075 3.447719932490661 13.175074702546826 0.5844421886242943 
4.992516583010328 4.643769751389481 34.976657067883984 3.4479947051519413 13.787055512346793 0.7171700611036836 
7.250363071231234 3.8016005921826963 1.5772621268942615 3.448399426930623 16.250562530664656 0.7830022288029612 
9.245133593602203 10.062951735040603 28.883036603816798 3.448659960040706 3.289600852149011 0.6867855957519563 
8.81726308066085 10.321991740574648 36.40412600533943 3.4486876950749465 3.790243610011494 0.74581319790523 
4.226500704549476 8.909291892369776 30.70639567355699 3.4488835256752135 9.1039225288012 0.6639739446194571 
9.958266588311206 9.385521238726366 30.040813409907294 3.448935904654395 2.302859263499027 0.7048260754541691 
9.577460155574862 9.795318180407868 34.33292669534016 3.4490165866958917 2.8629514447766695 0.5212688596256358 
3.9519281571269698 8.260132340682102 3.4541618082756216 3.449296337870059 9.811125734948657 0.6863510386613186 
10.583054764574896 6.361598413274939 15.486601061538899 3.4494218998190136 20.77482847358089 0.6840538634912162 
4.089580315268574 8.633268318920983 26.19796201901116 3.449881711851631 9.414820117990942 0.759362919404235 
9.607828440715863 4.731348084541732 7.742330065414599 3.4500670177679438 18.853994123904698 0.5440746334341474 
10.651635535225179 6.673701767980747 37.69496110268026 3.450107819581185 21.098654368614213 0.7684893782032759 
7.6248762583640435 3.8203066670508328 26.662098984953325 3.450120080107502 16.63392569098314 0.6666710843577436 
4.313666313937533 5.438078083161022 9.907372368058688 3.4503791891075712 12.747318228868998 0.6559393931138079 
9.281019956134568 10.04009314057314 16.366567331412426 3.451037785259696 3.249372425714455 0.7469417160188022 
7.237865754287661 3.798689054161077 27.63853858675521 3.4513322767862507 16.25188591806258 0.7852787243844626 
7.8474291031104855 3.850463299680289 36.86054952684245 3.451633136656332 16.86589104515479 0.7933922087892906 
4.190369708903262 5.651917832349882 10.951695740732589 3.451840687627113 12.505778092654914 0.5928491766916623 
4.502888509328191 9.340961988859167 36.69784644021345 3.4523533395402883 8.59979178475453 0.6148056495454408 
9.26479843383806 4.446472993924532 2.945250546882022 3.452416024002725 18.420478455744828 0.7523091764117192 
5.51318551706899 10.233877974624516 21.466422027096044 3.452542876716844 7.243175393670068 0.7614771835529787 
10.679188750146555 7.651355460446112 3.152679912904283 3.4525963693663386 0.40226495256874983 0.6079915652323423 
4.003400542572663 6.075167444593962 7.4906228728897375 3.452627922352677 12.045524085791627 0.7975467378978309 
4.056423453681823 8.562656212820494 13.069539001918535 3.4528245669668443 9.500839894603871 0.7413814894230896 
8.142280007252968 3.913828189284615 38.87699888254839 3.453433937685116 17.17644242400833 0.8081388218022235 
9.231826874446082 10.078369921586468 32.966551934571555 3.4535943846392496 3.3140814218752865 0.6709027782683481 
7.158400432722146 3.7975783927067077 32.648396391004766 3.4536365522780614 16.18326852123559 0.7422722648686682 
4.416580727963661 9.225099442903149 17.653689935508616 3.4538793523374918 8.748102954212047 0.728637401372591 
6.2304960244307495 10.550148083589022 36.73755913936701 3.4540361506240482 6.460507048168864 0.8109567355197161 
10.606159186873327 6.433536951419875 1.6247352658533956 3.454043485153449 20.87813113057294 0.6376523061719754 
10.155587502110427 5.3821812973180805 18.46362053095917 3.454154808127267 19.729656246508377 0.6503470152753701 
10.704600688842756 7.253577027204392 2.2093897297158236 3.454602540738436 0.003577027843567393 0.7818296396047442 
8.062423392402998 10.608463784247151 13.95567812280548 3.455330774126162 4.6075194824375 0.7155573516341501 
7.54491107074085 3.8068854611955647 10.207360683695384 3.455721381560149 16.579973575041574 0.7570977154446263 
10.176796469072766 9.087645318330184 38.31707473064141 3.455875849528975 1.9375709755918322 0.6921513549712622 
6.634177185111181 3.8494279398565983 38.131018723249014 3.455883110807645 15.666336102300857 0.7319547599541815 
4.133279851291766 5.7568347020569615 21.159911853872096 3.4559350532591315 12.401161450936026 0.7798248789036617 
7.6266948996055515 3.8146123299076127 21.5537568177566 3.4559785142867474 16.66335987485646 0.7567341817350907 
4.6241076291762795 9.496934222633607 22.85526547380536 3.4560127522901736 8.411271299510506 0.633918190075418 
7.681888015449955 10.679019991471725 34.08499149206461 3.4561113060493405 4.995826903041845 0.8381775953016952 
8.0059008514224 3.8774472389791796 33.19592634771762 3.4562260086762633 17.049141873973237 0.8650352609739518 
5.7979221653232 4.113093725874254 7.968269442172385 3.456690760049145 14.790690012132973 0.6919457221770172 
6.672210452652596 10.658142452426366 37.644690744534145 3.4567724450786077 6.010399800176895 0.722264600132334 
7.649570948095485 3.816323604637926 37.85293761020955 3.4568469058708127 16.69047336104628 0.7378278659548109 
7.28173576670995 10.706909885959353 27.308553388961514 3.457055556182486 5.3985939567090355 0.7850891855637857 
6.565133556258962 10.63900411930285 28.767755314042873 3.457512251086634 6.120473525299719 0.6745797439283798 
9.902846965060757 5.032463413763811 14.129379752574245 3.457609800328562 19.31742166882576 0.642348888763896 
6.638858385218871 3.8467684164904803 25.207763578738877 3.4576696320374523 15.679515020787406 0.6855820161480108 
10.142801439603565 9.1440299835838 39.36268410604787 3.4576942819871896 2.004423589335513 0.7324784888221261 
10.037954590994687 9.295783480795563 19.507286982742905 3.458022679472243 2.1890948002574824 0.692455872974221 
4.962286692188933 4.6568112428814885 27.015099522406345 3.458071732740908 13.795960411736125 0.7723865190360408 
8.470575259516778 10.485524286445454 1.2851328859706754 3.458095049636841 4.184508112388219 0.7296181381927013 
9.573434577029857 9.811654992199145 36.916199097255245 3.458384671027317 2.8847229141797612 0.6139066228964624 
7.0514609548599445 3.796953411950472 18.06822503847618 3.458749556080291 16.100325056285726 0.7228185178092152 
10.702123267424493 7.033130795423347 20.786786986096047 3.458928635486321 21.516078035960483 0.8278237999547222 
4.151776707803739 5.711673292685033 3.8646287465465576 3.4591092244602426 12.461273493718814 0.6436785373793497 
10.704672056816923 7.07253386035439 34.210825716748715 3.4592272621023876 21.557421829311195 0.7603335384903097 
9.39933467236289 9.960545454415353 6.186142838030946 3.4592912849705217 3.1146325437601234 0.7402165396026253 
3.9808795264362136 8.381529614609686 5.462294970295574 3.4594086112242732 9.715308587898399 0.7421641925858518 
10.69765207177695 6.964483041874715 32.648996277310886 3.4594543993822247 21.45055095985107 0.8216602966768451 
3.7969887517758085 7.463793402391788 24.894707200883374 3.459623433159893 10.654797851403348 0.7276258607131231 
4.311985248060127 5.42298810486149 34.3789848923831 3.459754781425111 12.793915134226538 0.6606112918484114 
4.5952509671693385 5.031072347843768 29.462071763309545 3.4599613224455132 13.278655163438799 0.6239500664917403 
8.59311297230692 4.061117794720772 37.6137531508033 3.460191060552242 17.685122393662677 0.6609094310091301 
5.707526913013227 10.347408293177553 37.723311941092696 3.4602256225170582 7.034061802668276 0.7805892915062818 
5.710625404473021 4.150878668658693 1.565678074121088 3.4603796282674772 14.711368795945809 0.7140483889692325 
4.858014111321557 9.75078808847602 19.48927632483486 3.460568964072286 8.07683241382751 0.8480623052479788 
10.69385015061491 6.905753628185684 25.216136891303222 3.461012774376549 21.401368087633927 0.85018385613395 
3.7887000408711753 7.242148696665456 28.612464398912316 3.4613088637146006 10.881873808118344 0.9020989724901998 
3.7886604406119595 7.27736795907756 31.116346694363283 3.4614477535517802 10.847090589116089 0.8282906638996761 
4.745780472321348 4.860210105706793 3.7776187214827885 3.4615330681177996 13.512487231093761 0.613900882475037 
3.8860166305853348 6.4338440282813725 17.03263980248917 3.4615740176790117 11.698768870107223 0.6990938887538193 
4.209967868163037 8.905714074445767 7.970672421958248 3.461673649973231 9.14877492708466 0.734784927462216 
9.940438389821171 5.071479932895759 19.419851542165745 3.461850431806579 19.39516059463728 0.6706867918542496 
10.643250975378809 7.937505419346577 30.27104716456479 3.462198128868443 0.6921058088612835 0.5807204288906219 
9.569040342656322 4.679108791906909 28.836974942999518 3.4622867753434137 18.856751648122923 0.6525755725145079 
3.860948781225625 6.540968469945646 1.4775470163927622 3.4624260099079804 11.591615025943174 0.7257450314517575 
4.8109204525705405 9.707602020844556 14.015907255692575 3.4625015135806003 8.145229590791395 0.6240146326727344 
6.845724973712738 10.688830133659943 15.210842030453172 3.4625122360862792 5.844100746622491 0.8241530690359355 
3.8417038175281206 7.861306131027883 18.118367431597477 3.4626836490336035 10.263814596297436 0.7276824677560861 
6.2481605616380875 3.93534973190191 39.131119823130035 3.4627429387784523 15.30142130282384 0.6273875281995606 
8.827824483941416 10.332460767969353 37.42079841976999 3.4628159766576134 3.8011210230930548 0.7347212627535051 
10.698129805082107 6.930751159405828 13.934239629072188 3.4628772682433175 21.438196760043397 0.8007825944854834 
3.787193157779946 7.216786506479368 21.63392669864629 3.462966122080588 10.912442931509265 0.8616112437589164 
5.324904396600262 4.371397702516026 13.100381309530121 3.4629964292948694 14.277720190097863 0.6745845577640618 
4.094401012237119 5.823160107548697 17.990904187937765 3.4631888557022914 12.350571296961022 0.7265403435918427 
4.1929358551179785 8.877374947960659 39.18632860663295 3.463234096501881 9.185933226783462 0.8096133509826728 
4.145872336021423 5.713715626336342 23.818235768812123 3.463492201671637 12.472607918989219 0.6284021443979168 
9.358170272885808 4.501870684542002 20.70400066292175 3.463610346727683 18.588375699852755 0.7594519738552403 
10.611402317949768 6.4134461099718525 22.150871595302966 3.4639353276352174 20.919640640394356 0.7562836074914523 
10.708531616690372 7.049690103102392 7.660520473178046 3.464327495841293 21.566589942127266 0.7172160370317561 
9.027102070388338 10.223813950912117 38.68051014484234 3.4643413779848653 3.575739279842736 0.7750787115864559 
9.496642096938121 9.8871310692195 9.694066252608863 3.464370215201788 2.997320578917961 0.7571138379554995 
7.509739760985861 3.795261396103612 5.888057742291593 3.4644889326838597 16.586003171975907 0.7130910168289507 
10.585467606820972 8.187048055993472 15.301465830484759 3.464592792146454 0.9488656655464105 0.6317085165737485 
5.0298131899257985 9.910001199194454 35.871417022297514 3.464799539849799 7.852326731600741 0.834340296163869 
4.506796112686612 9.366535394634795 4.433212910872278 3.4648073025946404 8.608098373783562 0.695860092600878 
4.622666538534395 9.50890812922175 2.9068864375358316 3.4649021709134815 8.42474553555034 0.682363793419491 
10.29432914682697 5.594869325824202 17.46265086624895 3.4651691881952695 20.046730864454055 0.7913701207193737 
6.574686335179861 10.648942060480248 24.123616696468154 3.4653795861917525 6.123068216568861 0.7192033037239152 
8.953091486039163 10.268125902051215 26.84439677639503 3.465487638190554 3.663193179923443 0.7290122481357777 
5.864894945983444 10.426928768209732 30.892784742213315 3.4657455776413846 6.86889135613292 0.7176335284020406 
6.735965301256002 10.677583817739983 12.673568040642394 3.4659143813928575 5.960183654185791 0.7643059149093542 
7.644461294750094 3.80654584394029 25.009846219682338 3.465974067695949 16.728335851985108 0.764225781827191 
7.389966580861845 3.7865870547543636 34.15076463639617 3.4662400195389242 16.474275917092093 0.7598650496305791 
9.61819519960066 9.781157607550545 14.33892633042975 3.466281485637402 2.8376641714858195 0.6491414952339378 
3.8789688423796616 6.44242117748667 30.132494397834108 3.4664152405935367 11.70513326333623 0.7154389146980724 
9.971925050895774 9.397009244214749 16.791523417438135 3.466774390905404 2.3153338843678206 0.7697739967235974 
9.580601466061687 9.81661957643025 37.931286053245664 3.4668774486162475 2.8898337104112066 0.6587183690456396 
4.538967417746994 5.088809486574171 24.58726422253023 3.467050922233361 13.22546054528219 0.6585554828309966 
3.8248999812655704 6.712137350998178 6.713035938215519 3.4670746123390304 11.432179914954006 0.6810793902954126 
3.800102241785412 6.904394154294481 26.462783182855325 3.4671656930005317 11.238603014943585 0.8003472057686369 
3.9207730981790547 8.219921060996283 24.227380920956364 3.4676358846298205 9.91086409750995 0.6753464029512416 
9.607758881895062 4.706969398515827 2.0118088001208747 3.467856915335465 18.93450109547951 0.6658614772224165 
7.060523827036562 10.712827380628335 8.659691670038576 3.4680073079724285 5.637103705925359 0.7802853847554783 
4.244760124470126 5.519103565987642 30.402587715224108 3.4680641826170846 12.707499462754836 0.6214413420753523 
5.648290336694924 10.326086660179298 29.179101745924775 3.468109425386962 7.112621647792892 0.7732546496080059 
7.669615135814915 10.692939074658847 3.7178660263104746 3.468415536526398 5.027528824598361 0.8251195931969167 
9.917126281296284 9.467407284520027 3.753812969316634 3.46849501453063 2.4057030707912546 0.7505753571757106 
10.65172929007047 7.927360412357048 16.350884800246547 3.4685125473539555 0.6817415054640783 0.5954740779925515 
7.673318119763117 3.807404785248856 7.695318626630019 3.468524188058556 16.769411285134417 0.8137802113180819 
7.129589528120206 10.716571153750726 31.580569045428184 3.468661737003907 5.56899578379776 0.7364616166359577 
7.504836456949548 10.709369707408614 29.998862311214964 3.4687433448335394 5.19362304982927 0.8242228975281446 
4.943794798162923 4.658809659560083 36.01562377456664 3.4688398367998388 13.823730626111939 0.7177893326883197 
3.826937307351006 7.812400071871302 39.79806607735907 3.468955467953751 10.333151639799791 0.6643018036414687 
5.914960251051534 4.047919662164391 14.425763796390754 3.4692433787824366 14.978022767481221 0.7083115974965061 
9.418583371577768 9.957935602916793 15.362791352675814 3.4692461816694338 3.106891566111411 0.7624376807577469 
10.42666182491998 8.645228097473598 33.80374055959814 3.4695593083104606 1.435865054823978 0.7758035806887689 
6.128999392774858 10.533761545126081 14.521059900837457 3.469831731748378 6.591877415622712 0.7429111237805018 
3.9239632177652766 8.238667165146618 28.694191414657716 3.469867928353666 9.89835325686154 0.6631361869178489 
7.549540212435097 10.707048425856525 28.98942294106977 3.4700011754440028 5.150751624678609 0.8279645986142093 
5.200584131534285 10.050164930810155 20.386977077051966 3.4700185938490464 7.643086086015444 0.7998231723237412 
5.266454800424416 4.402681345989002 25.920763422558636 3.470111680657892 14.241075235808701 0.6958612722861844 
6.841090749499694 3.803722564624909 20.794516372969902 3.4704516905901803 15.944256948330748 0.6945675857600916 
5.203661635722963 4.446855953855126 23.066897944027417 3.4706076189263277 14.166330229519502 0.73627937335988 
5.853972026265648 10.42755143948312 25.095802489604786 3.470695500041751 6.888465613694759 0.7699240003779355 
8.419584553412978 10.517737343838258 33.351080722235125 3.4707398888273557 4.258890807061256 0.7310336359567036 
10.45210262502273 8.589246582397553 29.41931584552038 3.47088499228093 1.3749242556621724 0.759191972125583 
3.9554429471917327 6.157558561750083 11.822569858400783 3.4709558438871335 12.015661874649936 0.7173513933911916 
3.7797737998847847 7.336541094612967 10.795441684355389 3.4713051207035797 10.818876603862051 0.8139388206510049 
10.720858512551295 7.189299389067033 4.876125665572431 3.471389257677308 21.750678274685697 0.8936654819168298 
8.886929054969332 4.188711763659942 12.558678931274287 3.471458252227271 18.063470955132708 0.7850004371808543 
6.3838006593628975 10.611940856475037 27.765991281547638 3.4717355343050342 6.328837136481283 0.7369086150431591 
9.556514638889494 4.655156808951094 4.7343472000057005 3.4717749013356833 18.88308297927641 0.663728777416781 
10.678713397206682 7.795582429092365 18.89058258406193 3.4718490386419303 0.5478532299034455 0.6918077041882695 
5.406930563693461 10.19233688993625 28.12263026527866 3.471923288456561 7.396582644216398 0.6558543323979475 
10.631488193430108 6.462583399473189 12.200631481187365 3.471957272935889 21.020622974130873 0.6616057388348723 
8.41545525548431 3.9794885895976275 14.428798081983565 3.4719635421628654 17.549775387478007 0.6804114230663233 
8.488932984793927 10.493525120309243 21.08914519804801 3.4720901697518594 4.187090836714631 0.7246316038993245 
10.191890878669911 5.405378028760676 23.810991380877237 3.4723698188384358 19.872842365788543 0.7407112943679703 
3.907621008669155 8.191575829806206 1.60898943667312 3.4724720826761226 9.955579435193442 0.7685451736176003 
10.326590171502888 5.639702352280697 31.623259142165587 3.4725301435176186 20.144115336668122 0.7274040058058809 
3.801000254433381 6.844671319676731 9.4078845049711 3.4727353172983397 11.316174424587793 0.778282676519661 
3.9517131567751935 6.163062422136733 5.85770561544005 3.4727697013135095 12.015542980973724 0.7216580465287158 
10.48420405288993 8.515015271308219 1.3646723543277588 3.4727999499499904 1.2948062291711757 0.6256512150501298 
4.975402533731135 4.625684802787889 2.789209501297229 3.4728696905981358 13.885424608825879 0.7962982517233451 
9.685996897732082 4.774642138275571 27.74647169439521 3.472963781752013 19.065782927655047 0.7604019546272185 
4.438276366800958 5.211377864370046 18.705059683148257 3.473005902870088 13.089514063565982 0.6944752914932227 
4.367790931501922 5.312236546355589 35.39770486316786 3.473047122745742 12.96661482732235 0.7497740400273796 
8.236501872695538 3.9196425794437353 27.599640579278287 3.4733940884221575 17.368254570579765 0.7866533479701977 
6.037326547465675 10.504940492780548 13.477829676489009 3.4735017653693476 6.694929993532906 0.7743008463499695 
8.44970526209925 3.990175995599758 8.410747243212164 3.473578163158653 17.593787709254997 0.6979018834741179 
9.444360154490445 4.557289856596977 10.702331904601117 3.4736010715107826 18.74412540881334 0.7358055672042778 
7.13973709333365 10.722027679570822 38.54640822092958 3.4737780752794847 5.566879271208048 0.7381109389808428 
5.33401813090096 4.3523793174268075 29.526108893284174 3.473786427342963 14.340354931229129 0.8180448041910711 
10.62133239514588 8.089279887794271 17.395412768781597 3.474229820926653 0.8476650553649954 0.7020290321459098 
8.93384760765133 4.210828098137153 17.8114765409143 3.4744652271775194 18.130923055991154 0.7838815613372037 
4.200428305153801 8.915126996272177 14.081991036203483 3.474555429939422 9.179116235276886 0.7280726099941506 
9.15107183351663 4.341528537646862 1.1354275894264916 3.474662625854904 18.385529793605798 0.7528854259239649 
4.806760916719892 9.72064080229283 39.29354739990796 3.474691812524033 8.167673662037721 0.6550296649862567 
10.587133163981507 6.2819535931936805 18.382716420658248 3.4747045341835676 20.851184535114406 0.7331071543674976 
8.472375445403358 3.9973062164431425 34.12694827470992 3.4747976313901345 17.623702302460288 0.6743383744276406 
3.896490171620963 8.160841670927862 32.600727053960675 3.4750051393535317 9.99544309382604 0.7076421646336118 
8.642948879827415 10.433839485356451 20.06173632335883 3.475218043566083 4.025626026479458 0.7000371282387903 
4.377369034013892 9.205840894675369 10.480013858752429 3.475244203221817 8.840439449161622 0.7117115713569979 
5.004936673413347 9.902823761269154 6.9223091524022 3.4753105255125836 7.899845540367025 0.78849493217364 
5.805608472956326 10.411296466065808 6.448713249360729 3.4756383916851497 6.949094758355647 0.7786384356847408 
10.024132241030502 5.156121695091226 21.124117303414337 3.475649010831293 19.590939489672678 0.5562609722528745 
9.254832370925518 4.410774030347975 35.83403197562864 3.4757095595370613 18.515835032666573 0.8093461639420132 
6.717197035245837 10.684713153681972 25.727707013845674 3.4757924919832 5.994674029693041 0.7017651649114948 
8.102440986939586 10.620159962451153 23.947979922495435 3.4762959898034134 4.5993292378668045 0.7432757114471655 
7.657069409967049 10.702409060081871 19.80217659412881 3.476324757939961 5.052592683582041 0.7882408913287547 
8.315883064409746 10.558984091965229 31.62750805483843 3.476418045614546 4.377413051135388 0.7333444559627516 
4.0894057461463404 5.802084631291978 15.227321062490127 3.476465871029609 12.415065981208949 0.5712020217773204 
4.13865839808089 5.698985478699914 12.71122278784398 3.4765058045566835 12.529473995585223 0.6428551114094734 
10.574745564601338 6.2338458991770445 28.286066276699444 3.4765647162041415 20.81269135713753 0.7691104502452958 
10.64471747298947 6.49996502102754 19.91943311496295 3.476587290879119 21.088063682519472 0.8304767273363426 
8.00792596248295 10.643011257393015 27.99400858513023 3.4766330202368887 4.697020667598299 0.7386236269541446 
5.685465725978494 4.14527497035821 25.04403205780732 3.4766485304488595 14.760493674895741 0.7146682963317772 
9.745051081984323 4.828843060293449 12.48405303829687 3.476676693107995 19.166281442754386 0.7407573204256764 
8.436829860867546 3.98212833632164 2.5799770100546837 3.476715451244011 17.594815543367208 0.6925347729772466 
4.520893949366068 9.404392707746275 25.005289239019525 3.4769854435699155 8.599768615493002 0.6755238815228237 
10.373423925351222 5.722367588332013 5.567463802824108 3.476986885600088 20.26493832435915 0.7429671666355643 
5.052398301613524 4.5555592057868814 10.61495783968681 3.476990712997513 14.006029441215674 0.801777230415224 
9.041479246300934 4.26995344174242 6.483428745324225 3.47707856961988 18.267387273825303 0.817537953964292 
4.23051194882923 5.5258033127333235 22.13871485134652 3.4770910697800863 12.727658431728809 0.6358986787761963 
9.28759206243272 10.067549769150787 30.3346598191467 3.4771206643616055 3.284776622450668 0.6531534230730892 
4.83923833867666 9.755956635672032 7.985935331478679 3.477296427912807 8.125869467610837 0.7675303963409963 
6.067351160034004 10.520072497888343 7.432411829673754 3.477359978506484 6.668947617763791 0.7155881707218262 
4.608460607302332 4.988335480217218 36.89982262686523 3.4774785065069556 13.3871462290018 0.6441397215862682 
8.816715725647676 10.35467815590578 18.91313938197957 3.4775889085327836 3.8373492071810062 0.6526958710089537 
7.5220386142920255 10.717261992250869 21.403398233944976 3.4779175853624555 5.190783390122771 0.8304908983769612 
10.06307434590408 9.295259923146244 35.25370361671824 3.477998767799073 2.186457497258843 0.6875065665603918 
9.12690119300467 4.32179993884982 26.061984136799495 3.478090523034482 18.372641398230208 0.7523479052922654 
10.57566761203502 8.268965010754366 23.104840315135867 3.4782689313623156 1.0341331440775114 0.6639956720092846 
4.3028674353134715 9.097499341942271 34.12357057987879 3.478339283668705 8.979828023162138 0.7454379146692957 
6.165437236879278 3.9449627965983645 31.396758815812817 3.4784403549603886 15.288811896347003 0.7678658221031787 
8.310563928290481 3.936765761547493 11.734647973555347 3.478838450524098 17.47135981136648 0.7098690990382829 
3.8512660850063263 6.507336853682219 24.57764781843482 3.4789281070218805 11.677797748955292 0.7371861919834088 
10.500110713337051 8.49091556261279 25.023649287082037 3.4789497096800486 1.2688606305593062 0.6805739117372179 
9.818520960755805 9.596474883830087 11.242690041881346 3.478971731171058 2.5753143720318477 0.7210441309224555 
5.2464893883213275 10.094158174140716 31.66243326849917 3.4789783688089426 7.599791109151909 0.7935054828173835 
8.732164803791289 10.397458030972167 12.632812552031595 3.4789803911963753 3.9336537659893764 0.6904763227815263 
6.446791638996828 10.635050467674438 26.71188694558809 3.4790387091678547 6.275381710110505 0.757348122264407 
4.6217101280020625 4.970497024440403 17.751724329965207 3.47908629769829 13.415503330767521 0.6597950997495237 
10.363637403779116 8.802398433115865 7.442108915865987 3.4791778881444047 1.6091588996930106 0.6985894113747538 
8.262126324941566 3.921276756729098 31.34007809348647 3.4791950402257794 17.42229504419072 0.7027700625255263 
3.7790300520437974 7.4923410479947705 36.61992672250696 3.479419716440988 10.688382006143769 0.7183777408136608 
10.72711132701208 7.377634406115696 8.717489756615159 3.479453078008128 0.12766304744500445 0.7813189182646275 
7.708812404739017 3.8008575636293997 16.44224321734849 3.4795247332236205 16.857026506097434 0.8388454547750457 
8.68349704273314 4.078921530512208 16.17637517577436 3.480036268657799 17.876769753888325 0.7219614197255384 
5.960117183862584 10.482275466891512 17.95126663288699 3.4801440161630244 6.788003585365395 0.8240030094356382 
4.993488474143248 4.600547384216201 5.621187513200624 3.480149914818034 13.944664098669428 0.7903679895483068 
9.483917315938243 9.91856028906795 26.071983756610365 3.480172494408736 3.0410609723972044 0.6661080700597714 
9.57055209873078 9.843623028142948 17.60009592568416 3.4802072431160185 2.9265378853307986 0.5764323349155348 
4.259249188490966 9.02977377669128 16.659971608778434 3.4802564722646374 9.065334904930339 0.7296939843300732 
3.993965158117623 8.47910207901779 36.650445818535076 3.4802952191154497 9.677468059035114 0.6653953075865069 
10.450824754200761 5.883527696511107 13.787538564950381 3.4803053979940626 20.463137089002622 0.7955090968904378 
5.397191489768822 4.303745880391386 17.57474704834533 3.4804184680718806 14.447259336316158 0.8684242230723629 
9.440674275791201 4.545479328285001 29.84151983322812 3.480443340487968 18.770729137247283 0.7084115804762465 
3.7989168328611918 7.7016904482710515 6.8559897841982576 3.48051710059987 10.48139890207926 0.7633976849648125 
9.057398486150051 10.224452636706147 23.61458320821837 3.480525502815009 3.5667645608852965 0.7405263073467098 
9.524369018804308 9.884865925011116 5.193678317875985 3.4807000555177896 2.988873653353547 0.6418580383025275 
10.61220416662028 6.348951334701784 4.151280910921201 3.4808483959050105 20.959387813889897 0.7253301826748769 
7.4850001528722885 10.722960273208104 11.287015232579783 3.4809019134603125 5.232608906695511 0.8325013394358839 
4.715826393913648 9.63635237977632 23.851725917652658 3.4809070005170786 8.306235001699427 0.773886978152723 
7.956950007384304 3.8415618562025102 29.602016169449357 3.4809810245151227 17.115638828403213 0.7772973549955121 
5.212973884591346 4.427262660655995 24.185867088381123 3.4809943237218506 14.227800705973607 0.6411280686441694 
10.348931734313165 8.836315726015151 4.433181098564681 3.4813467906165543 1.647078123715204 0.7435955876490448 
4.805970462397019 9.729733531649057 1.175621570248758 3.481717789922175 8.178357515466917 0.6664787942031535 
7.630695202631303 10.710990092280186 10.297242254342827 3.481864623469456 5.0878423458387765 0.7721498426749197 
10.488101307208726 8.52997929808535 35.7624870738721 3.4819027957819135 1.3107164876698665 0.6399744782267963 
7.947918431750043 3.8387122738381354 12.689391664537204 3.4819497538073443 17.110979883586204 0.7845048024193546 
7.298951431647868 10.73179789677687 23.292471100889934 3.48214198973279 5.420782802736483 0.7442716402831335 
5.19005027641585 4.442358182181646 7.234808369488036 3.482275899588769 14.205616160481888 0.6560682373589329 
10.732431060939444 7.261898231283629 10.905379633649076 3.4824513868973805 0.011898254432409772 0.7186062321680738 
3.979179379567798 8.446678647511165 37.91041235446414 3.4828590721494392 9.720153750874879 0.6844949169154515 
8.575838192814208 4.028926255555383 30.391534240814153 3.4832690077964563 17.77465823570302 0.6913802392270411 
3.819501971445721 6.6459200515128245 23.57155963438126 3.4832785286392274 11.550191912421823 0.6885366092316019 
6.10141623547292 3.961433921373768 21.549087482726954 3.48337645361886 15.244538493034849 0.7516783598811794 
3.7717908997987664 7.05930273138191 33.69566219571879 3.4834327886412675 11.134319505879912 0.7875465696707985 
5.977414799200819 4.006960880907746 9.708138092764251 3.4837875683307318 15.114227720765019 0.8313694907274313 
5.805779020788732 4.079628831692796 34.785303845548086 3.4838237012839133 14.927976005487785 0.6974002176125835 
8.677321328701272 10.42803128804095 35.38664874027465 3.483838263055963 4.001792429057225 0.7017876774922455 
4.482830876042314 5.133357931857772 11.758062055867214 3.4838769503549 13.219813587879031 0.6527608734659032 
6.814025587443981 3.7934278908130405 36.663795800758535 3.48395815623735 15.980645665015537 0.706903411205694 
9.840538611501009 9.579671050235326 13.360852837930217 3.4840002152672374 2.5517798596626697 0.6861674607236485 
8.36457591130652 10.550920828398691 30.506267764411774 3.484014606373093 4.338156948902018 0.7244433166513476 
5.5007501042705265 10.263123101976191 23.98756631339127 3.4840760648086024 7.305365150726971 0.7029321947034638 
6.793502908637848 10.704081075839333 22.429161577598492 3.484116196812832 5.930650312840783 0.7696363839905812 
6.4744265805980135 3.853283984274359 0.9389696015491396 3.4841345870057845 15.63647170661842 0.7153862471389607 
4.3389168168177825 9.164409654726065 6.155403657341296 3.4841598162992873 8.919009279976628 0.7313281658220347 
10.146718646339071 5.313734649665513 7.128208147111344 3.4842649759962847 19.839265871975293 0.7444849987618151 
3.7704158148633233 7.434484501789978 5.881435868687532 3.48447135629696 10.762218814343552 0.7828449114827518 
7.376499923939658 3.767703498463872 14.84352595617269 3.484593398858394 16.54728725964704 0.5928590979011706 
6.193521196491261 3.9292999676943747 22.578820625879068 3.484708907041998 15.34793209013419 0.7416642614465785 
3.796100380311266 7.712374947918082 25.873538435643724 3.4847113474932523 10.483801013964555 0.7859749768408172 
5.215195412813735 10.079174891857168 8.878492190286629 3.48491897707096 7.646981248821412 0.8046481309945775 
9.56535530925937 4.6453222303018435 23.592254872063727 3.4849987793506196 18.955081926978767 0.6220725738196149 
3.883103027885948 8.149917459922461 12.131592790889002 3.4850891890314757 10.038499920605151 0.702135943270638 
8.503528083079548 10.501851792308022 29.493488463809797 3.4850929304978364 4.192108074869292 0.7345651567280991 
4.9357281656340675 9.85581321181293 30.721932081477803 3.485127919918905 8.00536791057624 0.7892568778596359 
4.563094491819619 9.469665381582821 27.612856014385542 3.485165077308001 8.542612280921592 0.5990015522755494 
8.262144325865465 10.58498162657147 5.315307516225353 3.4851884577381105 4.447580831541739 0.8059743924829924 
7.632037229796865 3.7857959286481577 18.95771739391671 3.485206205222517 16.806453795927766 0.7542878031551211 
4.6400586958169345 4.940158805142842 39.39985410249527 3.485277601101518 13.474318985165553 0.577409443931694 
9.317641716320466 4.444272956994963 16.90032200584345 3.4852900176195427 18.6375070645907 0.7332982719689363 
4.990007705238707 4.596572673740697 0.2881389917451216 3.4854327920819252 13.965759395836852 0.767286131501905 
6.032682493844632 3.9840506728154654 37.29272410142798 3.485439271961202 15.181213706225272 0.772868415011879 
10.732073307104592 7.407470950768445 9.869170514509886 3.485632168830531 0.15752456575028617 0.8058952611846273 
6.522568144094235 10.658932728440691 10.0603935951358 3.4856820641046116 6.208114884418212 0.8000468813488874 
3.8149406247466935 7.842074561929854 26.918636060938667 3.4857115770528195 10.355726659893449 0.7038181985550289 
6.7820041669103315 3.795808427459903 13.98349899131297 3.485750926213219 15.956800902056095 0.7435095839417025 
3.7645123617518426 7.304422467306301 14.63119877401023 3.485912489051958 10.896892388308554 0.811215342090114 
10.168408391706217 9.156920735790445 15.100129961874075 3.4861804648309365 2.0176949843676617 0.745889380906336 
10.736190205734916 7.236276289928366 12.916102879724654 3.4862172179570527 21.890825055987406 0.8885574298200869 
3.8312643005248646 6.5672654891999525 15.958651610412183 3.486241557193524 11.639526504137148 0.7343047044175322 
10.633023303061885 6.407403244181168 31.04628338636111 3.4863757631638306 21.054522045211097 0.7026328474582846 
9.735584486529488 9.694726108184053 24.298821495438062 3.4863757662812 2.709301556671054 0.6440326935408672 
