461

7.556258625930358 7.586668244639153 6.557174881683807 0.455126194483638 0.3789661325974212 0.0 
6.747167829262843 7.144860930055582 13.931582790122938 0.513706546538995 1.7197439992955168 0.0 
7.76537859907783 7.296207616178602 15.675609958555249 0.5174458852675681 0.04626925050335551 0.0 
7.309859870279194 6.703472922085725 12.9910520132714 0.5497954628435542 2.6508288505258264 0.0 
7.14297345358 7.820504283071076 28.67863236523199 0.5804565605116676 1.0194214838410307 0.0 
7.392132664946587 7.818485746848822 33.36897366773407 0.5859844185770484 0.7768975997963175 0.0 
7.862707937280065 7.2787955098249935 4.345337055047644 0.6133842171038255 0.028806097215454685 0.0 
7.4771596039350205 7.897920625420777 2.2514153344749666 0.6865876655646881 0.8469669681722589 0.0 
7.439293803616459 7.922444706227974 37.9841184585175 0.6985800076022866 0.9056365817417351 0.0 
6.526158626454544 7.353815912317353 23.78745161162105 0.7312483009938946 2.1931164291511998 0.0 
7.519767683562309 7.935282548613584 11.177576279861974 0.7364691266637755 0.8806463629812598 0.0 
7.989626997493936 7.25618779718684 19.805887962762974 0.7396528809218017 0.006187869366485188 0.0 
7.986313742715193 7.1430988746796285 37.20719387040503 0.7440334524105863 4.5676276725711915 0.0 
8.002501124689484 7.211502027615319 39.80536275527078 0.7534852596678152 4.695772770706885 0.0 
7.0817521536040715 7.986923736594912 21.82232460992506 0.7558861894318971 1.3570122775909326 0.0 
7.3311805248800646 8.00249197332724 35.41729318978733 0.7568582744092343 1.1075332016979544 0.0 
7.316533739221347 8.03887106539691 0.09271136988807172 0.791671836227128 1.1769429010926693 0.0 
6.904523028456108 7.965815557799955 18.083897358564556 0.7948246666124548 1.605907408263846 0.0 
6.568617810207787 6.827175864963504 18.348382854522768 0.801911427612422 2.9646485308847694 0.0 
7.223095913030338 8.054314519741714 4.335716240476778 0.804764360892686 1.2910300029980597 0.0 
7.538584892061209 8.017726598691924 31.1642647486047 0.820173987800791 0.9934282668514918 0.0 
7.091900619704367 8.055679360359315 15.755007035174572 0.8210448500288301 1.4487873107082336 0.0 
6.390570349098631 7.218945016711313 21.79415081041016 0.8599905446198299 2.7328017136331457 0.0 
8.09089881607418 6.916666951903467 35.096565958685304 0.9045561009845011 5.342114257452419 0.0 
8.152061084140783 6.9999387933765025 25.040001698544827 0.9360794873189162 5.62842575518679 0.0 
6.812095631882659 8.084769895529226 26.054474343500267 0.9426563605567657 1.9361358034826637 0.0 
8.093435432582986 6.815523813735746 27.06639076354876 0.9487638722923517 5.5099553238522905 0.0 
8.18502877195549 7.010111936672837 32.85494214034841 0.9653108759935582 5.822798689487353 0.0 
6.850454470636059 8.129908989043246 9.253967704637986 0.9663728364527944 1.9298800482164964 0.0 
8.056945133576129 6.7110374991194295 6.52079660733353 0.9703818969651259 5.525670911854672 0.0 
6.508582090641333 7.956610733787667 8.26501793348995 1.0242066419535263 2.4378448059209497 0.0 
6.49160303884546 7.941410847440876 11.366108808531123 1.0262625934171776 2.4654574362058987 0.0 
8.134826830247075 6.7147018657337725 20.64792838607839 1.0341482543977882 5.935096511418532 0.0 
6.499082733039241 7.9704195544396 30.627472208307978 1.0406157197730406 2.4734597085340813 0.0 
8.101845069891016 6.636223275497112 8.53119060323263 1.0499342315779234 5.941384382841401 0.0 
7.811159833011686 6.206373115948933 32.205647332640275 1.1849292937976674 6.168435038398801 0.0 
6.410061580513727 8.122766964695161 32.90112592248981 1.2112880430320052 2.8308155049583377 0.0 
8.37351017498365 7.73323017763285 1.8369962135695168 1.2230235148462443 0.4967784520893659 0.0 
6.111529125595675 6.800016863820403 1.1911644428936796 1.2241734986156865 4.3066416640075005 0.0 
7.648872123045038 6.065720369492578 25.177543915631887 1.249646835620871 6.2947977653464875 0.0 
6.622555309845785 8.331201892322175 24.002848471790834 1.2500737462901044 2.620930429139074 0.0 
6.037538651338748 6.74948685277573 3.295788036644847 1.3117072587059235 4.6343811051414505 0.0 
8.037336832320715 6.198927446479379 39.09298795012542 1.3132603703352883 7.032904135688348 0.0 
5.950401539266856 7.513875750854464 25.973809973785492 1.3261171030602688 3.9004708805354937 0.0 
5.937490210849349 7.050345722889757 36.70855620827656 1.3276082919990757 4.3712190640331325 0.0 
8.10419766747889 6.2272130756469615 22.891228078662927 1.332571479416366 7.206824159963922 0.0 
6.149667231119427 8.006075877629318 13.972697162273242 1.335059150376991 3.3904547936174403 0.0 
5.940908674990396 6.98677509630121 38.971009915538914 1.3352930192068846 4.459906975589188 0.0 
7.926724424057209 6.091071629945475 3.3001326342435107 1.3420398328785916 7.033500517121874 0.0 
7.84130381819303 6.033325227392618 37.0145750689544 1.3527519017576264 6.986657731281561 0.0 
6.112480729844577 7.9996580350192374 28.32458126146365 1.3623278825025316 3.486055933253345 0.0 
8.37994736387557 6.477496999979774 17.48739595592793 1.368773878392481 7.779437630342688 0.0 
8.134288356223514 6.204201849034558 15.077020305789105 1.3695472498293833 7.4151418191214375 0.0 
8.212184423839677 6.251073960656104 29.95723247656484 1.38695785716761 7.599217311059482 0.0 
6.887654003017955 5.901317217824314 31.688040519587616 1.396509888424017 6.214357808584467 0.0 
6.181449314365404 8.1807334965957 20.04160561254912 1.4170622461470854 3.436402702736487 0.0 
8.262789406489993 6.224933036314432 12.891288209413979 1.4410082102257067 7.913674815795318 0.0 
5.817430337570794 7.467953777535218 7.643208462967372 1.4490547563340739 4.333555706906289 0.0 
5.807442122195219 7.043166791349183 5.407872003462074 1.4573102645001246 4.785809193810371 0.0 
8.027067136014317 6.003484975068348 28.911409423676606 1.4688883692281909 7.740793373080049 0.0 
6.062826825341089 8.140805015339826 34.932635706466954 1.4842215878986202 3.7073812918544995 0.0 
7.410010523287962 8.726858555897483 18.547851539527112 1.485501451258291 2.1730986531450434 0.0 
8.156447315991826 6.071317477099859 10.597610049533934 1.4869227372190625 7.9817435265846335 0.0 
5.689056159696175 7.182876386919816 34.59696616136338 1.562386396515084 4.975525904553365 0.0 
8.088442848334871 5.78231859432344 1.2609830792892183 1.6902884719753044 8.842601819860516 0.0 
5.572093444587701 7.657971328637824 30.323808414367306 1.7267921165230296 5.013012071487029 0.0 
5.576428152393593 7.773295462702869 32.46338442955097 1.753476794938027 4.9773178185936295 0.0 
7.8304123395916 5.569728978408111 17.164610561292463 1.7776920964980554 8.968429582680297 0.0 
5.470065927144521 7.250482872705305 16.64428972143061 1.7799341383539855 5.591345140215331 0.0 
8.751742338866343 8.213208386468793 13.940346854825144 1.7840965355348803 1.017472810122591 0.0 
7.4059008166513856 5.468610089454854 10.074200159411497 1.7881988362664298 8.582787483824092 0.0 
5.584121873724117 6.558957030366152 22.15867947997303 1.8035216431983336 6.375108134477273 0.0 
6.034937219461696 5.896581521702917 29.43353500219645 1.818823558799883 7.2403829019553285 0.0 
6.119436924354657 5.791123152780806 27.20262997026913 1.8456691261883509 7.480695161522341 0.0 
5.400907668365042 7.459029844805011 11.886782278725754 1.8608696695175655 5.636622539512292 0.0 
7.255776844501103 5.344510222795089 23.29664835256937 1.905498533970786 8.98522714697344 0.0 
7.560231902778636 5.3318426855456735 36.2271934208638 1.9430829412292931 9.468127926086229 0.0 
7.7670262970286785 5.3420691555282325 19.227260379633982 1.976743862797084 9.838296550578228 0.0 
7.405514022769676 5.26307236524714 5.145275514204634 1.9930042742108198 9.547483648723286 0.0 
5.229451607353347 7.430822893261697 28.048744240259268 2.0286233572929455 6.192045037536392 0.0 
7.78956078509211 5.236323737260676 38.87324367856865 2.084710515138499 10.36974072513793 0.0 
6.022756705647367 8.94869733376903 6.234758811775599 2.095638025825908 4.602940152333337 0.0 
5.151300924362108 7.33739529394564 15.628100771476724 2.1005179712364233 6.511551298496514 0.0 
7.628890368443024 5.176323341565988 34.21823961579742 2.108006829930335 10.314708837126716 0.0 
8.364992677045205 9.048572575318936 24.940200859879127 2.116145547582638 2.149685875573226 0.0 
7.756158326120456 5.1892970273729375 28.31921403817897 2.12195499304181 10.510562819203003 0.0 
7.579055673108201 9.355802409170447 12.69867559448413 2.1313567093456576 3.017550185898923 0.0 
5.026876860641197 7.307184033062114 9.708902253098572 2.223858472652832 6.929267103655992 0.0 
8.827584689943272 8.832677531838339 27.829465298205783 2.2346457490459883 1.7586878517428666 0.0 
7.29283480272516 5.007103841493528 7.573001660696306 2.2433051504794417 10.614163876841065 0.0 
8.671840530558999 8.990563063300957 5.428950317307255 2.247485321791427 1.9909211287689388 0.0 
7.556570166552024 5.011538762317221 25.64106794086426 2.259356983663285 10.95448773786456 0.31156975180951046 
9.113730235483096 8.531352223040905 9.873020690719649 2.261714816272324 1.3622332693712806 0.4464817068393888 
4.983703567265772 7.32740899196417 36.50392850366342 2.26761806154846 7.046508209156098 0.3577593285516077 
7.10405894152975 4.9811865240308535 2.8129558253426907 2.273502448049402 10.567586409984422 0.30052074252199 
7.167188990974381 4.977634820055856 21.272093475772408 2.273873605598697 10.632547596404304 0.47294846562151427 
4.951859142705754 7.288792584626631 38.61540212733945 2.2984682431104306 7.182056520506684 0.4930349437512251 
4.9503901627573885 7.2716308061184876 26.008092808504784 2.299711567852875 7.203125841862693 0.49715975220054726 
8.2974988711469 9.300382690170245 7.947890329031594 2.30246021924458 2.529213171906296 0.5094341167412295 
7.855762583864433 9.479969077443517 29.774872026313034 2.3107813385009828 3.0168424259023148 0.605760275910573 
6.553488422181712 5.040992147204326 33.67862785565102 2.316213304457919 10.207437530503805 0.34412824815142234 
8.530736626215873 9.18442543465574 16.61708172411346 2.319975876593087 2.287446623466998 0.5331165885127251 
8.087654910953965 9.415688690220009 27.205386767545875 2.3220407517509565 2.790475877241885 0.5666990000278126 
4.933458305283988 6.95902595877347 3.204805034964906 2.334744379161332 7.626548383743202 0.6313994160165061 
9.241888103088225 8.473427936098538 23.230329173856518 2.3376043570396443 1.2875502401240855 0.4629365884258919 
6.827210211927117 4.946700967543098 12.0664279397295 2.3417808688721538 10.610261380015512 0.4265701367618287 
9.409444163661227 8.191768131479819 5.499175644459086 2.3558706054114094 0.9688475257305829 0.4089656070989018 
6.213674419456034 5.133481156925821 35.80235790123231 2.3566125523678774 10.032255697957932 0.49206335722388744 
9.078714758935696 8.738287653799624 25.584200219996305 2.357795116205312 1.6106694849254062 0.5937686653529926 
6.875370959612134 4.92058056767457 18.910983090972252 2.3593519893388675 10.741962913771733 0.18426771783910995 
8.87265282240266 8.966805540336285 29.86114341800009 2.362291989865075 1.9219246319497323 0.685280224750414 
9.582580691809902 7.679428575107131 9.561654101553415 2.371780256457775 0.43181011851219253 0.24205047605848595 
6.856074797101229 4.905047023518048 14.132179099780373 2.3778102378849337 10.809417013711254 0.518430551849756 
9.307679341170392 8.449683311175683 11.944526553447986 2.3818657221163577 1.2572585595457966 0.5863829765465878 
8.731087995969602 9.12090380931675 36.58703384991743 2.386189999878716 2.1503673753085337 0.7281329674555835 
9.066703030713306 8.800492165127007 39.1394512281627 2.388396084388671 1.6874069625984767 0.6184912926284113 
5.335132845574986 8.685233493936838 2.0696495099329866 2.393033932315604 5.978751330245776 0.11911348492625458 
9.348385226763043 8.400846913406362 3.4677227892893256 2.3932549337657987 1.2005711837385 0.4456696163054175 
4.867626669737891 6.991332269235736 32.1048443954501 2.3963746951766325 7.787605823745924 0.634753482373799 
8.4098234820929 9.350175993807317 34.34691978766017 2.3991518740126994 2.558040120203664 0.5153546516000184 
8.675535605035847 9.180490470504555 3.2235228299694114 2.399780243675201 2.2431707075267973 0.7638753190021409 
9.150706566984773 8.715980206080399 32.31640268008394 2.4003715167445585 1.5770029375209944 0.5637941547701855 
6.47870765999977 4.975379799910563 6.90060908763563 2.401830328811329 10.533154382647865 0.26748139579089714 
9.653276478288667 7.3281039429550106 3.341394216544188 2.404545291110297 0.07811768362719107 0.5854428784781082 
9.390021311991525 8.349559205155863 36.38206564905258 2.4059762387481967 1.1419546877682905 0.4237904304710656 
9.172494607174563 8.705088422801058 34.415566581759634 2.411071926091163 1.5621014656520096 0.5177086784622378 
9.358652416419115 8.421312910374045 1.295445105621937 2.412133691833659 1.2230489503950182 0.6069569195457355 
4.9292875896954556 6.5695281187138015 20.227278782658097 2.4184185064960757 8.287472271380889 0.7965391081317976 
9.244061731473975 8.632847463571489 15.938952123516259 2.426633325501629 1.471361411810129 0.6629328013696715 
7.2762358681310975 4.815306316847279 16.633490612252707 2.434835035800238 11.500126167604165 0.7781606348751609 
6.721643392934158 9.627141046200805 36.507136337173634 2.435150972273133 4.357718686117069 0.843279396986519 
9.135170724318417 8.798132278066925 7.6419825486453945 2.4393815220706885 1.677182833490411 0.6376284401751523 
9.482565127427023 8.241821488457926 30.361524528432902 2.442960685964908 1.0213129491793502 0.456970208016949 
8.44347930382104 9.389227502711927 10.16096598487698 2.449630004104345 2.601278196250604 0.6156786844288241 
8.61576992986529 9.284418588642549 22.82560334831126 2.4503441585088734 2.4002859632905214 0.6406973011252163 
9.46607348377892 8.306834319844619 18.928462528201038 2.4551742229645304 1.092536163449111 0.44654161275838206 
9.703392956357803 7.4029266330379375 12.068794711385834 2.4581545015312627 0.15302545130932543 0.6875556059870076 
5.289899223332256 8.733986058759262 0.03253381632801933 2.4584974430097204 6.1304232562774175 0.2611314313374474 
6.514065281729252 9.596101346135576 16.933082494683504 2.4588191141064866 4.609694727754956 0.9629391720064616 
8.501640172983798 9.36930023809403 12.302226761215984 2.461307908777837 2.5531731527784878 0.5576458660602078 
9.569351769055778 8.082482241124673 21.227427314735692 2.4642279339399837 0.8491901773742008 0.39693818154446464 
9.655018280944816 7.8029242553531155 26.211054726101523 2.467759745971343 0.5576583694795545 0.6314885092402114 
7.651670654108461 9.689118774008907 22.923022597065312 2.4719708145717756 3.479503131594484 0.627245561935188 
4.830105761476428 6.728055288401313 0.7624986558739764 2.4755432550463357 8.303039746331086 0.20819177480997034 
8.300250352392178 9.49775430399357 20.416243017856445 2.4810129410830393 2.812711843296496 0.7930407824894966 
7.781701689417787 9.675529528145717 3.1259586198340266 2.48312306953089 3.364629624216395 0.6289177791506826 
8.022210316943083 9.611360214543264 5.89111277798952 2.48441760507793 3.1172960180496894 0.7044032651724194 
8.185107499597208 9.552507315328034 38.96594306937912 2.485149084651072 2.944952150615155 0.5316508586023756 
9.693060290112667 7.724482054939486 14.10930259468445 2.4887098668958987 0.4774045979305761 0.5960405481997942 
9.674751915051175 7.818968599184625 7.519747867872397 2.4906117956041327 0.574037381093774 0.665730717167806 
6.325270011310899 4.93243878473506 23.316011652617085 2.495238573459711 10.811210955011859 0.14235395403073894 
7.907948719150461 9.666104955639385 18.462087324266705 2.504088591423421 3.267648590261288 0.4742315560369949 
9.595002736487583 8.12876036995138 38.602598910382156 2.5042479154291706 0.8978742462442462 0.2978331590201304 
4.75819935476083 6.9422307484290275 5.239773642802689 2.5107354237009716 8.196253238599837 0.4692851791009077 
5.3712138785873655 5.583006460900474 8.57782835389979 2.511713508625595 9.71362703468694 0.7548820175724746 
4.807496293618456 6.661035603792055 34.11460179104492 2.512509386189069 8.487777203971227 0.6232882308669307 
7.824463603415921 9.698007687878016 1.1079735348303572 2.5145079183727934 3.3701978050777868 0.52438658339258 
5.542477822455345 5.4009236704268755 6.575603182365555 2.5168860243154563 9.98390860872459 0.6244852873530987 
9.699961212585094 7.826922886636284 34.04738677509384 2.5169723797245314 0.5820979854189705 0.5427217638542549 
7.301234500750553 9.76989561385247 7.758218831990192 2.5204164097982056 3.90782280858512 0.7173434344899987 
7.2530886240468675 9.770966209194059 10.427223866021272 2.520968101245384 3.9568388085837913 0.736265584950753 
9.651657723394727 8.022079719118894 17.93541177847097 2.5227102316786714 0.7846711771395398 0.35147104766069837 
4.8365604924282355 6.503511449645168 13.71388732851177 2.5262492775890304 8.69424856371312 0.8569876737492323 
9.762349711652305 7.524102394370782 23.97461845216519 2.527258039108632 0.2746426472112802 0.4707652560588523 
9.774766962322746 7.0465037742933125 28.16801012493551 2.532954584652734 15.711307257365267 0.0 
6.117960880225462 4.978954789611465 20.89338009278148 2.5375497859802887 10.784508482502517 0.2430542078620629 
7.610179761791628 9.763113879042205 14.817647662696672 2.5387931837467246 3.626527932799309 0.6102835978127337 
9.787333363417847 7.388649285569411 36.18257743004402 2.5411186948866136 0.13871817208359616 0.684938984789605 
4.7093025187466075 7.069605732333221 7.388089338722107 2.5470935952678238 8.182475944948727 0.4736513984845529 
6.7589602270356846 9.75632399330802 1.0310292324116617 2.5539733784956185 4.505888518200457 0.0 
7.409143274643241 9.79977352899482 20.777075301607077 2.5547351391145945 3.8537221924335725 0.0 
7.394359334794103 9.80070824895449 25.205781335320808 2.5547900478956524 3.868618557830832 0.0 
7.768859877547063 9.753511661241417 36.55857575490849 2.556713947726635 3.493587814710736 0.0 
4.882662166446412 6.284309195403045 17.375286635465173 2.5567258649016935 9.022456028697903 0.0 
7.476588643077296 9.797329926264903 32.116477165968064 2.557387762232459 3.790249145161308 0.0 
9.813871227713244 7.251869893461647 5.4752533629959 2.563871909592481 0.0018698936274148537 0.0 
6.8987125294283285 4.703668005202772 9.538502420845113 2.5704492826563747 11.760566610024593 0.0 
4.772339513957548 7.943618264580891 18.62903906718519 2.5729181450361622 7.380753676916353 0.0 
6.3985840483546 4.80842365875999 0.363015619285445 2.585769547507897 11.317548147384777 0.0 
5.600025261058967 5.257611846384014 25.210360801044303 2.5868952807975916 10.401191767840125 0.0 
5.315315273279783 5.5294049779492696 10.59705319824409 2.589102590031965 10.015911423719611 0.0 
6.939915590631681 9.831370384081406 29.47027868444121 2.5999279606838908 4.394781578772356 0.0 
6.400417549715971 4.7877501587869205 4.87342535352807 2.6047004857342895 11.408944623849969 0.0 
7.514466879806104 9.841369745388267 34.36773456787004 2.604830107286851 3.8267342000639175 0.0 
9.861935636158105 7.175785581151624 38.22761984112336 2.6129897717743997 16.343674541472993 0.0 
5.186669478384019 8.87580368013458 4.124184332127392 2.6268936879461284 6.499570340619432 0.0 
7.217053124372907 9.883515276636809 38.75206715957761 2.633721361285782 4.169987575110412 0.0 
9.836414433915944 6.71856661893125 16.08516557922846 2.640447133059645 16.05533032562745 0.0 
9.895659052682241 7.1116265828277445 21.836723305947316 2.6492751887298196 16.50745053120075 0.0 
5.332322044559167 5.415317263967665 37.71257219724879 2.6539686288045736 10.363419167704254 0.0 
5.957076614724459 4.932139170901175 11.498017080157439 2.654077938430417 11.156603017172422 0.0 
5.030518319769168 5.793510507033622 29.208754833974247 2.654705364442867 9.881701954759528 0.0 
7.1444299340259745 9.908671711513099 27.341801583864935 2.6607668647271137 4.285120601763612 0.0 
6.162949516805701 4.814157552395255 37.7808242799602 2.667397080032524 11.450172278900013 0.0 
4.98443030021636 5.834753469928229 19.482692031028456 2.671278496424124 9.883620357108562 0.0 
5.125661549446824 5.613113324328694 13.32864393162459 2.6818299426863232 10.185885043705198 0.0 
5.429918867509045 5.27995424845335 17.497766633642854 2.682121472274618 10.638735035889422 0.0 
5.596166736777602 5.133942831090483 33.05356476345787 2.6856772711244012 10.87428384067678 0.0 
5.093400703583473 5.633441732234102 27.17249586208768 2.695214492092706 10.200926598659066 0.0 
9.815808729765582 6.38192541720554 19.484158716057074 2.708676414604567 16.135449775825 0.0 
9.894044549756085 6.654546148376257 31.70944824054193 2.710265092294186 16.428746435112586 0.0 
4.915878831001294 5.869275578685013 24.492983986754936 2.7119221152502693 9.968396068159198 0.0 
9.923254302869557 6.780426250422016 0.2647339379499094 2.7141827635778935 16.581764872922314 0.0 
5.316566789089078 5.345024363491623 15.369124779401368 2.714239517202528 10.638670930985356 0.0 
4.58118318478024 7.802565891645225 23.4241974159184 2.72541964801926 8.005735070085635 0.0 
6.79324647379871 9.940407214218494 3.5757986713867354 2.728903582396457 4.745465234823385 0.0 
6.476618551406386 9.869878908751929 14.682351949775423 2.731644991859655 5.074962788299022 0.0 
4.891936126605174 5.826937541481936 22.240687856833986 2.7541917129810134 10.148019506101242 0.0 
5.161440597943621 5.44783668343613 35.687867561297125 2.758599825180627 10.630301226663217 0.0 
9.977376979567445 6.83419042816598 25.95343851722405 2.7588915869789528 16.91722698818704 0.0 
6.6072380834831606 9.934182490811377 12.62059958393931 2.7600685725725684 4.984223807108005 0.0 
9.971175801688371 6.749722215595078 9.491062969912292 2.7667807295236546 16.88115129401931 0.0 
9.942171279495302 6.590893779613371 13.96685771106943 2.7716794922739023 16.749494066525166 0.0 
9.969063871305138 6.690011477926289 33.795609507820934 2.7761295865090974 16.87907926281418 0.0 
6.579654253009394 9.949461606004329 31.52352140899435 2.7814486122881803 5.046100115202819 0.0 
6.4165129347029755 9.904116353897109 33.8757071573378 2.7819119878316663 5.216306358022198 0.0 
9.821585540428071 6.177199965729942 38.002243297377106 2.7863869266971086 16.406138990187692 0.0 
4.898996811976048 5.7455237253892335 31.238536368495815 2.79117624863882 10.357652634905907 0.0 
6.605386885988455 9.97308272285499 22.852582802071375 2.798339790351953 5.0460764937452325 0.0 
5.529387734099689 9.465021677521914 16.7976936435711 2.804786551853563 6.25811074286073 0.0 
9.849001875838354 6.185409137797919 5.435788484541227 2.8085876262804153 16.55498800458292 0.0 
9.97742997200221 6.563815174452584 11.58374863922981 2.812423130858426 16.977793903861897 0.0 
6.376399738356657 9.944081460801126 25.4455693553113 2.8321815504263927 5.336862717228861 0.0 
5.461582366616096 5.052971817083648 39.688492879389635 2.8329084820952506 11.414240163273774 0.0 
5.349103936837064 9.361593298068533 25.432790590459987 2.841167383206467 6.545289126903089 0.0 
9.976796677006279 6.445904367650499 28.998531721166707 2.8428840820012358 17.04714498856839 0.0 
9.961710036598143 6.373422134165569 35.81568171976757 2.849870186071282 17.01523875187114 0.0 
5.347053647846053 5.116807306524921 4.379856949296553 2.858621326211548 11.3886765927288 0.0 
5.969326680936678 9.811350477883572 38.470501321485536 2.8636760327793818 5.825986621780007 0.0 
9.953998419145934 6.298633437026528 23.87930890863801 2.866479685587821 17.040863257102227 0.0 
9.841950357281235 6.006501586602827 21.683519416410583 2.8748034643661464 16.776965867013566 0.0 
6.13167237078231 9.898962900445877 27.46907957594653 2.8753540884924593 5.665230492026055 0.0 
6.367914078229006 9.987678761220558 8.162197720250632 2.876275468905006 5.4145758240268265 0.0 
9.991573740594 6.362565037330299 2.600643351532973 2.8816258237465746 17.203691658519357 0.0 
5.724883950629399 9.748683154679558 36.08283177207277 2.927353151146473 6.202488863306872 0.0 
9.716573439063538 5.664801845169352 7.483793650642582 2.9320364459488255 16.747729748148743 0.0 
9.529887004364578 5.402288468814003 24.31751478414853 2.9346077514973246 16.439998000041562 0.0 
9.758007013659423 5.723807005489455 26.490744727836656 2.9358753783255054 16.841703883741687 0.0 
5.216377445073517 5.123038975814408 2.049361026191633 2.942717093828481 11.622028803625259 0.0 
8.35489056418503 4.501198379150043 31.255523713972977 2.9625484822383017 15.092935255599144 0.0 
9.88448924372068 5.85803698113847 31.09224156772771 2.979613166362049 17.27313537708399 0.0 
9.753568529335435 5.620468572291383 33.495363709921556 2.9871772721030236 17.045398847027588 0.0 
5.508571931403088 9.69091394332063 31.638327050874253 2.998438359678957 6.5680217084332995 0.0 
5.77845016307149 9.897240969864805 29.46791348833284 3.0287528250246964 6.29418197305549 0.0 
5.829493264006972 9.927261568077785 18.95573837155535 3.0307703461179454 6.239171557054185 0.0 
9.791227494037411 5.5909559179829795 14.049486882516646 3.0348417491736477 17.31318996206023 0.0 
9.868838800770789 5.705175879331261 0.03848038425894629 3.040525978876441 17.483734529752905 0.0 
9.887379267443968 5.731437231812825 18.71545212058775 3.043320929719304 17.53184593814411 0.0 
5.793865901946621 9.923897502374091 3.9285438949385423 3.0446763973723243 6.300847840734782 0.0 
5.756584421810572 9.90769788758865 6.1124158523761025 3.048548531821666 6.349351196521898 0.0 
9.813588012595233 5.566809239166936 9.530027162986556 3.066775935029453 17.48737284344019 0.0 
5.126087707429502 9.497848388229983 37.98065656056593 3.0925435814229347 7.198986360190563 0.0 
5.264082150096687 9.62515945881011 9.971615176182148 3.0960058400041373 7.019192683460986 0.0 
9.722889655365414 5.386276229833928 2.4393834448161513 3.0965544624784673 17.45634404195809 0.0 
9.824885737735528 5.521106286875128 16.09325463016804 3.101469012206401 17.653195756676112 0.0 
5.334463639477152 9.699111044051028 11.090552377891512 3.1092482137291357 6.947767112165604 0.0 
6.439422796196187 4.2477970681212245 30.5829965344875 3.109703819901169 13.834085293958953 0.0 
9.763834964629734 5.3644430898214175 4.444058666137138 3.1424021211355466 17.722011038178664 0.0 
5.426040769598217 9.811246985709571 33.68754371442227 3.144330357321609 6.884893966137863 0.0 
9.817829085176477 5.423526434411805 35.497612363367274 3.1511508844342444 17.851022890225355 0.0 
9.792303650848517 5.361784168825958 11.71002152887754 3.166807047834455 17.87460124656026 0.0 
5.376949487070188 9.805951047264044 14.555746361643074 3.168785884214456 6.981503519665953 0.0 
5.217330001284585 9.682754650053129 22.866055373490028 3.170180201665648 7.186281717996728 0.0 
5.103248921996212 9.666179179162096 27.471420820976753 3.2320987015756266 7.424828219920034 0.0 
4.849356056086254 9.427113541522829 21.96090282661615 3.24082006876837 7.7941249821599285 0.0 
9.524171592135989 4.9279139827426235 37.792410176722775 3.2502215158386614 17.835144835684144 0.0 
5.0252481130126885 9.652924602722155 20.777595346807445 3.274685878831896 7.589778588070946 0.0 
5.014694334261776 9.655601455279923 2.071322708177739 3.2838254796694457 7.616887190968779 0.0 
9.328072226505416 4.705254651022935 9.216164057434518 3.2854395550235846 17.732102259958047 0.0 
9.469503235626512 4.807133085048347 26.829511296775095 3.300574704066241 17.98785486210811 0.0 
9.306530345623866 4.657783788195957 15.75364120543032 3.3089125028038326 17.812077290857836 0.0 
9.447095891269218 4.760795944962034 32.930116115749804 3.3201456569026506 18.046768976292302 0.0 
9.468895388979409 4.756436128134464 0.07882241271770596 3.3378672128032765 18.156553740710617 0.0 
9.572819290148114 4.836378474725283 18.07769847328985 3.349784817261199 18.35219309440865 0.0 
4.79881616531021 9.535811311178396 29.692318470525606 3.351601936649942 8.013985786310961 0.0 
4.459402779906341 9.142686168375182 16.95472510652621 3.37189765217647 8.583578752204215 0.0 
9.296143798621344 4.561678754333263 11.2769222051476 3.3784279723770556 18.118411385664334 0.0 
4.53616662891678 9.29314549180479 24.836128960244928 3.39695967987363 8.47969988004347 0.0 
4.171034101468585 8.742876761215884 18.917228169923668 3.4217995307290874 9.20507796993321 0.0 
4.5327842676654715 9.331109038784557 7.706313951695172 3.4226124769475508 8.51544091094387 0.0 
9.46470001046852 4.640275259271704 6.660737275077011 3.4227999296977094 18.538189813845655 0.0 
9.277266161783777 4.4889242811972085 4.384434104408584 3.425397380695541 18.311218780563586 0.0 
5.79906174397923 4.138624488143032 28.351438860804848 3.4330568592098496 14.67987314284246 0.0 
9.369573760662183 4.549270023000828 29.365949938818254 3.4331523903767476 18.462813904276608 0.0 
9.344818428946676 4.5119260259518725 35.16592071064341 3.447508279557037 18.497486290003813 0.0 
9.300993178618485 4.473069419025467 2.2675176204603105 3.4522335480513355 18.46441941165299 0.0 
4.541222982005902 9.393816259469444 39.938620770132914 3.454478410350622 8.53980639942231 0.0 
8.461635389126448 4.002949540780477 10.977188776200855 3.4657462401193353 17.569726524994486 0.0 
8.583710566003917 4.0499654060914185 0.2875376556461049 3.4668437051707626 17.70613009057508 0.0 
9.311063535273963 4.455589718916391 24.836103033092222 3.4722775976960376 18.56934153508617 0.0 
9.160929177535337 4.34315785729865 22.6444973223347 3.4787040063995764 18.416056560625787 0.0 
4.437297300984419 9.303904416348693 33.70528138897165 3.4827890870028604 8.744825267620161 0.0 
4.421202219415594 9.285758638887089 35.73059572630377 3.4851700273075155 8.774949979016029 0.0 
9.285879580995498 4.401301060290011 20.344039721126123 3.501412760218254 18.672659104015352 0.0 
4.063812937051967 8.710718758396766 8.442696770946519 3.5050659467732697 9.504796107950131 0.0 
4.334534887873815 9.211889269020112 31.683508504946147 3.5141067604615026 8.9584065371142 0.0 
4.321212185401402 9.23490867049184 14.730045566431443 3.538030595279656 9.007734796325899 0.0 
4.048513791749031 8.76559263096258 5.808324778323161 3.5421088301531958 9.561739557267423 0.0 
4.035195766647584 8.775241566593131 12.707584539480635 3.5582760004311185 9.60235943755466 0.0 
4.141253445878341 8.991348383639764 37.80410732829224 3.563228778926228 9.374833773883044 0.0 
4.111104945353038 8.945444418326261 27.17677472544881 3.5675192977362906 9.440906828501863 0.0 
3.9990500440340835 8.789636375875602 3.6844598545604157 3.5971038053014457 9.709628520661528 0.0 
8.756189549570522 3.974651268341013 15.222463699658121 3.6050681371113633 18.54234012153087 0.0 
8.902565234296219 4.014718206322748 13.178791587933183 3.6329079451734003 18.835302112059573 0.0 
3.7908494844368867 8.394239110797571 16.75980702788597 3.643488085886842 10.282420006287772 0.0 
8.930607078777989 4.013476934768903 27.184455139984593 3.646850929913584 18.931999574242756 0.0 
8.95127207681476 4.017038168964026 18.149109402701782 3.6532682464178663 18.985295082763894 0.0 
8.77573808818557 3.928183950206483 37.430676055630286 3.6554532663413895 18.79983813819217 0.0 
8.834832126733643 3.896680180069902 6.292135392448166 3.708968412464996 19.115616231361688 0.0 
8.827286542698957 3.8927576851142387 8.895083911630095 3.7093003111959995 19.108828675221226 0.0 
8.527546397251328 3.7474755161363404 4.233982764954966 3.7282438972248375 18.872905080386772 0.0 
3.5088851341050677 7.0930834495859685 29.02647437974667 3.7444042575039758 11.92035542346442 0.0 
8.546944707979293 3.7328661062516844 20.194928847586567 3.748639273404243 18.989367139227433 0.0 
7.983778427348513 3.5719535275251193 12.976656529010555 3.7505275141141112 18.412486693509717 0.0 
3.6734690867414628 8.405904436504525 14.751990368425133 3.758681742290081 10.633300642833035 0.0 
3.703394838104753 8.536725605123525 10.740627483206076 3.7728067744402853 10.539547891250884 0.0 
3.6953411456490866 8.53236469674058 31.210153316338094 3.7788965037775117 10.563406075882504 0.0 
8.621146661603788 3.717883212254149 33.12034278671619 3.7889170180809284 19.257839689799773 0.0 
3.5949659577291317 8.294895136434064 23.088510233810297 3.8014575752338047 10.884110222516805 0.0 
3.4945772590376976 7.9167538533334785 12.67847805106048 3.8141526797274192 11.31231676412948 0.0 
3.627193922886221 8.478808734242506 35.54919491532749 3.8255319600969475 10.767277529956507 0.0 
3.6168913860005425 8.453787478382287 33.42554991132972 3.827346665018342 10.799390003483193 0.0 
3.475724211599566 7.902635899564773 1.766133585776707 3.8302860655969875 11.377362775464466 0.0 
7.640548758117111 3.4272268409805804 32.906422798311226 3.8426713309605507 18.49938630769551 0.0 
3.5453270252782474 8.279813913969985 20.793055338942494 3.84514220114678 11.037330161944967 0.0 
6.266452682450415 3.519918473903841 26.34130012328344 3.857573527125936 17.183859016566117 0.0 
8.336186945105519 3.5353287012160894 22.270949810267652 3.870217686090357 19.338947660133023 0.0 
8.25175869086223 3.5082696644374805 30.999455029693294 3.8735082778776677 19.266753338609007 0.0 
3.492602215820897 8.19821979278595 37.58747408184891 3.8751979154599407 11.216346990296621 0.0 
7.813150480615652 3.4119896657237963 6.091217814831317 3.87910579771016 18.845003043766635 0.0 
7.67329828371215 3.37662705963755 10.958402008341501 3.8964341868079453 18.785648894723387 0.0 
7.575938319951064 3.3622302342712764 4.050691905677297 3.901408660948878 18.711273848526574 0.0 
3.3584174044091437 7.56797018358667 35.208233774977984 3.9045512080078817 11.948186702319138 0.0 
3.423360482441872 8.084437987453175 29.258551211627477 3.91656185349375 11.46335863171651 0.0 
3.317298932821897 7.37734462993474 21.257775349783884 3.9347622975927017 12.234053456593351 0.0 
8.157926665576099 3.4187550409102876 17.970057358311102 3.9373555550158876 19.47052266526958 0.0 
3.396792651011637 8.109045668658574 27.217374539132408 3.947805255472841 11.536422342888358 0.0 
3.3492068076639345 7.916509517939705 8.715220379003867 3.957325165674362 11.762602118106397 0.0 
8.058882439133452 3.374089572569549 39.703311770542676 3.9594156692373907 19.472924140401002 0.0 
3.361240795835492 8.0427776472836 6.261626486669954 3.9687459664239917 11.670036290849222 0.0 
3.358549173336769 8.030046844905911 3.868706113432893 3.968861627291332 11.683388302429996 0.0 
7.951219610368623 3.34221307726496 37.70117527176702 3.9702024602612553 19.41405582187569 0.0 
8.017545435485726 3.3508770854258216 8.541066361046752 3.973950867649526 19.499201820531457 0.0 
7.6863907442151245 3.2773443165886604 34.928437191951936 3.9965522717183415 19.270571485097545 0.0 
7.89587410543149 3.298373093881125 15.267882359497534 4.004061508672109 19.517403603692802 0.0 
7.661750947591456 3.250723945684058 19.9166675951128 4.020416371654477 19.358239970510457 0.0 
3.252375161191935 7.79810693047836 39.62080011882038 4.035024852351421 12.126597760083804 0.0 
3.2287396238536186 7.629224703335273 10.707391320205407 4.039102176026828 12.30942965234778 0.0 
7.617579219658547 3.2197798323069584 24.57877827342641 4.0469481196087145 19.438880241179778 0.0 
3.200531718889259 7.091084755010755 27.03255927751234 4.0525852754521985 12.890528129480277 0.0 
5.996493854331776 3.384799049470246 8.132811292796575 4.063379879509682 17.873935721947337 0.0 
7.632731856544709 3.1973387025265616 2.009782555421989 4.070693708209111 19.565990176408558 0.0 
3.195132275177814 7.635509283945517 25.05045576971822 4.073152301818929 12.410098170004268 0.0 
3.1847233594220032 7.522465144563409 14.644663311221855 4.074397062073244 12.527427249429149 0.0 
3.1851825815424863 6.941442811561977 1.8990398224127958 4.076511766686362 13.115592000074987 0.0 
7.578097070372623 3.18384604483939 28.589246349804917 4.079369519258506 19.55202780172682 0.0 
3.1707902015960983 7.56159017422614 31.21136257645456 4.091092887734117 12.540655151915178 0.0 
6.8735646829741786 3.175507820967283 15.39015864497361 4.091844335370434 18.90539382168158 0.0 
3.156937975425885 7.13328432386376 37.57368074109779 4.094725788873621 12.980691943422627 0.0 
3.156258579414132 7.39370961121984 33.22594329839036 4.096263086152714 12.725050910862688 0.0 
5.7536557287056596 3.4291448888102884 14.924661731012684 4.103410771411989 17.805203180881268 0.0 
3.1365903175205894 7.414217124273893 16.648183017606897 4.1166863470296295 12.768690877430334 0.0 
7.198608836763496 3.1214101156393124 26.559809158425814 4.128909721089116 19.4056361804189 0.0 
3.366075325175732 5.829389482451397 39.09471415093405 4.135577967138149 14.442447149047577 0.0 
7.050599629786953 3.1155019375335193 8.268612514491586 4.139303653536448 19.306531351638018 0.0 
3.244795488259758 6.188804010059023 18.540566784082458 4.143404410618302 14.090042986522732 0.0 
3.118727624377531 6.87009752041439 12.7244196248608 4.148703090795557 13.413970578894908 0.0 
7.160568333152408 3.1004111754003176 17.859329328601987 4.150552425434199 19.46957892375446 0.0 
3.130669985491652 6.705610476720977 39.59923276287471 4.15514617329948 13.599735789054826 0.0 
5.68206500272059 3.390816567521428 19.493375948722317 4.1655392113399525 18.022100380422327 0.0 
6.911031433276511 3.0784404935925345 39.499178100136746 4.185308639123889 19.38346207414612 0.0 
6.904580154390757 3.0716628697809973 37.058784934772945 4.192590612438504 19.411305983212205 0.0 
3.173270538239537 6.256473712920407 37.03532092521025 4.196047853338175 14.18532510571481 0.0 
6.845723415752305 3.069784313439941 6.10251022950446 4.1997193647592415 19.38580768011286 0.0 
5.219134484110777 3.573473101697825 26.24680206653734 4.2001505660592 17.673036615069368 0.0 
3.052833935042174 7.0271419817305905 4.044030614562672 4.20307847572949 13.427323035985108 0.0 
3.2668036731731807 5.907440220581387 4.247211495480066 4.203370045494355 14.571779887302991 0.0 
6.951526459518898 3.056225076638359 12.953400546269577 4.204382780169316 19.513962267540702 0.0 
3.045284271871582 7.019338011479876 19.214823760237387 4.211037794572562 13.460142888896446 0.0 
3.1271188693602543 6.362576036532449 32.99322841803354 4.2173060249787095 14.143164580125948 0.0 
5.922271021200867 3.2434634020990334 12.734398184429395 4.220805580865203 18.53941498703226 0.0 
3.0352371346009726 6.986849378845143 6.279451346978121 4.222969838983083 13.53017224635737 0.0 
6.3839546223238415 3.111774725989143 30.23675380702553 4.227876892088565 19.051181238238367 0.0 
6.624504974839608 3.0634157889966236 34.76062958607715 4.233052253672659 19.319994894632813 0.0 
3.07444631970624 6.5369494067971186 30.999589391245614 4.2359992546601966 14.024245834298984 0.0 
6.797387715854978 3.0264592193333915 32.36218766176639 4.247723461539472 19.563452065844345 0.0 
6.715292491769878 3.0249892275365937 10.900808976753481 4.258712029098644 19.53258518171182 0.6107491439922447 
3.4706137833176314 5.271995763967329 36.87425179859083 4.265707553573247 15.457893009008572 0.4779800652588253 
6.696442872962347 3.0175500611877446 1.6996577078351933 4.268495985408213 19.559692832184734 0.5196069542291811 
3.1733150621918895 5.979256451750679 12.194612294613137 4.27014627941114 14.705348976846693 0.4685787109491239 
6.646655438530372 3.0198308550687916 24.274479084646146 4.272979716144578 19.53057490613005 0.6649298196522571 
3.0790516700415056 6.273186198688229 21.29650263521235 4.283803820626792 14.443449792502818 0.7232144580911126 
6.507631135547605 3.0242450463466906 3.880409641891063 4.290468093254374 19.472230650393833 0.6432379733615011 
3.1705327159350176 5.90897389647586 1.7918360454344722 4.294229189515816 14.85455768668465 0.5689071731042706 
6.340397999810175 3.0512170144387376 22.26487083890578 4.296179041728601 19.328728152970307 0.5735390215518908 
6.529718792072105 3.014033122301404 20.049222242195917 4.296768600640911 19.524346986107926 0.5514619235218189 
5.579001709583046 3.2811559853130596 32.1993403555388 4.3062696268920195 18.576758998717807 0.24124297729329416 
5.619276739829218 3.2640872144369357 3.4651723061910715 4.3065948364545665 18.621905214636516 0.23591532951514213 
3.0030492586620987 6.530292893618871 10.237336499396285 4.307501470496099 14.255513475974873 0.9653184022732946 
4.00533431891937 4.402243696802987 20.905274878070024 4.31712535657476 16.672456249768274 0.40031297702175866 
3.0164211998819646 6.360214596511186 14.691302802345092 4.326072990723876 14.486940657475564 0.542660551690285 
5.813664673060742 3.1630581551168717 36.5991046517794 4.331991783795349 18.94998366556284 0.3627518613242078 
3.0055478080940254 6.375192574775927 35.013406551933876 4.3336661662618425 14.495474092263457 0.5632283775076585 
4.633439004909025 3.768091011250764 34.20651654780805 4.355465721018156 17.717798243952622 0.3737061108819055 
6.114410964418607 3.0346127572651245 17.43751085242895 4.365667424798254 19.42392172710926 0.7422081669795578 
5.560544550174459 3.219602771027523 34.25735654711896 4.370167221085968 18.85928007954888 0.31868425090084007 
4.776726524369153 3.6441762204998334 23.782567363474335 4.372533226182274 17.97627802706917 0.4657778475958529 
5.83003678081765 3.1088912445484276 39.310975521253816 4.377793653007 19.183746753739165 0.449037360285956 
3.0418855051196747 6.040254462556286 23.445176925798172 4.378551343468166 14.981315427443917 0.39245922255279864 
5.6819898819445065 3.1566031166846162 1.3101093450336236 4.383440860175998 19.05294211179016 0.4358269578034859 
3.0282368186592166 6.066559925720243 28.92494591488841 4.384497094164384 14.972606244968205 0.3777711547887601 
5.816817853862037 3.0969838531831435 5.978887947809689 4.393353409382195 19.243288492280428 0.5906414426480863 
3.5598381807718233 4.855964970585255 38.88565638266416 4.398715491385442 16.3504510684702 0.4628198187737685 
5.4168699163059255 3.2513002017632022 21.890073526066217 4.3988596226935055 18.83831670727256 0.38535000051693447 
3.2502994086239916 5.414080900710406 34.836960277800124 4.400932146692323 15.719766109523277 0.6475871852908799 
5.688013726729084 3.1328175480453844 10.539742672248906 4.403520462149549 19.15435322108504 0.42956980302407716 
3.04973359931895 5.925404579507479 6.317489558530667 4.404178795721162 15.18156025355055 0.7556314553920854 
3.3071192457716716 5.284257678681479 28.05167804592017 4.405729396579739 15.878616509452144 0.5563186956990895 
3.0851809846566205 5.799836799901787 8.352382849945542 4.410066976530503 15.332291438918226 0.9275969910010834 
3.250661370528599 5.377424144792711 16.44383278230076 4.4160219436374515 15.80713170768654 0.6767990666193158 
3.2887503437050754 5.2888568524067505 32.662020772161505 4.420133627487818 15.918218729902549 0.5668567695740581 
4.818298560062557 3.549997570299494 12.39138557683927 4.427548968987637 18.290017034805295 0.5476383938198266 
3.1339783364292675 5.614797136618897 25.65062265170792 4.428941491981277 15.588766200370785 0.758549565696245 
3.448410644914187 4.975041100988172 6.358271562123861 4.430295657954996 16.30726203175108 0.5148157894963007 
3.841433098738918 4.41553206294553 34.427131761902885 4.433118180983042 17.002295622453403 0.5763607024870401 
5.593537878346211 3.1336918217483074 24.250939191205575 4.437100379619052 19.211769945905438 0.5432241753420348 
4.799532656316124 3.5436303137817795 18.945660802201658 4.443193272116176 18.342457760385713 0.4598750936829319 
5.387642266428511 3.2096502093738994 28.41888893825209 4.448910288869165 19.043448856428043 0.4709474964598633 
3.8260254946280803 4.397780214693209 32.284522411698944 4.456316765798004 17.095066711525376 0.5273000042260536 
4.43166600668734 3.7930459364714126 30.097164693653497 4.460217247534979 17.967579806191715 0.680613023955369 
5.296387260552255 3.2389973032568005 16.877344053050507 4.46147345268508 19.0020582555536 0.35192621139247166 
4.10691195598301 4.079282031211364 8.100362993121337 4.46457779527266 17.55189337328767 0.5056864066608315 
4.029688618269056 4.1550196543101565 36.86145157328205 4.466464903647211 17.451138419482376 0.5419356732113216 
3.835519230714013 4.370379493448456 14.319784679370091 4.4666422719506 17.16180648079291 0.5810488650060036 
3.1979285441397067 5.362602923199005 14.304371052366058 4.47007279682498 15.99166833497905 0.2640463703073831 
3.2682346401713485 5.209754946820093 20.8465111035078 4.4740423844389845 16.17414950640018 0.6061185910743299 
4.9647192960157245 3.3972032762938227 38.656027690894895 4.479570346607353 18.71126639033609 0.33210911588334024 
3.683126932283253 4.537325473821271 30.196084169523353 4.4812036961269754 16.991792162939827 0.6569254333946485 
4.5372119610548935 3.678590977766012 32.11337530603476 4.484883649364605 18.221103498408727 0.503830621628441 
3.347379995307687 5.038968576338334 23.442941297208243 4.4854322932627095 16.40346697372078 0.656230728501407 
4.5408187840227345 3.6711469967311148 21.35498092041277 4.488635837313022 18.243722681105144 0.5657826386561424 
4.856344575354644 3.452567574414921 5.877359223000596 4.48888397252804 18.628699230531897 0.42141155634246186 
3.3011910454632307 5.114142637808034 1.015668754147093 4.489429677705108 16.32990539433707 0.7196661748241903 
3.377053792901881 4.97939401356227 12.013124138416714 4.48947256019263 16.484705933580873 0.5865960750820569 
5.015496807339504 3.3500871264877023 7.88145393501236 4.494699649475692 18.842173799107904 0.43030757817515813 
3.9320686599890173 4.209389943255144 23.474595000314466 4.500441966541178 17.47703641177602 0.5328227717607428 
4.653688793269781 3.5711879551940235 14.646743899096066 4.502720282585013 18.451320375265706 0.38214663523148007 
4.802266953554273 3.4672665827761664 36.414921415518606 4.505604196158868 18.644500456608743 0.18441598964677788 
3.3816966066790517 4.936260759338704 18.577051705641765 4.507456091472692 16.59029746407034 0.5606152898455592 
3.3483026877872493 4.979727170431393 3.8527416479535503 4.514131216170576 16.560420360655378 0.4968643873781181 
3.9669723947997633 4.145426178613749 12.280424312923543 4.51847860113818 17.61782168500934 0.5147072648224746 
4.632807369558943 3.5666031291242613 3.2430988847817517 4.518529603002747 18.50168715663685 0.3149175057891223 
4.77420168911145 3.4699870095204535 10.035762253591486 4.518636462960118 18.673388310288477 0.11534473393026597 
3.554242468157682 4.649940434686278 25.57179985252281 4.518731401328098 16.966393989523493 0.5905627952425487 
3.962412839178528 4.141412824317052 6.035587357546827 4.5245489906529555 17.641273719490474 0.5131881919693569 
4.678704118794515 3.5121033243627195 0.9219172258362889 4.536896964495065 18.64587822626652 0.20084968209050277 
3.6793772660914765 4.450945057433802 16.607470217832486 4.536965426296375 17.269717210645563 0.4485377574325275 
3.9568785157639397 4.116635738583168 10.168166904992873 4.545615547388644 17.7376134654561 0.3460612917922814 
4.289227787396644 3.799464818368479 25.8833098598287 4.546687270376207 18.201449618619993 0.4614133922042308 
3.8725222668727852 4.205351804704213 0.8522984263302078 4.5472231604450695 17.62145237429201 0.3744204808946771 
3.7362466023434813 4.355602889928373 27.966185493890926 4.552361757410511 17.438453415713433 0.0 
