462

7.474834196083783 8.177440197350892 21.184178484880768 0.954303796173368 1.2720489662683168 0.0 
6.638880068372092 6.517038541715598 12.208849509330271 0.954306067340712 3.833823598745944 0.0 
7.798728205740737 6.467956910499408 32.753662294802396 0.9553502172559973 5.08650241752178 0.0 
6.397473981722207 7.683367876029147 30.85153254422937 0.9563515712407238 2.5547021181884695 0.0 
8.20582158080307 7.212279127257931 18.96669072563818 0.956565605993283 5.9725483052683295 0.0 
6.378788556302913 7.645278853311897 32.912164849956085 0.9566894749626598 2.5980398371635616 0.0 
6.54697742797091 6.598698858073364 18.04271138311178 0.9583495783154183 3.7268485367030095 0.0 
7.203721035989663 8.20737830030456 16.211253038400223 0.9584961932130551 1.5518992636532083 0.0 
7.819738220911351 6.4785772307739276 37.78029044590629 0.9590071580794657 5.129273784746392 0.0 
8.08856971543803 7.715520982041038 3.814023447285635 0.9591188416303154 0.4860608291554662 0.0 
7.781236064757511 6.451113133364181 24.991441839918835 0.9593914645139621 5.084022866306372 0.0 
6.788782947154267 8.091275354927298 2.5145209691544537 0.9594088766755045 1.9881675309138007 0.0 
6.302462208992085 7.406287825464833 18.97221622585679 0.960340434313105 2.8600123934147472 0.0 
8.1628242636796 6.951554949841066 23.984244402438417 0.9603736691135234 5.730735540477543 0.0 
6.629791075456687 6.5167442273699905 16.031005490886002 0.9603765606148484 3.8514187149924375 0.0 
7.889120455509503 6.531347067448218 12.172583128191349 0.9617364473263739 5.231152222774369 0.0 
6.336562606349566 7.553845832821205 15.051448716256239 0.9626474755806043 2.7151146779737942 0.0 
7.238714085352684 6.2860751124958565 38.75784532817779 0.9639909546356233 4.531414179334279 0.0 
6.312630616705106 7.02137936324948 4.7319371497457965 0.9648464936386847 3.261970556624796 0.0 
7.051950346490905 8.194473144784912 38.741112219703936 0.9650146042806678 1.7153083634311503 0.0 
7.865348444913881 6.505900741484059 17.06406887133418 0.9655762088938946 5.217356461462925 0.0 
8.216176628287108 7.259945558328184 33.878768356063446 0.9662278153617336 0.009945733957858138 0.0 
6.2974684695552625 7.0850342539453806 34.8148094958524 0.9667109256974125 3.202789004705153 0.0 
6.847939172491188 8.13023164608433 13.234599096149111 0.9677089747364112 1.934705210342873 0.0 
6.284630766608238 7.326486052472184 39.779338137754806 0.968394482120885 2.965735191611392 0.0 
8.211220260903238 7.367701626298519 24.94989031466583 0.9683997432900306 0.11799336212590106 0.0 
7.925604689406491 7.943977622268875 23.989169225206197 0.9685280773204279 0.7736721881714175 0.0 
8.0193429430097 6.661035826103689 6.660806353873937 0.968900078487041 5.454724733750311 0.0 
8.173478969704433 7.543324432840716 17.947422659487728 0.9689440801138569 0.29800013144420046 0.0 
7.459410714523523 8.196260272004098 14.025877879878855 0.96915496682962 1.3112696113540387 0.0 
8.142853796042779 6.872283647074255 22.227653812148993 0.9694625028207766 5.703321398157225 0.0 
6.656180403732854 8.016595179128968 17.036655413950896 0.969685454967049 2.1622711959542915 0.0 
7.982608074866118 7.888104225929402 9.878918070861431 0.9715408352241304 0.6961692724950161 0.0 
6.9023758399231365 6.341740073607772 30.804467478001282 0.9725115169288032 4.227364604013168 0.0 
7.224417366797454 8.222343763130274 1.5117711453863691 0.9726802479848713 1.5534681442737153 0.0 
8.217889810697017 7.15216528859437 9.159529961401734 0.9728218317898336 6.014419458143344 0.0 
7.012996769265255 6.306345142670256 19.021681605860834 0.9729619833995189 4.345563416564257 0.0 
6.875412878467769 6.351486648000373 35.844313077826804 0.9734689288001981 4.2028566953229465 0.0 
6.278158640667517 7.312717060342074 3.703693231316713 0.973862956153051 2.9967202151021013 0.0 
6.924915756092648 8.168082728234447 24.057735568006912 0.9739382226400282 1.8613035266005493 0.0 
8.022621573571708 6.654574528423623 5.658353745592962 0.9754361015209416 5.488383770583001 0.0 
7.20991064986568 6.275168508067017 0.7849353917878545 0.9756554687278083 4.557567439895097 0.0 
7.778207432966973 8.071436720631324 22.132432274694658 0.9766070746431721 0.9759600000761246 0.0 
6.279854829709896 7.1304720668193 14.102365686563147 0.9774807303715312 3.190674116592154 0.0 
8.212703149632977 7.419884923961945 23.074754419069038 0.9775777420250624 0.17075184559552703 0.0 
6.7248276653205465 6.4248814584597564 20.191756390835785 0.9780728953949027 4.054675697499395 0.0 
8.065106586545307 7.790601273124107 1.8901095188092825 0.9780840883753013 0.5727836531638992 0.0 
7.419458159127764 8.21331067491279 26.056888939200178 0.9781020008648946 1.3660814611510617 0.0 
8.205524110194206 7.462100885207855 32.86340822692624 0.9787814417265888 0.21379696301343287 0.0 
7.064900958742058 8.21131217711353 34.99526522827165 0.9789702533485718 1.723982913073712 0.0 
8.126694455681065 7.688265652915053 16.04474807367363 0.9801377205000192 0.4543655477698163 0.0 
6.530125492247034 6.58389974430186 32.02968583119147 0.980769523157047 3.8134392406749207 0.0 
8.1496092869588 7.641174263483734 5.464936959915072 0.9809761330402305 0.40236162361491523 0.0 
7.882251117507565 6.499762029722877 7.685338951182999 0.9811210361800939 5.3104644421853635 0.0 
6.5477741862022665 7.935773642578912 29.89311757388394 0.9815327719540692 2.3243158234455326 0.0 
7.781556564527758 8.075508665118239 2.809051494044944 0.9818436420723291 0.980578451165437 0.0 
8.194055490429074 6.980011343667245 14.125785109542036 0.9819035815993606 5.8959701555075394 0.0 
8.03222442169137 6.654206556926438 11.004234641008814 0.9832827023292197 5.538103750364661 0.0 
6.946970240846806 8.1859832400144 9.283229616665416 0.9838148507317346 1.8534110037985982 0.0 
8.11939244838335 6.784367951574426 20.65282575655572 0.9862334580752079 5.711749314793991 0.0 
6.2944910507462986 7.004534447307567 27.96938369863154 0.9865346875110466 3.3473617251403756 0.0 
6.558222922433291 6.546542355146789 24.92059344416635 0.9866145058477307 3.8826856091817206 0.0 
7.8020073280137865 6.431922908206051 13.302996945782525 0.9868952418058186 5.236441598927097 0.0 
7.584234015924142 8.1790559675628 24.986976464265503 0.987348655878372 1.2099525690297845 0.0 
8.175110928668238 7.595230348920481 7.077964357855592 0.987428085562271 0.3526813509799194 0.0 
6.651837584749263 8.035900783098425 5.048383942194505 0.9876428078477129 2.1939244573790067 0.0 
7.53855427814818 8.195167682903758 7.827474764799163 0.9882335352755804 1.2594932729136161 0.0 
8.198269859282089 6.964613753161366 36.86624498297259 0.9902833109305225 5.932641639992621 0.0 
6.970840357811031 8.200503687382685 3.529366288340853 0.9906499712588448 1.83910218723695 0.0 
7.252948338715781 8.240783063077227 17.942545293258995 0.9907874498508145 1.553376943793035 0.0 
7.590000217353797 6.31893063935008 28.921412704737264 0.991206488145473 5.017998087062313 0.0 
6.922245028312643 6.314134737839149 10.245775000934955 0.9915982605799476 4.3387597688149455 0.0 
7.0386721971918025 6.281083761957923 29.815468719009502 0.9916945681919183 4.460289735738382 0.0 
8.205812398717779 7.5162557886513 27.961188507181085 0.9922043572434842 0.26955954301235785 0.0 
7.502277695446473 8.21020600596518 32.35900602541808 0.9927938403875145 1.304402177407395 0.0 
8.164854315400682 7.638035002793243 29.001493727421675 0.9937452298250302 0.39864094660534377 0.0 
6.4316687937509 6.684531345710125 28.994327969712344 0.9946963165235458 3.726385310398612 0.0 
7.675220144742186 6.3493705973519 19.802001428956004 0.9959646039939556 5.1327020779018575 0.0 
6.314293219410549 7.591993426970236 16.177600846079898 0.9962462965210559 2.780706352739177 0.0 
6.366625172095494 6.7893733649036 22.034193282727458 0.9962569866934663 3.6086863710461152 0.0 
7.900642394630456 6.495053142246599 34.792539857224796 0.996634478493589 5.4054623438238725 0.0 
8.122669492151111 6.767908531435644 35.84192962730893 0.9969775456818568 5.761010851671227 0.0 
8.163859154685895 6.848990516777338 25.884878898052705 0.9979715227589034 5.8577703135792145 0.0 
8.239259717219444 7.382779438281759 8.084387708478651 0.9981308367861965 0.13317421145683994 0.0 
7.284136994730259 6.252225174985583 14.143075304236476 0.9983586208581392 4.738797813624476 0.0 
6.341650694099467 6.834645299156591 0.7197655441048809 0.9988082844283466 3.5662152237698397 0.0 
7.211207514425155 8.248822491876956 29.045887561616333 0.9995755235180428 1.6089317906655616 0.0 
7.949005140746806 7.964974139456068 26.99435038848521 0.999898098248718 0.7966101572467856 0.0 
6.613696184204777 8.02168940716164 8.256441853397511 1.0001935248345886 2.260771628487934 0.0 
7.942532121960436 7.971773764205803 13.171023442856736 1.0002790143969023 0.8062957371389903 0.0 
6.4758917506354585 6.615131313253954 37.870614993522615 1.0011502540302746 3.832891214400206 0.0 
6.926239168886349 8.197954471560262 20.02642612724658 1.001717902362985 1.903175126845115 0.0 
6.610059065839719 8.020708210426232 6.082069938216385 1.001756230243835 2.2677342727436827 0.0 
7.969703842032766 7.948657681424855 16.997516523897616 1.0030434567109623 0.7729060597829811 0.0 
6.337223229503875 6.831199783122976 38.8397925053054 1.0042684175127548 3.587002770563716 0.0 
6.2972364603747355 7.568169469297702 17.961093711342826 1.004485029073328 2.831937397168147 0.0 
6.939303254524193 6.294700713400395 5.05882283227389 1.004554226822509 4.417973800658633 0.0 
6.584921633820338 8.004939090658034 12.11924580687699 1.006112450854173 2.3070131699168694 0.0 
6.245517825167591 7.322804833544675 7.624048756130474 1.0071171646553903 3.0910834909535314 0.0 
6.300188136045222 6.914249170809173 8.593446437994572 1.0074081577054939 3.5071655051156796 0.0 
6.246368737350728 7.337393238543523 12.828622815246817 1.0074290493677949 3.077428478314575 0.0 
7.233617972238871 6.2423092066163 22.2787997361442 1.0078239458872953 4.732875707509823 0.0 
6.427175690063645 6.667975903700471 11.215528550881729 1.0078650175968602 3.7867846503113363 0.0 
7.698014104827818 8.152862111951393 15.147170476111931 1.0079070549023879 1.1189592221911742 0.0 
8.248507764283225 7.401877741766302 30.024114965949114 1.00999237807912 0.15245603974103616 0.0 
6.266434274967295 7.017477658481381 23.05893318567014 1.0106770872857513 3.409759756105137 0.0 
8.053330136647968 7.86367061783082 12.137086733656098 1.0109059974279013 0.6594576589790719 0.0 
7.225725883931512 6.2375568493667615 39.78068586019073 1.0127341042816043 4.748120592128382 0.0 
6.690314356279716 6.405137689538332 3.5537556909481793 1.0134299894049001 4.182735531185015 0.0 
6.237930642613794 7.189774617533148 26.89592337943201 1.0138596948559515 3.245395026583722 0.0 
8.221853967024586 6.959493001525361 27.11968229309286 1.01434434458135 6.07868087461428 0.0 
7.522921884283253 8.226954675955723 6.587703229325953 1.0143602879610727 1.3170264894892991 0.0 
6.465284046658471 7.895299416409381 22.30581254560291 1.0159677476411302 2.4925553457675775 0.0 
7.201744836942362 8.265375734844465 10.506601414058977 1.0165217379243097 1.6450219171957539 0.0 
7.457222629794902 6.253440351957138 27.92056377957276 1.0178763924988279 5.0053109305813805 0.0 
6.427531961421018 6.649563986138009 36.87071419472845 1.0183207162905177 3.8413070152751114 0.0 
6.359132585531322 7.7478376644613896 37.924797089013325 1.0205327482832076 2.686042597516563 0.0 
7.915787760459917 6.47498303378422 1.6301469327537959 1.021726303811612 5.539923274093766 0.0 
8.209430937947435 6.895856818316961 4.515774953001433 1.022704804830446 6.0642114373369225 0.0 
6.653644199790913 6.407592484866116 7.759310031393042 1.0321291886179083 4.227981376171224 0.0 
7.368450195100094 6.222242844432248 36.90486723029902 1.034560399174436 4.9939615464533365 0.0 
7.216337420939379 8.287193899473014 37.66445735326572 1.0377400225167426 1.6637467009523306 0.0 
5.834483012976463 7.980294696990478 13.479513885892853 1.5928021487317894 4.245279089970097 0.0 
8.793150978699805 6.8135682576176055 17.58682266004081 1.6036793971430479 9.634208006890782 0.0 
6.832355931590241 5.571488882420015 16.509051708040175 1.7296896079116242 7.729157682769875 0.0 
5.47713112612991 6.7446729266955945 36.32218000356657 1.8434802670361838 6.303343539310495 0.0 
6.806283032616925 9.141869383900532 31.62442652055558 1.9432072748123979 3.5000491257412705 0.0 
6.144868121427097 5.556853995861225 27.45135172596406 2.021895116065414 8.358740097939696 0.0 
9.161671954799337 8.634434385171094 37.31780432816696 2.360327991955857 1.4794161774453674 0.17182824706923977 
9.248495667630275 5.985255662878076 37.29433662059464 2.3650714940185096 13.525754606806698 0.40880180882497286 
9.627073798637724 7.096775015856297 26.679836847643088 2.382007082259797 14.813261049535548 0.34278713594234406 
5.451757914217016 8.858836423746858 10.360897808969348 2.412888152703255 5.819232665852196 0.41198483483221543 
8.90131394706993 5.476268856743593 2.7711695221451507 2.423419055868247 13.236861682597771 0.22925750752896773 
6.609840956708467 9.58881130845501 37.553117422930214 2.424838538390744 4.4567660198797245 0.4567446429490055 
4.871794231651393 7.730605003138569 6.0213199318723625 2.4262818973994777 7.138584652786193 0.3257326113641858 
8.266520349704606 5.03939233382893 6.892789414215997 2.433125536238907 12.514522335934856 0.7697769799693637 
8.367074108785758 9.424039357064617 11.075722353255998 2.4442384684366294 2.67925344475076 0.5159831770738901 
9.666616949700284 6.876914275532775 39.63732758481 2.4452464986949574 14.989388235117794 0.3027769125009191 
9.689777291105798 7.415998980031498 15.186612478177672 2.4454179380153063 0.16612673002838285 0.6249264588464558 
8.965976119320228 8.992677778397338 15.945912847476116 2.445710506457625 1.939737651727306 0.2683061784293439 
5.800565602980857 9.220456331365348 16.99326854131477 2.446131277155832 5.393735605956866 0.5855235068188243 
9.591198332384522 6.529183979781557 19.98822390667901 2.449650049816019 14.659959755704477 0.41071169049385925 
5.563706679620617 9.02693831641158 37.75251002435954 2.4497132368274754 5.707897824380611 0.5848045077047833 
6.081830430759377 9.407798508242372 24.91545278713184 2.453714438290005 5.071804354553679 0.6803527397063823 
5.2251509275395716 8.636152628246759 25.977709766993044 2.4538608100377743 6.235989264446339 0.4675050801609425 
7.648322875471598 4.826270926413988 33.601128018120065 2.456241790880952 11.974856485834412 0.7771864614718312 
9.289377842431836 8.620765271918593 11.951140699326096 2.457246307332663 1.4541696070823438 0.6297532775196621 
5.742915909108772 5.307955627104636 5.974776023247472 2.458218623986073 9.961773471502605 0.5309452450247893 
4.910333340043836 8.011375818888428 14.888199626177581 2.4604335425486408 6.955597272882448 0.4937569824557365 
5.125441701962842 6.007907931754312 10.62388850090364 2.461003995884078 9.0334549551078 0.3819063308783159 
8.481530545847452 9.38244869674152 39.68067352363984 2.462520036383442 2.5784325620028117 0.7365688088446497 
7.045020804030328 4.795971714607827 18.986087262863524 2.4625741199576554 11.399390508579176 0.8003179862854739 
7.404584864398014 9.708417081418853 3.9060800938493188 2.463272422309994 3.7146127612276807 0.7229161083023742 
4.958062213123645 8.154793674027081 22.167749197529865 2.4640678585361875 6.814628474739282 0.47760124983161856 
9.437304075272312 8.385268759334286 19.163235084633087 2.464372998071373 1.1798251912588889 0.5981705966432611 
8.838408766718425 5.361946314011259 16.720229692398355 2.4673445505975877 13.352792912856124 0.2849319714941162 
8.32806172253706 5.029761167729443 27.611149202597076 2.46813240121386 12.746469698280535 0.6802937933016233 
6.919576965222269 4.80350664279716 37.156833241568734 2.4687059623919048 11.302085145039449 0.8933377539975168 
9.598281736737537 8.011704756370898 38.90388588921958 2.4687286709910268 0.7743392934050597 0.6933842804464957 
6.6750292432549365 9.650877908151863 28.925303483833474 2.468766109003373 4.45822849815066 0.5255858060071471 
4.906190092225817 6.472602596106007 13.240420237401452 2.469370690552866 8.548604369690239 0.7035201172496512 
9.6752028330968 7.7218595134858905 9.126411785125093 2.4706801051791114 0.4747761376287585 0.5024158552566949 
6.546892011087094 9.618826098122964 5.647260421061688 2.470971049450325 4.594351681691634 0.5671405273877171 
4.7874732480032165 7.461187394705721 37.66147351306523 2.4715659246684902 7.5532081237492825 0.45883633011569797 
7.026642397363508 9.711540426344836 0.05556386073791941 2.471653270421525 4.106126605148162 0.5109970257021778 
7.345061904642813 4.776690323789502 20.080491873947693 2.4751358589279104 11.758888237354553 0.8196893926705008 
8.33066867714949 5.02308020154217 26.146049261345823 2.475281111012543 12.782815552628694 0.8070367153615463 
9.570302319167114 6.384376534515937 1.8956929045795192 2.476511020837365 14.676082170644829 0.6825744542703245 
5.726652487835496 9.20262006177616 23.011559791782275 2.476552593519573 5.530932870471581 0.6447223467700015 
5.177920800149057 5.892920737178322 7.731030423919044 2.4769288112571086 9.217717183315486 0.696081680221592 
4.784964388558382 6.999464837148414 14.2641941002897 2.477734536527354 8.034996675374167 0.7673504516241817 
9.036287554380886 8.97112339239659 29.97467060436408 2.4805420695466527 1.9021325144651602 0.4755544055384495 
7.155709828554123 4.770754989176325 3.5151379568311967 2.481037375801778 11.597300305762914 0.9289562417205853 
7.02341204442712 4.779315204098074 26.83725359471113 2.4810532969510426 11.464784089661359 0.8413225340170245 
9.732203048669172 7.290278081517718 37.08712131866851 2.482529818284826 0.040279848847443844 0.7973330826682082 
9.42189713393383 6.046170102088791 7.141781309091982 2.483212351671698 14.3456799192673 0.6600406959735882 
4.818488608659216 7.756556068041066 7.850922216161386 2.4837163075297495 7.292689647788855 0.5389226003328169 
8.809264562121067 5.31474890783117 38.741266107741865 2.485257082160164 13.397042099256828 0.4453135220195334 
4.777030047277682 7.5105845704994305 0.6800703194643134 2.4866613572116716 7.551013171289613 0.4151370090122064 
5.272918429874631 8.759473491332713 5.555488562767728 2.487440804514865 6.192524729540137 0.5085959681732812 
6.302623059712591 4.948618078106021 33.30936621215602 2.4887510557323234 10.756071368468136 0.765832160595957 
9.677885982778585 7.798343502864141 29.114298513500657 2.489038156096857 0.5528787812216791 0.5090057792798642 
6.265180547555927 4.963993870222183 8.847755705151783 2.489114979122902 10.71716581159883 0.74174173192121 
7.238828100888094 9.740681452764854 30.33974200345895 2.4907065082977162 3.9235645709318963 0.5541004662804122 
9.107364806741206 8.911370718563704 4.774511431140233 2.4919784689723308 1.818535023882486 0.2057751201435058 
5.011506884565714 6.1524809922357235 18.200507063378858 2.4930702758347145 8.968683427620219 0.5029051968367186 
9.74040343704666 7.371556919924393 23.605355702379512 2.4933682768566947 0.12160512356707898 0.8283755147813725 
9.634894164182695 6.520598069282048 29.157634533077676 2.493942130621264 14.929678063016206 0.37423918084481717 
8.496512898779729 5.088999814828291 37.68950159652081 2.494737703073494 13.061427811558454 0.6470826766191121 
9.733470053160891 7.00991609582025 14.190274618363233 2.4950478524455506 15.436392057660049 0.6803603133992422 
4.849825624272322 7.9337010413157945 30.62526948125261 2.495653050364986 7.147769583631023 0.6683420560770041 
5.125201574324771 5.940778273890075 20.751225453845535 2.4957623840963254 9.218876711951323 0.7661849552281386 
9.634089054288028 6.510552020215394 34.6967694507055 2.4961297910131797 14.932931943350725 0.39557087556164483 
9.43125070767661 8.464380476007948 2.805315944987612 2.4965124854983203 1.2682282896685688 0.5258625781635934 
8.6761832348479 9.299070746777181 24.907469725748243 2.4965355083914216 2.403539842023669 0.5836255040609504 
4.796899725021715 7.714665706574674 4.975568349652221 2.496720885074076 7.376289146993988 0.5084522980449517 
6.905072344480391 9.723668028384074 8.49311018152111 2.4976005689845238 4.2692554186961615 0.6577011538091386 
5.842083759278111 5.185949365070057 36.95893245664291 2.4985061865929326 10.278276549703369 0.6463791659143328 
9.43855758290087 6.044531146893217 17.9648937479476 2.498587490860284 14.441146402139 0.683598954887086 
9.327209706189288 5.857981602316631 26.05843485872225 2.500503025988164 14.23482089233566 0.627862260492382 
7.222946819441841 9.750756227947731 19.0042443868194 2.5009025543186727 3.9554622541882694 0.3683472948840127 
9.17231384634929 5.650155907969051 12.611521379596613 2.5009581449261677 13.97807317988998 0.7714931500192819 
4.991589839245753 6.171039647597446 4.75952548976165 2.5029126825070556 8.978658910764244 0.572203572626878 
6.349861610785538 9.586352293041763 23.697801041971985 2.5037554107658155 4.853641891067669 0.7705600723209641 
8.531921405499345 5.098903974950208 19.50717870983606 2.5041039512892507 13.146087222730634 0.5242036270386319 
7.8838046301586875 9.673116504631068 10.105847744711937 2.5046360821935956 3.2935014923032657 0.7359758696073263 
5.801860121670639 5.20521496503479 26.25589870454034 2.505644616945 10.263554593627598 0.6751051027006664 
6.056089363003126 5.045638208540213 16.03013191334393 2.506917134007839 10.569182313499338 0.5417303785346903 
9.09921332792434 8.94298672445832 1.4009506171277124 2.507148575845698 1.8586052204099968 0.13232747440260997 
5.578096360495207 9.118895621749397 39.63820297606156 2.5075949881875754 5.769015392119018 0.7750871674807126 
7.976123687041959 9.651917126071265 15.481730288747414 2.5092750924117224 3.2049002729191685 0.7999525267648205 
4.944779831325786 6.258249672021522 9.590779509224191 2.509503683820327 8.903407440669584 0.6606844425551092 
6.030393403037136 5.054527320187404 20.231392934266168 2.5114817417530304 10.561598056028602 0.5530884525776535 
6.133951762821088 9.500888072362724 15.854426369732671 2.512381496113787 5.102895425393376 0.7537180272768815 
5.237643020897394 5.741197495201506 12.11974146015065 2.515167113698249 9.519771169786162 0.8965345281160945 
6.482876606397525 4.854648163092605 21.436963432003218 2.5151915878492854 11.073017135101063 0.9117763395866504 
9.463693637584909 8.446079649551553 32.86697722204488 2.5161570001005984 1.2464358370787938 0.4591085849955132 
8.841774846735747 5.3006147270108865 25.127194052418986 2.516714148497492 13.58306252059854 0.5391010048666083 
6.6978161238828715 9.70567513924686 11.054564089182676 2.516991740661622 4.510393340659062 0.7899444532524661 
7.273614455297928 4.732878559382794 23.214193574816953 2.5172322080638203 11.885792120027594 0.7168742414381079 
9.271985940204589 5.750284213723734 0.16684285574220326 2.517453988058428 14.211064475265024 0.5608234550450214 
9.682114090042242 7.901848286341037 20.01036623303945 2.5179525681370034 0.6593580890796282 0.38562852223119737 
7.6865381926021605 9.731089504673296 13.854455115336712 2.519200413583711 3.518397813346768 0.8356671773621122 
8.90891863936908 5.353297385770752 34.76441328161806 2.5198198068255255 13.685169256200654 0.7965704245048533 
6.226810241377878 9.554782675349887 32.957859011169944 2.5216939669083924 5.014643106709437 0.6926176322506948 
5.592294044811931 5.3497203719438815 17.022705902249832 2.521716022606647 10.074413693206298 0.7722755419828 
9.107662174947032 8.957639720943472 26.961159962196007 2.5232800424789996 1.875666342266209 0.37002680920007713 
8.369793814880145 4.988485379133438 24.18370781354107 2.5235662401128 13.052265121353026 0.522186353178751 
9.722544682046925 7.756034926312491 27.654286876733302 2.5237964560096016 0.5094884151254622 0.4104721216397473 
8.61075027163071 9.375543486888297 7.421231324603816 2.5238019764625577 2.5272061535368326 0.6103872631415677 
7.344524319707874 9.77217850720525 27.300998461408426 2.523949141568494 3.8700636106946202 0.5783902435290251 
7.281962526331601 9.774670638223771 24.024622367644227 2.5248729541501174 3.9340977819337812 0.5309853263262494 
4.835042003329981 6.511239009726786 2.2799224230052246 2.5254286619166137 8.683593161611775 0.7109646776631852 
8.961147807534392 5.391772131438179 4.504709871461458 2.5260715806820606 13.78377314809059 0.7094006715116918 
6.8174850281633805 9.738986832848415 14.585035443068492 2.526286732529705 4.402938196588332 0.6881919504801431 
5.350562132161528 8.916762954318187 31.281954813345372 2.5270462915558674 6.118855012145394 0.35936978142290477 
5.64839071956032 5.294852180077115 22.242375876207397 2.5274008951766476 10.17547903968873 0.7817927803119541 
9.645367243858948 8.05664986388743 33.85909140101127 2.527541935529859 0.8210116522020954 0.7067203714274356 
4.726503146469719 7.095659354771588 39.745420057298766 2.5282122942005403 8.097049842091533 0.800540584834708 
9.3167733511546 8.70622025893492 10.11848307396037 2.52826611090987 1.5518431992327955 0.7027820679137478 
4.733971386040828 7.000918811893966 27.939116108955346 2.5283277921443705 8.192461882649775 0.7642808095455446 
9.477702729556334 6.05391458592905 9.037143210121108 2.5284935770189367 14.64110094414427 0.6998884591466462 
5.014419276154246 8.432815221548992 15.825837252130015 2.5292040291678113 6.714904267191002 0.4890428678984661 
4.73717681734559 7.545298689675853 10.445172991987697 2.530114950631634 7.652617279634908 0.5707807274889858 
7.219678532725892 9.781640814693244 17.20883149714822 2.5318223883199877 4.007299499815602 0.4018776696156127 
9.774771332227184 7.056313289649944 8.13428780706515 2.5321897286345756 15.716341221760217 0.9266963362240104 
4.9778338715927415 8.368809548534065 12.980402144168984 2.532681132904859 6.797830887309148 0.585937639166011 
8.71791434917764 5.185158514575196 9.86994031447312 2.5334448674587193 13.504271851374943 0.3593161639579231 
5.85878421451592 5.132275069657554 10.42636532790138 2.533819299471454 10.46759086145992 0.7566567735762935 
5.03134238372621 6.023181675878924 24.022407040013512 2.535256361524202 9.245324242645914 0.7639090732066172 
4.773621041746189 7.794683231179695 26.730883442745046 2.535573419802825 7.416776964653444 0.39284637507790693 
5.440444856421911 5.468833438047199 29.88787003963408 2.5391030186009953 9.950960269739591 0.7517924590055637 
8.023011003299299 4.830998428083085 30.19697930622891 2.539510704084214 12.752637582866921 0.5136487536843932 
8.717344025272308 5.176731173553771 11.833752307009924 2.539988605331935 13.533804825565523 0.27795083757262096 
8.644979914588752 9.37590307116756 35.73792148042757 2.5427215400247265 2.517516336131523 0.5474914511503742 
9.597916834654415 6.273836923461424 5.479587658796987 2.5427559486609885 14.974720675765607 0.6593145428200943 
5.9073130301825625 9.410461963789539 8.558422082873925 2.543698920056949 5.410095110870904 0.39995242768736466 
4.703407941196128 7.250092308760239 18.442694443534492 2.5465920604768737 8.000262600123987 0.903472332710654 
8.026808469099734 9.67609012414192 31.145316847625637 2.54741922111851 3.212095759458194 0.4332214702307321 
6.0411996987196535 5.007306212517911 2.625842342541077 2.547719292384116 10.746367360523797 0.6957435799743015 
6.070584256955721 4.991639787169747 0.7218106300446934 2.547785773144083 10.779948370966643 0.6396604683825384 
9.724816480067084 7.857412753982212 30.169986623840416 2.5482674239003824 0.6133168789848806 0.1255775817512506 
4.734879154516163 7.662527195023079 21.158475892006997 2.548727438158295 7.592713438853268 0.5204007905710446 
5.098980946603712 8.6179744039533 8.496254573941911 2.5491639684306797 6.5644711870497545 0.518983376718639 
5.9978076847745765 9.470607959864227 4.076710542915787 2.5493303641783998 5.313430960384123 0.4203333986434056 
9.750197787670235 6.7515598840581905 11.678210224003578 2.5493982675626086 15.51667022020881 0.5657672061163677 
8.27544569813824 9.5848180917137 36.75658642379965 2.550081253847382 2.9503475966126764 0.0 
5.384256577164422 5.511224254417444 24.943901336598813 2.5503606829780736 9.925444723131747 0.0 
6.367085227690271 4.857337829068593 4.189321395423235 2.5503667891832613 11.116744526234067 0.0 
5.741400096337713 9.306398397302253 29.203093139096623 2.550421149096193 5.6204313925927 0.0 
7.575256034226118 4.718993177723332 12.579202188224514 2.5518203350180326 12.351313255602873 0.0 
7.386859779369596 4.70183868800237 8.081276981146111 2.5518339818982296 12.162159810717066 0.0 
8.400143086356541 9.528092502432825 26.41749198365428 2.551966804003219 2.8154814387991784 0.0 
7.822505780448941 4.762742604077754 34.61504662994426 2.5522954809773424 12.604827895019655 0.0 
8.46334912194049 5.002931967963647 17.792030363558673 2.553728809469299 13.298540084960377 0.0 
8.355562148222766 4.94746164236348 13.359273993673284 2.5542025275945552 13.179762382835596 0.0 
5.151699276035874 8.70859938451765 11.99353607634336 2.5554604463195347 6.475895011397322 0.0 
4.698203347908974 7.105377745180228 3.4697097740855085 2.5558915763803696 8.174269739643835 0.0 
7.387275938935236 4.697264608469666 32.6258970336622 2.5564238033984257 12.184205358027958 0.0 
8.726683574508511 9.336834672922354 12.952891632505043 2.556457183551916 2.4413535014216166 0.0 
7.021918929421597 4.7034399862086875 9.615282928756308 2.5567535819075324 11.820032736593282 0.0 
8.807391563023119 9.27854367416477 21.913063296098997 2.557431899106893 2.342706716552657 0.0 
4.745771053341771 6.730748790983151 38.796942434579506 2.5574957351570404 8.557496264284262 0.0 
4.692466276720124 7.2747845183127 15.65741008353546 2.5576538112226643 8.010321517545671 0.0 
8.046286062627217 9.680567192897598 18.308792806606697 2.5576802717940454 3.207849334568687 0.0 
5.606310710991812 9.2103352302533 1.4336859434644538 2.5582471916866236 5.803538603926826 0.0 
5.045026603034996 8.549759633997912 24.768619770933206 2.5595473794196053 6.677740891220848 0.0 
5.685536975844753 5.2228393676110265 32.10377526484861 2.560649289429664 10.383719681558917 0.0 
6.50891475418196 4.797690717373785 15.057547710741677 2.561840775540878 11.32055929534125 0.0 
6.623773905522638 4.764993909751206 39.84122422258197 2.562696702689956 11.443791643112268 0.0 
9.56308912077759 8.353650039519977 24.458033070520507 2.5628938117667106 1.1409666028975511 0.0 
9.073278173631934 5.448404724832995 8.009890950209865 2.563218452248397 14.107361669447302 0.0 
9.708862425600664 6.517291174211028 22.63210912012638 2.5657097753681786 15.377777565229986 0.0 
8.931713238342141 9.188452454046729 6.488601775183504 2.566273043270142 2.1972399343954407 0.0 
5.603759642831207 5.278972044304934 1.5668293709460244 2.568084600573491 10.31481137814949 0.0 
9.599517421305237 6.213187677768811 35.71563484200591 2.5681144648452214 15.068669457846617 0.0 
7.1674391751092 4.680574756865147 14.084776597519998 2.5707513240034032 12.031805186829684 0.0 
6.402279592054265 9.677595503577743 27.957893778905685 2.5713517493797973 4.902950053697966 0.0 
4.69870728109264 7.5762058184164545 2.479056911407284 2.5720623580151525 7.753285496836789 0.0 
6.860408576449274 9.793271515696764 2.9665081525122474 2.5729382969396664 4.432657760032399 0.0 
9.671099300790406 8.120946143636058 10.982116950324702 2.572988342259311 0.8884992755971908 0.0 
9.508365652547408 6.016533010467693 20.84353877467008 2.5732579029066986 14.881876344330967 0.0 
4.741205496187412 7.824634920835758 34.05925098681011 2.5737628396191004 7.506195070648587 0.0 
7.145237347512031 4.67550903578943 5.303960487266096 2.5766216133064996 12.037251758493298 0.0 
9.651424823241536 6.313830220435305 4.400369468144522 2.577451267793602 15.23652255368538 0.0 
4.674972592458383 7.392545081400243 35.06460807043382 2.5789698039763693 7.95945482931317 0.0 
7.920222229921174 9.742862269435513 34.90145657703957 2.5813872494950627 3.37684327860436 0.0 
5.5681685030142365 5.291593454196002 30.927954232582948 2.5814556713027854 10.33310836699948 0.0 
6.8637445323834285 4.697282735562601 29.821547992689418 2.5817743353012976 11.77861384287315 0.0 
4.959560532309389 8.441967305957096 19.330681285012687 2.5820338908746856 6.8727307357886325 0.0 
9.423924647612344 8.645833554790393 34.73486175217474 2.5834666024888464 1.474610183186769 0.0 
6.055756414460621 4.9587088644448425 38.88640412876538 2.58384070899806 10.934601478354711 0.0 
9.49387780317633 8.53203477996951 7.4219262338994625 2.5842988938276696 1.3414714833853196 0.0 
5.61439393554938 9.256315207050593 11.279601217628887 2.5885339302605455 5.836508336931562 0.0 
9.696816908491023 6.402248584388657 15.208492719401 2.5895164502950405 15.406736490651461 0.0 
9.073907412860663 5.411177601372735 1.6563851553591746 2.5899625604207883 14.228516350834974 0.0 
7.936645948026335 9.748623150111856 33.025461343707434 2.591254581127814 3.3753864052433222 0.0 
6.174911012688419 4.891191394753287 11.362041971832625 2.5922566166999332 11.107150544040262 0.0 
9.836318448779519 7.019045241140246 31.93111505533868 2.5966099474386337 16.083721101961842 0.0 
8.386138754018411 4.914476557344592 31.851240964963665 2.597206387558655 13.414950291251898 0.0 
7.441344448106239 9.840457275278148 20.942993367709917 2.5975145029166993 3.888648314423234 0.0 
4.672269876864597 7.578255180220314 31.558680556054327 2.5985465266300554 7.83444015202924 0.0 
5.060711574896526 8.650283908162091 18.340911771146835 2.5988033461094635 6.685573403692269 0.0 
9.246178535633891 5.584768261604367 10.81784895946496 2.5995625571787317 14.526173555021316 0.0 
9.40964744588064 5.802492047617372 30.782988025464405 2.5998762206516166 14.80032752101669 0.0 
5.670415795191117 9.315400172177664 36.79896494872035 2.6001854032574747 5.782011490347578 0.0 
4.746626013016037 6.530111743886611 34.50239968357924 2.6048263704128067 8.91268575462377 0.0 
4.8607467015839845 6.2119378778977925 37.92267344945793 2.6050152194056646 9.251602651620662 0.0 
8.530303164055447 9.5223526901178 3.7659983098544387 2.6082106778740077 2.75871361939355 0.0 
9.49687207519871 5.915241068411921 31.902387614564475 2.6134298398391924 15.019775364019193 0.0 
5.211102173352515 8.889358119211977 20.29819301778852 2.616218528818662 6.447388900614449 0.0 
5.434143663453634 5.364673991315614 14.136702061709581 2.6175920984747383 10.32838549331294 0.0 
7.5219616505411935 9.856840363510464 32.107741676997364 2.6209883288928357 3.8445867848412902 0.0 
6.229598882785718 4.835638966821227 36.03095363446329 2.6211367073360035 11.303705856770627 0.0 
6.237822394343883 9.669820297910785 9.487490864880172 2.6229818488835925 5.1593178709512415 0.0 
7.503140843401047 9.862144296998501 6.5965659212372145 2.6243814728311867 3.8688337437838847 0.0 
6.278781228865272 9.688564440559862 34.944385221003685 2.6248547449654214 5.117980053609372 0.0 
5.417471102940995 9.130808580260187 35.00988621211478 2.625948033403674 6.153104434711867 0.0 
6.920398666154522 9.855978037760156 20.08229728847921 2.6267391519831187 4.456544663106417 0.0 
9.732730701100293 8.13138755069949 12.782008434194815 2.6345390011753467 0.8987168445128653 0.0 
8.82160904395432 5.130308803207257 29.02913389131058 2.6387583740842318 14.118372267192669 0.0 
6.978797195723681 4.615148701117192 25.11960187767444 2.648771852816275 12.210364385641629 0.0 
5.073365784788548 5.71847872854557 33.98824225146119 2.661445831075014 9.99304610166185 0.0 
4.907098260151502 8.540911963977997 32.23222644228855 2.6750032264142507 7.056633950393085 0.0 
5.174949230511446 5.542708707755537 34.99296220950505 2.687132161343913 10.291890482838156 0.0 
9.17814811004431 9.15306132478241 20.945211505999183 2.709132248553034 2.110008329676173 0.0 
6.651863060643084 9.904165538291878 34.016332734484905 2.720728303759756 4.876773023088544 0.0 
6.907621840737189 9.956111722171368 22.00799260819238 2.727684632946682 4.627920634945175 0.0 
4.845258596996366 5.943574354178981 35.99375500349707 2.736700419004381 9.959550057934191 0.0 
8.913755738183887 5.07137466754933 22.48947016775802 2.7412572837177485 14.705702408952938 0.0 
7.816297006468936 4.560791156167069 29.231320360501556 2.7481878584414363 13.520913396665431 0.0 
7.191807001027769 4.477637970720815 30.820239531010188 2.7729727092992422 13.00912876699486 0.0 
9.867637189879463 8.26487594290985 21.950927421313033 2.8074895613941657 1.0383897285414179 0.0 
6.100293252541759 4.6575172290270785 24.35915954119038 2.8359817564544456 12.180464281664225 0.0 
10.081417732045054 7.0876962647361115 30.79147357887608 2.836065738980632 17.657134121801995 0.0 
9.678883850026965 8.790095830474534 30.74233424420526 2.8759992913710604 1.6252241530448703 0.0 
8.447889273767201 9.86643409984227 21.186625788985268 2.8776146564514042 3.2846468910906097 0.0 
4.399492558890243 7.733681551361382 23.256296117463457 2.891252412873951 8.597170809034708 0.0 
7.33334758313265 4.317309207343312 21.67244483681113 2.933874930011053 13.908918688223281 0.0 
5.90316127204251 9.8733788419784 19.628585243441435 2.94891354699762 6.0308383743414495 0.0 
4.499722907666223 6.180991989722443 23.172577988946124 2.9507290981473573 10.363881385857042 0.0 
4.297408163350694 7.044961972673875 33.12483648716796 2.959702543584052 9.503382154806923 0.0 
10.191791826665845 6.810607135581542 20.97518942350726 2.974425195014968 18.247857826468714 0.0 
4.896768655903973 9.079476744264142 33.786975030109275 2.980718523550874 7.394462568164947 0.0 
6.5041080472136255 4.355274143189742 32.30410250883849 2.9892796107619897 13.332791048764523 0.0 
9.64201086463568 5.4484563266849655 21.8598028538308 2.9945409637199076 16.882236930569107 0.0 
4.916872329382874 9.141772121937649 22.329635516414967 3.0037121181530964 7.3899796937341335 0.0 
4.665626915182116 5.7121262518310125 32.046579038016944 3.0073310271465687 11.062096245665463 0.0 
8.12519769935186 10.16050368544372 29.11733328614256 3.0392437736930993 3.8862644266390767 0.0 
7.603521321077569 4.143249374719531 36.778089444248195 3.1267997652771133 15.088975618812242 0.0 
6.290407415596347 10.30120080335368 30.997940129838128 3.198537833202636 5.9988552035219165 0.0 
6.463275457443046 4.149640796725338 33.91814291615347 3.198618873074963 14.278255573685893 0.0 
5.425204575069335 4.588185732372342 27.96997265971536 3.2272486018579443 13.268606324439926 0.0 
4.26995203009478 5.98974654290539 19.821163657749914 3.235571770036191 11.459362172369453 0.0 
10.380011789115791 6.427432683083683 16.68537853542263 3.2362927541961857 19.502535328295714 0.0 
9.603186394206936 9.488050502688868 39.80316879227022 3.2475153977258597 2.4691707291845724 0.0 
9.775191705539179 9.361417196277383 25.217086599591646 3.29160686085986 2.2922525631572306 0.4254770892129 
4.0842642445880095 6.337412966299372 17.180758781163107 3.2946468653214462 11.275117284515488 0.6114275486970507 
10.23310628915499 8.693671460733174 39.70761754633023 3.3140776120862787 1.4937362888425305 0.6178178028185543 
9.984701051816236 5.3730150606433025 38.73893250057895 3.3168753828530653 18.845403286459785 0.5340106247478189 
10.507477849646373 6.607127403241998 13.14973624913982 3.3203082863793147 20.215153657219183 0.5268326344866675 
9.47449624441681 9.717465959522663 14.209017525387793 3.3221637230617627 2.7811034925714075 0.5115550505503523 
5.065796778643039 4.737802564019585 9.099536861837699 3.3289457294363776 13.304854278310874 0.5151936427197422 
9.419890023721308 4.708377592841728 36.95618226894918 3.341895745772788 18.109905195678575 0.46355412522552003 
4.337669032353364 8.891619858190168 4.606054767733866 3.3431403536073536 8.78680257364713 0.5552409438551124 
4.447367754652587 9.083332252204507 0.1273081115330328 3.349008009789515 8.581189917515669 0.5118130046288412 
8.278075151076038 10.44215250211268 27.150385495893737 3.353621343116163 4.2229566795634454 0.5074519993668992 
6.031510477759081 4.123581260369189 23.50468434940474 3.355474757962815 14.565306771629508 0.4359652431873241 
6.479916436221432 10.516009648227413 0.8024611729728264 3.355569656186035 6.04792520923117 0.5594114220863283 
3.8940207131819005 7.1453976559892105 11.775871015190404 3.3576090635934173 10.652859239699183 0.688795879282322 
7.526879854133121 10.603784809995897 8.870834518294068 3.3651946459876583 5.008842185404589 0.5840269634109039 
8.771688162195067 4.246712912556497 39.455473347633315 3.3667890032744068 17.444551606217466 0.5739472860560492 
10.178372628748185 5.587469693058306 13.143488079160775 3.367398591539349 19.419216621629232 0.6217436142417758 
9.758335396344911 9.498226846161682 28.248288621660357 3.3684225406499864 2.4615368411260548 0.5181036993010334 
4.4662699479913694 9.147663363365922 9.907891146882847 3.369017548650828 8.568273316984065 0.5355202823274063 
4.2279669390742125 5.76015755810765 2.8807081612504746 3.3693195637980433 12.128267768648175 0.5756090095542903 
8.125443446362048 10.506395238519923 11.5087169700859 3.3720188577814145 4.411166034564811 0.6144498004956251 
8.205544507474595 4.015502524096744 35.96633765127946 3.3726902062581137 16.86224123211305 0.6028709978564144 
7.498048849749045 3.8855976110342514 18.285848571971393 3.3735340026062093 16.145677360630714 0.5092734961900393 
9.412726081503706 4.660460469367594 30.620478180526533 3.373884865303539 18.24669420439964 0.623825160148577 
8.984262117172577 10.145041457126332 1.5660122373590042 3.374748898738996 3.47963210546515 0.5351659412237786 
4.767335288773571 9.536285897324476 31.959253899873055 3.375015151473218 8.091092102535576 0.6156238350106079 
10.283855678749834 8.729720461447553 25.809286952350007 3.3754781770156908 1.531752556321635 0.6266248301634775 
6.387589667566695 10.514043190118514 7.105998259209059 3.376052358664888 6.175166932194397 0.6485622496081211 
5.926376485865729 10.35781185667113 39.97974841960244 3.3779392747109616 6.666129373212478 0.6647127438413094 
10.599427127815364 7.705961295609214 1.4614878459314724 3.380319923859146 0.45735540570391464 0.4466127520361663 
4.377165727387618 5.461852727935357 18.956496472272953 3.3838805275140147 12.514754282911 0.6340218172670663 
6.495546749762914 3.95022188922278 16.46339169946134 3.384927663504463 15.190252004363074 0.5725753243057735 
10.329826689498042 5.843870625457139 7.597212610611933 3.385636166999751 19.822522253249396 0.622791320887474 
9.035292890981136 4.36936561880842 15.71721538785311 3.3890006114916496 17.850574702036084 0.4854054251980571 
10.623074548096097 6.898867834850458 36.1786225027023 3.3913014764860265 20.956413022265764 0.5578176124467973 
7.961739554110835 10.567238124663138 39.852766558097684 3.392733701398404 4.612227397334596 0.6983266817373657 
4.416577429260929 9.118053160974931 27.31789372256287 3.3938040716284785 8.683770258698164 0.6210050170135796 
10.42899766050781 8.439588964948019 15.030758087557615 3.3942816664266715 1.215394966193566 0.5367964088306685 
3.8736990336913255 7.602961525732972 35.6390095449122 3.394700289236832 10.311164892883248 0.6135325244701381 
6.093565450552802 4.05562921649258 2.1855114820046175 3.3972555938111206 14.829170054508282 0.5492363047186638 
5.850082833891387 10.345554828617484 25.364957099145116 3.397385431319588 6.77950653890742 0.6552911604732895 
4.054132324843414 8.40267550959586 20.657099291898945 3.3973859108927904 9.497181680700802 0.5917512125353958 
7.7055688678489975 10.616722908447988 22.396653462443723 3.397405794959105 4.879687246822144 0.5710892371410263 
3.875651278047661 7.6496985318515005 25.167571199121944 3.397938818417075 10.2743135558085 0.5746256185338665 
3.963688894007616 8.119922960477851 34.771720562915746 3.399500940216877 9.800138778303115 0.6325231620553078 
5.079732959473679 4.632759912271958 34.541494607554625 3.4000006917654546 13.668286133067486 0.6903704865990075 
5.273607523204696 10.0228221535572 18.839949787508388 3.405094700238258 7.457305055068577 0.5946514369500497 
6.023258954025081 4.072678496028605 15.565842973562823 3.4059162546191115 14.79505747925376 0.6079551230542207 
6.70995615180734 3.886986782085833 2.9673944837902937 3.406098246063395 15.508527335295042 0.6498394829893386 
10.655848696516241 7.10874407868398 12.28006430868578 3.408776698299293 21.27667928661219 0.483802171765432 
9.473333435824806 9.835543093390688 4.132589050580005 3.4100212102913408 2.9345867214645196 0.6344581351806706 
3.902952040285248 7.919082205676258 19.7734553926504 3.4132683812708433 10.049655876939031 0.6926192856476283 
10.606544481749665 7.874998430061066 37.911499742891266 3.4142369419158585 0.6285427252756257 0.5920243740370092 
8.288659518876793 3.997538049069041 2.130479450246 3.4142821117193862 17.14481157309437 0.6222278299228845 
6.179081532279007 4.007859912115691 28.425024567192 3.414430950242275 15.000823997691498 0.5987051743755936 
3.8617480617596733 6.816912028186884 24.604157856484598 3.41581855319022 11.165367265652947 0.7325775632121173 
9.307679453687163 4.523044689058061 23.42356103291622 3.416186470613211 18.30668965128049 0.6450661863284884 
4.836325672085561 9.667748498407617 14.289930009121143 3.4163330579417335 8.046664253859408 0.7113143957402008 
4.696891513358686 4.979950786724977 6.476891193648051 3.4163557155616076 13.215729712554332 0.6088034115320998 
7.874913970165558 10.608906824196449 36.340756461796836 3.416543944359788 4.738242721051769 0.7558885211286178 
8.278131586538574 10.508922654832379 5.177118725667597 3.417254955284731 4.323500821121048 0.6945094216132466 
4.164178458584759 8.718602495682646 1.0273424441858907 3.417468050441384 9.218259162865557 0.6951101140674418 
6.080759935933131 10.461547042384625 11.679953092247757 3.4177707256146577 6.56196122682546 0.7089790724687685 
10.651205753072858 7.589624818484934 33.37712278162918 3.418120183970545 0.3401861363119316 0.5685862711213808 
4.613232985915721 5.073846373240351 0.1415718497231495 3.4187987501200054 13.099393742400618 0.5624064302245383 
10.313407988595849 8.774046278971664 26.836512691634283 3.421576473650739 1.5795564776384783 0.6277963713798494 
10.004209459520581 5.218546224781678 32.504936176910036 3.4223492206029227 19.328331767864398 0.6465487499227751 
8.761852250985815 4.177495018344988 29.923774882828894 3.4243224280294844 17.702593795603626 0.6514254930695518 
9.63418748432499 9.708847430689783 36.17343235809548 3.4249497292400766 2.742743872194346 0.6722308312727531 
10.3777408076026 8.647433077398718 3.2458009463127624 3.4257235389550353 1.4394155654027863 0.6076518924475894 
3.9435241308444127 6.351539521699287 30.677313382190462 3.426370368827127 11.673348921844843 0.5986761111035215 
10.153939124045621 9.068827911987572 4.239217495456209 3.4265138858011244 1.9173266381885057 0.7992233262575258 
7.57565461569034 10.661061612139667 2.4675734886936667 3.426571500863987 5.056299076933875 0.7749549354401651 
8.198784093672575 3.956333005318726 3.8922163773390324 3.4275987991973156 17.11351710888917 0.6521402970607834 
4.582834521863182 9.402961923098394 23.28343218212585 3.4276838725408036 8.440572030506207 0.6510261231589747 
9.279288504499718 4.4851826427356265 32.361215659756425 3.4296103063650034 18.333155607040673 0.6969544178405767 
4.43052418646303 9.203503103730174 26.288871206450978 3.430104698023572 8.697628894727494 0.6790717242377488 
3.961601184329142 6.269597728127007 3.7692185501663253 3.4314363443897986 11.774431264847873 0.6089906148689743 
8.352514949201385 10.499658203382829 20.34572388547842 3.4315911254148364 4.2679089367987295 0.684811632696186 
5.8408547169363985 4.12097951664299 20.823220027056095 3.431684661219346 14.719341242890913 0.6640713074114071 
7.9639553764808255 3.893330853889921 33.13738947897998 3.431757572447863 16.890985173842147 0.733377933787068 
8.873601130497647 10.274760798894942 19.497616500453198 3.432966431744535 3.7013116098115475 0.693913623221754 
4.580103791316137 9.408140840609647 7.248198517046156 3.4330624306953372 8.451501928713135 0.6679151689218934 
4.841272998813761 4.803144336501905 12.796622096334517 3.4335212834983797 13.510367862977642 0.6506927990665051 
4.470252200025177 5.233718549665451 13.646715065226907 3.4340047638912874 12.943204162931096 0.6595830100621219 
6.8453773761672245 3.8397472836665987 34.81698766241542 3.434172834464895 15.777593530561262 0.6837343159396847 
