75

4.741429677801403 4.751295799770007 21.331549549741762 0.008667728631638338 0.025929796906393854 0.0 
4.744752966703924 4.743081864039572 12.591157877250481 0.008682854575373766 0.03528281638611963 0.0 
4.73354265006326 4.739757281208332 7.556415551239375 0.01938446943265426 0.0716896882370528 0.0 
4.74134796711007 4.771372618642513 15.577006991163465 0.023057460848210032 0.04508770554639607 0.0 
4.731197745290112 4.7638188771277346 23.875996516774297 0.02333422694770315 0.05851728971145986 0.0 
4.7443875231754475 4.7744993578317345 18.6860586073481 0.025134009434897964 0.04514060855508362 0.0 
4.73322813733094 4.720509518163395 33.57047824224978 0.033926153574272755 0.14232992310604597 0.0 
4.733792842946748 4.702224933851559 9.57724165539532 0.05044927041332481 0.22123684721824954 0.0 
4.6901309151199575 4.737094351428294 36.69556612157286 0.06124429025982647 0.20540773327562345 0.0 
4.744652631052706 4.68825573941963 10.63470619247584 0.06197538276828496 0.28669808469415337 0.0 
4.6724806870528175 4.740459364752572 35.64101009382267 0.07810420987838862 0.2549361343519667 0.0 
4.7488354473655665 4.6022983255405086 4.782298766415696 0.14770626534096543 0.694884812426745 0.0 
4.66876254691536 4.9119617061848135 22.31734994983283 0.18119359275088887 0.3688577160487152 0.0 
4.71276413851103 4.179698105415584 38.59094456367705 0.5715161943002134 2.6559443605474047 0.0 
4.623996409817957 5.4710685747652485 20.531676166979334 0.7319950780249506 1.2764494900901426 0.20234336455430962 
3.9767852661411034 4.727333831550172 8.219681903596353 0.7735468827735529 2.452838617301705 0.5830140041200206 
5.611279324917033 4.699165783434903 27.204986022395822 0.8627781830246567 5.3701315287164855 0.99873201628772 
3.8895487701018983 4.615537558233842 0.11912948875892937 0.8708940620298611 2.8709968635567815 0.34946731826711996 
4.618474155791249 5.616602273099459 39.41516500019638 0.8765264100048391 1.5088689521756358 0.39073506288912097 
3.9049394591857993 4.478915972304848 34.26815551996836 0.8874761223337864 3.063575467635303 0.48106133663107037 
4.622581517033872 5.638193989967835 16.129005036857972 0.8972870408160215 1.5373058400835813 0.5676931038226771 
4.725478536011299 3.841662963841566 31.163707883711965 0.9086679665605235 4.257472471178431 0.4862582399798868 
3.8409716555268076 4.775564502650383 22.92152381582868 0.9093877472516506 2.8313579950309427 0.4688393907787578 
3.8618597694410246 4.958565028401459 17.97733172066857 0.9123006303897027 2.655651064252406 0.7277562976425339 
4.705056890372579 3.8367397000315586 39.568342418261366 0.914365495084667 4.263884657090202 0.5531312007325658 
3.82983375168095 4.709936248275922 27.34125499848652 0.9210380169937405 2.9336026645795252 0.31976629060210826 
4.716345026927962 3.826625258316473 1.3032615248715302 0.9239878629027539 4.3205278040744295 0.7773270768603039 
4.729535120501121 3.821613557959674 26.77868491655055 0.9286119733544244 4.355514293865363 0.8330108894912204 
4.748524294204326 3.820298109751036 32.96595563603865 0.9297030614341829 4.379646755317011 0.8238247063637253 
3.851144342510893 4.507732977774499 37.25063581747397 0.930932222590982 3.169698328603702 0.7629353037094915 
3.8210825868762752 4.682767592888655 31.763073383798982 0.9313472805406469 2.9932047120441245 0.26301837240927595 
3.8067318209720833 4.69860786659627 6.220190635975371 0.9446671418771948 3.019176870415799 0.10550132267568642 
4.567446305642773 5.678214814852573 17.972647009885378 0.9459960855285132 1.6696733209478962 0.1634642417008528 
3.8068320491084124 4.635481038871164 11.004825049114356 0.950094930018607 3.0996093403838163 0.0 
3.8063822964283753 4.564913835339415 1.816824678698552 0.9615982835064498 3.207198585844745 0.0 
3.9128102853431415 4.276220378735379 12.966509301304747 0.9619530902559027 3.5174524495643675 0.0 
4.583599061375293 5.698051758795297 31.13807602246179 0.9625442378041853 1.6792020887183474 0.0 
4.497934583092413 3.8206982937376237 12.17208825135991 0.9628803849196235 4.282429899508706 0.0 
5.641043621929949 4.3775069949981695 13.152264438287148 0.9657690070391242 5.685697995671991 0.0 
4.420693337056871 3.8394799226831484 5.9173067381901845 0.9682405121950964 4.226715389809171 0.0 
3.7964158252221374 4.567418633051224 26.254949695560413 0.9709061406457681 3.2338665874926633 0.0 
4.696497889649534 3.778829420808141 29.538562682200265 0.9726431872479266 4.529943909506685 0.0 
3.783365752807377 4.866490123855731 16.33282403510743 0.9736281203835334 2.941973094296208 0.0 
3.8671020442677513 4.337902895718231 7.220002170484044 0.9743371200942744 3.4864631231470185 0.0 
4.710484053645596 3.775638367160668 4.062945985162642 0.9751626026287169 4.5558187337231075 0.0 
3.7726987607617115 4.743150741331434 39.11345758488734 0.9773252399078841 3.0772071085985084 0.0 
4.701990156334224 3.7733108532800452 7.20349722149269 0.9778684136474426 4.560067184494651 0.0 
4.712457802557489 3.772661958346819 33.993120788115064 0.9780588245352564 4.571442204474111 0.0 
3.7710900626133874 4.70142700865684 28.964233574264895 0.9801142795624799 3.127712716608605 0.0 
3.7718443540595983 4.812701495433854 19.020806938442774 0.980163223761596 3.016529243990278 0.0 
4.720676217787049 3.769608530497419 35.892517818340266 0.9808299127150972 4.592723919950391 0.0 
5.718087291518707 4.591335612438276 1.912230365156347 0.9810032578337152 6.004460851086759 0.0 
4.743049437276202 3.768846364645044 13.280467755885816 0.9811782541885167 4.616742971974271 0.0 
3.7780732400313024 4.6057708739236825 9.889620767032945 0.9825699301077703 3.2315866289779995 0.0 
3.7758388865996393 4.613072881157668 3.504503192909848 0.9837372163011278 3.2278747695330683 0.0 
4.465205893484983 3.8079641268975566 10.02295486633944 0.9841439271354425 4.348742296631458 0.0 
3.7695686289321904 4.642181001056719 36.20421159790186 0.9863420349488492 3.206719776221485 0.0 
3.7954474833979237 4.99882144537579 21.55395615665809 0.9864495013077229 2.8474839933551204 0.0 
4.740491328343564 5.7383197982384315 24.153380307051748 0.9883655388704745 1.5620297763316913 0.0 
3.761426372947973 4.738661072598076 33.29976045820882 0.9886386535926196 3.117239107191465 0.0 
4.721189980722526 3.761168346268219 36.94792689518645 0.9892512606171887 4.632922645983857 0.0 
4.649997137905665 5.73443702861486 3.8635899516681107 0.989503327803961 1.6544820780413048 0.0 
3.7602132785291387 4.729456156952364 30.66077564402098 0.9899999007511069 3.1307217330155295 0.0 
4.679559856541741 5.737980683260791 21.53296289955555 0.9904885886807986 1.6263554917716725 0.0 
3.7650627082840913 4.627110019567379 4.599975081856279 0.9925741362252997 3.241469739092321 0.0 
3.771119907586664 4.927945155579351 24.69059240691719 0.9949224661838229 2.946733333143249 0.0 
4.701416639473424 3.755883555712611 2.3311465887090144 0.995302892451667 4.641651708242976 0.0 
5.7440481339328215 4.680783954854588 7.921003115098365 0.9964549932038559 6.191639544867938 0.0 
4.515135673902249 5.71862644852763 25.138808582094306 0.9966937586142487 1.8026969834915798 0.0 
5.71495239423856 5.005878367041923 24.672700720416735 0.9983019893132391 0.2587663126085298 0.0 
5.7386415334683605 4.609208575177497 28.971315153462548 0.9986161960444172 6.133228540393996 0.0 
4.657240706670496 5.744577050939589 19.03035382911429 0.9988932859693666 1.6619510339749857 0.0 
3.8870076741007544 5.253879679611792 15.367166089398985 0.9993250152411247 2.6113503126270574 0.0 
4.72719652645398 3.750874643858589 28.49513322967138 0.9993855490702596 4.686687995858746 0.0 
4.71317868647508 5.749107914433036 15.078206573667075 0.9997861940497238 1.6072901238079167 0.0 
