441

6.9401144445157 9.757347848965857 6.295385214590617 2.526424804582855 4.279166700684893 0.693010623088009 
8.781525256258316 5.238740328089763 14.938080821703103 2.5279903240340085 13.558102888069744 0.5594615931369332 
8.647105869466067 9.356892917059254 36.85963523400528 2.5280234521164937 2.4907571518808034 0.6101398652997343 
6.583688928471409 4.811059782894054 11.968641606990147 2.528319565770589 11.240149802604357 0.6183060834543027 
9.729279891291498 7.747966916584069 4.7900180478172985 2.5287941453140523 0.5012426816203455 0.7913640789013177 
6.558094338263414 9.682636184663652 29.30560706683883 2.529120845605857 4.673574509353658 0.6713187191540333 
6.51549599219652 4.829824794863258 6.117644953000806 2.529178554597925 11.173231844727766 0.7195235152012242 
6.170662000038099 9.537314109369893 19.67797152367895 2.5291849187207225 5.087951247114777 0.5051510524284659 
9.56249355258782 6.223028544514754 11.042332245638747 2.5302760325983664 14.840704401837897 0.6028531120230438 
6.531105695578617 4.823916134979406 21.23137596437843 2.5303541137640737 11.195078167325047 0.8030667902936064 
9.719946946662631 7.80311420092246 37.059959577382344 2.5311209450735768 0.5576137545967637 0.8113222135028434 
9.761887814329784 6.933015810327957 39.801648486426544 2.5318095047377627 15.590010062594855 0.9374020327964608 
4.922590355352394 8.248135590366903 14.544240591622152 2.532411955183393 6.929834201673113 0.5123843003807996 
9.326127619347567 5.799139402883972 4.728829724204772 2.532844717719912 14.369448381479957 0.6440000628851184 
4.928738071766929 6.234795630102328 33.78505988856027 2.533554193642529 9.00394087640696 0.49450298321944397 
7.802649342932735 9.723652298524524 1.831170754861887 2.534635474824666 3.4242714137581913 0.6748018148305589 
9.783461788247692 7.165692664690264 28.394662046120843 2.5348641697925816 15.842698421263272 0.9534780818143308 
6.500239002204541 9.672643412235612 22.485293801779235 2.5360091988523723 4.744690651398676 0.7007154976226555 
7.756060313921051 9.73595874898118 5.477831608347202 2.5369446077835365 3.4755453103940592 0.5898439463432398 
9.788355762853492 7.217932951266203 25.858660942792696 2.5385583062884387 15.918164349886839 0.9704238168234364 
5.921254384591268 9.413388460683807 28.42887890989745 2.538860874937375 5.386419519120892 0.6775066137171829 
4.710945211469911 7.208011222096346 5.701133420326123 2.539401952552493 8.019757210100519 0.784305007214056 
9.386939124154484 8.621887915179823 36.56680837710131 2.5394064802938865 1.4492946299426386 0.5591655570370078 
6.6083614529920105 9.707248375286948 36.74704881593692 2.5396396600417304 4.637925213215809 0.6723234320988833 
9.653963151110638 8.072033297170936 39.06168586591522 2.540625429604987 0.8370971989901079 0.6633237465739178 
6.159286837701131 9.544948706390866 11.261747156757593 2.540953515390848 5.118655339502872 0.6487925734211951 
8.032629639284654 4.83234546376989 3.6938315080987962 2.541173470828164 12.770559731436933 0.5958390681814786 
7.275920817799539 4.707863741127682 0.7292777735209945 2.542268405866845 12.006078887916921 0.5977144953958736 
7.065739493535702 9.785697325907545 26.21899674846074 2.5423833036851753 4.177988554498132 0.6312001623262067 
9.666603759760454 8.04065705220169 17.839155076956743 2.5426585114569784 0.8039876448324126 0.6704649960138188 
5.0108462685419095 6.042080492616838 12.555032379833818 2.5441853252897038 9.251428139303062 0.5446539689672792 
5.928205711852492 5.075733690004375 12.818864672890708 2.544518446968182 10.600874755579888 0.6255163052534463 
9.74318237455757 7.763563792977575 31.05810499176866 2.545526688577835 0.5171131861069824 0.7174495955371627 
8.46098355534128 5.010102255348343 13.89650959986411 2.546295952516632 13.261158796546162 0.6183073644003918 
9.64922014332383 6.393154277313439 20.391558862207063 2.547634567322611 15.133377963215494 0.6321423624097595 
6.808170427981338 4.740299545560088 32.83151355452634 2.5482954580907786 11.564485697275991 0.5564979529135726 
6.268622998625478 9.602446772847735 0.636091731148273 2.5489422586454515 5.011268147948513 0.534316515911589 
7.110439128769993 9.79578223894453 11.011558171552679 2.5496047624884732 4.144540454846904 0.6604416670195444 
9.327832963706754 8.728922942720523 10.354847662713652 2.5504122991335207 1.5776251367438263 0.5195709146815625 
4.931194487091771 6.1876956197659485 16.29421039358367 2.5505586844764117 9.108512642515471 0.48611170094910033 
9.51426781385626 6.074563196748741 22.337341311694885 2.551188039189381 14.808002193313243 0.6716182075243495 
8.796416762734886 9.279242953406294 39.54561796515305 2.551319613066253 2.346238646214168 0.7127428145047494 
9.348444475200349 5.798510667909008 21.35394962796053 2.5515270911108963 14.487706255908684 0.6349469976061155 
7.46325371824441 9.793415663253237 8.832559763545575 2.552340178037986 3.795703955612689 0.7051685076648143 
7.540921390223268 9.78598596788064 39.12587542408197 2.5526182802324646 3.718088516209262 0.7659548400106109 
8.198994684930597 4.878777550085854 21.978868297973506 2.554072594701131 13.008093995538903 0.7040301838847026 
9.109108698914735 5.497409972406775 20.428224318351603 2.554967115091631 14.121996346858264 0.6090110457516474 
5.37522774873171 5.513713542208452 22.80889574828967 2.5552811308417516 9.936617307550996 0.5715428538997798 
9.771091543576473 7.678208536324734 30.04653823649292 2.557198686389889 0.4302353952888076 0.6536222230878027 
9.299308671762576 5.7203037016086125 9.71717117763093 2.5572713578096473 14.428031037014748 0.5947143169831851 
4.701054453489602 7.471408814575973 13.748675343558325 2.558543582245011 7.816215629280734 0.8379993830865519 
4.692783984176961 7.334428094708773 24.618181302357566 2.5586093595463177 7.95366494361963 0.6976871438291359 
8.298378763794338 9.584181873584587 29.21896306880844 2.558808912628261 2.9391918972601623 0.5968725000936465 
4.75339322096548 7.819233464139531 29.495465432238753 2.5606780636810655 7.470578258738284 0.6560866134015261 
4.690391988652729 7.155006349659388 11.713132981318019 2.561370134392559 8.141797037648061 0.6164962051719828 
9.23349029281601 5.629214387740372 32.263067505731826 2.561479990670073 14.33937317588622 0.5041931704076806 
8.389587859197173 9.545163332967201 22.371981713169312 2.5625056514721494 2.8442247342412905 0.7040305913144185 
9.660523871086644 8.122243833524474 20.391833474787653 2.5634809611541916 0.8900170328800421 0.662801124086851 
5.055806780566067 5.924351252921909 25.525650418238428 2.5635577787207304 9.446882235166225 0.4435732273014223 
9.559094484103781 8.365785392659115 4.0000069846543305 2.5645456476713346 1.1543747495288539 0.6991621406202833 
9.383288877288757 8.675020268167925 3.025836184477626 2.5654637394929813 1.5108521331879032 0.5004041403096795 
6.39755867809626 9.669826667720763 30.299828167682218 2.565583229813754 4.898969085083927 0.575404017347299 
8.3118191142567 4.914399260674234 25.71394830836636 2.565636498988107 13.185014297445845 0.5502507269228324 
5.373545732021441 5.498128838505533 28.280527728368547 2.567125471474063 9.992967294264952 0.4558474773057524 
4.738032559634371 6.717063325257778 10.688253127064556 2.5678788757926925 8.60406803751169 0.7711425319555472 
4.785284708134 7.970977188325726 28.44788714906125 2.5680010856781528 7.336811945343191 0.5506627792981805 
5.137489582049911 8.710640420785738 32.96579704303399 2.568301132028876 6.514869785159794 0.4700839428325115 
5.060999419228635 5.904605899981471 24.5249672444305 2.56939853408965 9.487991567564164 0.39825644606869043 
6.5550528815059135 4.776326473930428 7.1671997305751916 2.5694381119382297 11.404480215476386 0.4784535726686852 
9.70292501905447 6.465606776259067 27.539664778593774 2.575289086404491 15.383960895355589 0.36644226479744785 
7.3328119226399835 9.824709758003756 31.711851068188874 2.576041178337622 3.96360982797105 0.6953696081327075 
9.39944135089706 8.670104051554397 18.58568868085226 2.5761975153678325 1.5041132705150435 0.5350677772231325 
9.014915967586344 5.3714682087836945 31.272243861111686 2.577558934971531 14.09051884222377 0.5197142012676592 
9.189534810035575 5.552164024720627 7.543784436029675 2.577681570383083 14.342576950450702 0.5040494374660133 
8.920764270139658 9.214084191937669 14.095039444777562 2.578580997253093 2.2328455877877076 0.5435460015704521 
8.973431985332322 9.168756541463063 21.456784795514714 2.5791169949177952 2.163815167919296 0.50283747062294 
5.783206181892323 9.371421343210432 15.324028698202909 2.579130206148509 5.611519013267081 0.7610705475616523 
5.691580830547338 5.192828725158808 35.32681273764814 2.5808184674147956 10.488628342099487 0.5677865667350369 
9.026963159490542 9.121801386302407 23.314256415347828 2.5809375234496104 2.0941318920401564 0.419645611028009 
8.453635896844503 4.966717323020408 7.163236171784291 2.581108125431354 13.415363983093174 0.48449258920313315 
4.72321235821237 6.72160343894752 30.674056993754107 2.5814450822015917 8.642006621750507 0.7100549602890893 
4.929622095551721 8.38305257223716 10.79460666113502 2.582239677277271 6.939367821238871 0.4964883022755174 
8.947051947337533 9.19739517318043 29.88952260057804 2.583085997888677 2.2059092435273193 0.44991890616060376 
7.166324051049822 9.831951968795392 14.951956836619324 2.5833074988469935 4.141540517857546 0.4991643156512261 
9.338554538968069 8.771351215670855 22.33312700915993 2.5839058774783794 1.6266933765282854 0.4381858892810273 
5.291897064756721 5.5629519851994536 3.6161217507625807 2.5846272669866357 9.9579666715535 0.4057522616904349 
5.1867454126870705 8.806929732817286 16.3230602935263 2.5847726563468507 6.4494076732631065 0.33438411776049265 
7.049857792995171 4.668981974539522 27.25659545149819 2.588766298988125 11.998931656091564 0.40087841537608115 
6.26349341722902 9.643496052990331 31.31288420706704 2.5888257171024014 5.078609362195824 0.44182298066962017 
8.520751669597077 9.50565703106751 26.116783619065203 2.588976331986847 2.7384954700748594 0.5873025847883798 
6.252511267440342 9.640004117311765 24.411814069244343 2.5898076091383047 5.092019802689833 0.45271659998169766 
8.882860816371439 5.239163928088333 4.028167128533468 2.590308119460375 13.973217292676328 0.503773034856919 
5.370664112456872 9.033416025907924 31.850313133716625 2.590844669151884 6.172367268636139 0.4907743940428277 
5.430133267507234 5.405669226520445 30.17883249431791 2.591036650847994 10.192275952148286 0.6496650428047994 
9.66702126823765 6.3149976736272055 8.010874149463113 2.5915673175581775 15.326721737954959 0.5201584481075482 
4.864024318627033 6.237146997249813 8.787720599874312 2.5920553924025738 9.18376103560881 0.3566903922262186 
4.774775049992238 6.480384574373156 31.820198821884134 2.592112354143569 8.92475754655694 0.671976942253138 
6.4413730707755885 4.779574952276974 23.772226128230926 2.5993994358474835 11.42710924831001 0.26179881073211153 
4.741014897938989 7.942501391094249 27.436586107855504 2.6027993428290945 7.475991986256936 0.0 
9.453873467233203 8.638147095908993 32.75223562898552 2.604613333962468 1.4640310250796063 0.0 
9.38080418349137 8.755723210420717 37.63746952137967 2.6091241547277866 1.6050604588269852 0.0 
8.832419144054084 9.324672572341926 6.555192014616132 2.609275115793026 2.39843633447801 0.0 
8.760389935014311 9.378392891098935 24.250126474535733 2.609853263053888 2.488836181787889 0.0 
5.181303662049322 8.841324305701113 13.637503229259607 2.609945896865615 6.4880413455929755 0.0 
7.5560527852200785 9.842942428401718 20.57153387399333 2.6109421181532837 3.7945002546604627 0.0 
8.960628356266506 5.275686181601754 28.51619735985399 2.6123101704777145 14.17531281678513 0.0 
4.636302836926662 7.220616197044221 14.737116622287694 2.6138623276932083 8.24107510804835 0.0 
4.694055362703258 7.799320432530864 30.514982020757337 2.614307924962524 7.659645502904919 0.0 
9.430585345993752 5.802642515007358 19.416059946424262 2.6172115200202914 14.910794682090486 0.0 
7.859771185953331 4.692456625136062 18.359336696545984 2.6292297376854212 13.005327419040416 0.0 
8.481520310952098 9.573139208811492 27.14804725592873 2.629375982967224 2.8485385285581835 0.0 
9.68271234604703 6.247860875968348 6.863450122052097 2.6310401332029456 15.503208551639062 0.0 
9.48406889679899 8.650621169050927 34.60110513256511 2.636816924786062 1.4765943587682209 0.0 
9.34710519983383 5.648632421616666 16.575126134197188 2.6386034829559706 14.858059140931278 0.0 
6.971405658513396 4.624843270303433 30.195185271544076 2.639898229587559 12.161113256107576 0.0 
8.966879691045019 9.264093040398082 33.99329307576717 2.646553730590561 2.28898151860837 0.0 
6.360931909230093 9.74302403770874 12.580837062460937 2.6468114633684814 5.064299382916634 0.0 
9.798692729875416 6.533320458213662 32.357434111246526 2.6475392720288142 15.90924580908898 0.0 
9.778761578127453 8.06383722113427 5.822869574415009 2.6564950859200143 0.8271374249537686 0.0 
6.235114201216373 9.706870005353089 14.467596877613662 2.6582331364604435 5.216857328553939 0.0 
4.740576928444627 8.130145076612664 9.00303992802202 2.6592968070412737 7.457365732520028 0.0 
5.991601667700465 9.59363945457496 25.422117689068124 2.660115083182428 5.489304199567361 0.0 
4.6799239260168815 7.936530632795639 22.893269102659197 2.6601908457528496 7.6628466500722325 0.0 
5.567141516401712 9.323922743994851 26.394734944208082 2.6707991732584184 6.015901663460507 0.0 
6.709166464091815 4.631544356828895 17.371953379533217 2.6737260272543923 12.055045797322766 0.0 
9.896939262264354 7.6547100397504995 19.425483969559565 2.6777000717764152 0.4062669351784649 0.0 
8.742642062943835 9.482718035961282 5.5084486417409515 2.6857047782986183 2.6360296624965667 0.0 
8.982108810798515 5.195896236965051 30.277004531765492 2.6869207658135728 14.544160260031333 0.0 
4.558032588455662 7.638226148696598 31.504906323924388 2.719817657003596 8.155002457645008 0.0 
7.611330060632897 4.549350662963471 7.524656363599981 2.7247139766134745 13.202309705216383 0.0 
4.720118500115792 6.188065247145039 18.045944185878973 2.743721163452563 9.710067127248468 0.0 
5.808678676796095 4.90788917131629 25.730212283607685 2.750070961004416 11.44229470795148 0.0 
4.936680362382864 8.737262012375416 12.4608849741374 2.7501629113999866 7.068512814818753 0.0 
9.423940863997672 8.940870201709378 26.112863643911552 2.754098930537469 1.8205998395977439 0.0 
4.829246832946517 8.589843749362979 24.002336607305622 2.7668081192064133 7.293527305176347 0.0 
6.211504821205914 4.6766411178614575 33.686238816096925 2.775004175250895 12.012495226131708 0.0 
9.646225556569927 5.8430086140867274 33.15521860835208 2.77876261634437 15.984146052091141 0.0 
5.561361657708899 9.458550236629014 10.44383561854465 2.7801427299276757 6.181843818797109 0.0 
4.88242686166833 5.750316791284471 7.2522576604633215 2.8025795781481335 10.387000113943532 0.0 
5.335974978622524 5.18951325813639 16.034174240536185 2.812311752963168 11.147509925614411 0.0 
9.181487136678179 9.299559607300933 32.025790205106446 2.81626297476511 2.2953898468604734 0.0 
8.793716704690272 4.891032227007347 32.799245807435156 2.8191825443482235 14.918701191132268 0.0 
8.315657771286794 9.864190192249014 9.35956245577681 2.823050981961694 3.3416965402418732 0.0 
9.749642839885322 8.576206700569042 29.5837352926157 2.8296711009628264 1.3802979520014702 0.0 
6.1724442043842735 4.628564012129026 9.217060823497953 2.8342641251601983 12.250790497800836 0.0 
9.931569093387733 6.319681141762375 17.309041756828684 2.838363257337732 16.88612514812873 0.0 
5.0634931655465305 9.066880606587278 11.518445426385533 2.8428625143866313 6.960071809683434 0.0 
5.593671710399985 4.934104687489729 7.4788247126977225 2.8472433161632593 11.64959386387013 0.0 
10.095777781969527 7.109387002960467 5.52993634455245 2.84924958529221 17.76169299371278 0.0 
7.151291718559943 4.389921206158361 24.889502586644745 2.861781618469078 13.387100299155378 0.0 
9.643347670712995 5.680495548712928 29.51904398966834 2.8620722030579944 16.321708096769047 0.0 
5.0300601960255324 9.087958010424677 8.907578797537422 2.882051765904705 7.0611733710492 0.0 
6.202104670079246 4.5634044506973765 30.877112051871848 2.883726801901038 12.516796422398343 0.0 
4.549425445959718 6.208758689703837 22.926679919260273 2.894354226454865 10.158001347691279 0.0 
6.710254639021887 10.101893088388161 15.936359246917348 2.902519464584788 5.102172452327057 0.0 
7.906951391107754 4.41488243472574 34.264327555055985 2.9102365435141277 14.376829428292048 0.0 
9.26481660944508 5.142011212990381 6.579223358009656 2.916008006822693 15.96570304609185 0.0 
7.07699877403569 4.3379088013238825 8.696204606928362 2.9172254924143366 13.573998472685833 0.0 
5.131403472968648 5.242769237944302 17.996327690541868 2.9184630503900517 11.38202055242484 0.0 
9.477745993488508 9.146233736344827 16.539664971764893 2.925500742498002 2.063016774512331 0.0 
4.3236727360944585 7.461736764304035 22.067461240386372 2.9339774560883805 9.005441034554018 0.0 
10.1224138971914 7.939763722817736 7.021694746265084 2.954071019812096 0.6961903749267613 0.0 
4.419278798802697 6.39230447336522 39.82596862946576 2.957807318828801 10.162420361936622 0.0 
6.764924436556168 10.182444251512598 9.440579871356498 2.97229332174327 5.15612246513648 0.0 
8.4287357197983 4.516090163270238 16.437359302756278 2.977193459030865 15.241624064986048 0.0 
6.072324294650931 4.507105461754817 15.550567569870367 2.9850277243108967 12.856022867672039 0.0 
4.25593595074603 6.990828575575957 27.67359000078322 3.005260281285645 9.700797378222767 0.0 
8.217324969648631 10.095604930144292 16.660285362236507 3.0055257469147056 3.7362133710409537 0.0 
4.939364357371581 9.181082142936498 5.447593534943451 3.0113311534524185 7.36402331004393 0.0 
4.295986397152696 7.866277837661148 33.10092067275677 3.01761408052773 8.859469913066587 0.0 
4.22523266318343 7.529836450847201 2.245051919078925 3.037684295823902 9.262932897152673 0.0 
7.546880999709147 10.277830687914074 28.441821989945403 3.042350571952963 4.481558903217053 0.0 
5.329348652271184 4.881503997254164 0.3869162022266792 3.0493728723387563 12.292105239935669 0.0 
5.348447155511604 4.818540229270816 18.875631273502968 3.0867296345900352 12.49718611583097 0.0 
10.288822816190741 6.644857478346397 24.428319744985664 3.098490209717419 18.859331074103466 0.0 
4.3967254427195925 5.985873472470281 19.60200156393158 3.120767786431417 11.10571103368311 0.0 
4.566584023343747 5.653471343981783 39.15843027211957 3.1224389590929347 11.485264068621767 0.0 
4.15672746729396 6.807147632076566 1.5219545344074348 3.1248125033942467 10.26123637555083 0.0 
4.182566691847235 7.98144147800617 3.8715185467309396 3.1534352277655637 9.168644669124433 0.0 
9.969389648902354 5.645707187741774 24.38107896701259 3.157346273379066 18.15534512921492 0.0 
10.436099350440095 7.208826034201248 14.02573144728732 3.186365384938519 19.979349058221928 0.0 
4.070720770628574 6.990919994135739 19.55800501423287 3.18981799915782 10.28047449882849 0.0 
7.368879489858745 10.47934340972442 30.37232573372289 3.2315307813851364 4.957170361657525 0.5059865068835402 
4.188483957139351 8.325960314916312 25.433937181779484 3.245084140660753 9.09801336919108 0.49904434467446684 
9.612017435672078 9.508767691770805 4.706673159082129 3.2682040713221254 2.4938268075039147 0.5401980911109825 
5.379863207705686 4.555930566494798 5.971563209633885 3.2795459646786336 13.464464042856823 0.5552347293228838 
6.253008259351489 4.099667357569064 38.056434495049395 3.3043287198593343 14.558507844228828 0.6574645735153086 
7.204416239627729 3.934641500787679 13.317116203731082 3.3156718561264555 15.579150320948145 0.47527740557725234 
4.427783890376654 8.998936946258443 35.40244722080965 3.320193399699081 8.588713446227363 0.6136412601208585 
4.007074472399294 7.989454130552179 0.3506446416826492 3.3261627123090363 9.703763519879054 0.5657274624641533 
7.735327565251918 10.562103236688719 2.500743678821422 3.347472284586871 4.771153039365375 0.6088609130705742 
10.344603264527686 5.957298292359912 4.362452167526506 3.3537511937770543 19.745177945351312 0.6079699066306946 
4.128966430288168 6.015560358890159 37.29661232406525 3.356291371560515 11.808216218909642 0.6531560604448574 
7.421282111683803 10.601965491250015 36.108604055853846 3.3563388113111916 5.100768132096551 0.6399661669712743 
6.82283476651353 3.920373966913056 4.794701719428772 3.356915199541069 15.390763674441438 0.6079993111491085 
4.969259331173765 4.776785534808578 22.245863170480092 3.3643079212922875 13.347742988043905 0.4442836688046424 
4.410969412282402 5.438619546506144 11.879243682752865 3.367668900782221 12.492386224480633 0.6083092295355076 
3.999222310344676 6.3442985086461405 3.426511908342171 3.3745889792686463 11.518527108063935 0.6903985055408884 
3.969223808085724 6.455116513366379 35.29295633507972 3.3756972877843126 11.40748454092236 0.6791852382743873 
4.874400591534307 9.651212134637133 39.7147570790022 3.3777643886202533 7.940558822494765 0.6428736495524994 
7.511732546370739 3.8808089514209385 4.022973829407039 3.3793419844187116 16.18676885582197 0.5962783433104749 
8.371906732856425 10.440807282444565 39.47876273755015 3.382295940767137 4.169327659383093 0.6383669991439188 
4.267256493574326 8.846173061882604 36.382554047712965 3.3829760963690267 8.96567493435581 0.6384087436838447 
10.618636462468308 6.914921216670772 36.4117200774308 3.385260611431324 20.934591376310216 0.5283068443226407 
6.916191862539849 10.619701777795552 27.698233019536374 3.3861952016847936 5.6533741492734535 0.6276230338016503 
10.570031679311432 7.920812445163154 28.144672524700535 3.3871226266873267 0.6752769107507319 0.5151229271006231 
10.636374256359883 7.098838336836149 29.92387531926127 3.3897463699438375 21.147192778461573 0.47835529876909577 
9.903195098041472 9.362848802520435 3.65915479205092 3.391691951015502 2.2809333074651157 0.6130455448112161 
7.560473997545277 3.872466929922439 10.303703257079036 3.391772949744618 16.294262694610453 0.6558077018391346 
7.826245957531498 3.9070477564187307 22.504260924725756 3.392254280922413 16.564675644379747 0.6404410102554172 
8.24607893839035 4.006715474263743 11.9281115889208 3.39279645224778 16.99914998783617 0.6847689537025105 
6.63759010925261 3.911174449812796 0.056006673156282716 3.3945252877049126 15.38054191164435 0.6708236337342428 
10.395298878929053 8.527796301186777 24.614289920035617 3.3949474848838137 1.3100686595081612 0.692065010875733 
5.689798605150132 10.26555914092238 28.95348330790229 3.395265133224798 6.954365556267426 0.6868340019943988 
5.829053289367959 10.334982920183611 10.00073624402551 3.396499546927777 6.801256406587264 0.6724296016706263 
4.183598924100414 8.71130418582387 1.0227594988987185 3.396796355654032 9.16074386218186 0.5753484763325366 
9.181568426194758 4.454112880134533 10.496632139586083 3.3982262096720572 18.068215119103726 0.6878503626961069 
7.439084994188988 10.643174067270035 39.87375207652676 3.3984383745804982 5.149071827678554 0.7105859136444297 
4.189006387134054 8.72738034894039 15.944977721205248 3.3988725473958774 9.149504246534391 0.5520470677167627 
4.032969602974642 8.350532869700068 6.56061733792005 3.4000672306110924 9.560909624438999 0.5075677435592277 
9.631136486489103 4.822839496631108 22.613053379554856 3.4001351556083175 18.660674954276075 0.7250494585164571 
10.637174583222453 6.929143106218898 4.639092045660206 3.4023375499081547 21.056182911502482 0.6183581203046279 
5.057133563532764 4.648419349741246 10.465314409597816 3.402482195101874 13.650869573537891 0.6003257655145224 
6.634138918080019 3.9032790079480684 31.827012154698863 3.4029143790087804 15.41658261868914 0.6426464426644036 
10.322013157872139 8.716552687169727 16.121841051828156 3.4041212708104704 1.516187790156959 0.7021238017588565 
3.9892557419968 6.2714887520675315 16.969243583411178 3.404399708969437 11.687748367623982 0.6453034914118349 
10.405167467686471 8.52918583252367 3.4240521296027 3.4046142429468174 1.3113719377601107 0.6898394933513837 
9.925905334853894 5.144710378781522 0.40096853900597296 3.404807446877103 19.12334325412786 0.6333961110603701 
4.321812979854281 5.510760085575173 35.60061899824464 3.4057649221398614 12.52491391628078 0.6383249060201531 
9.931499053678547 5.145636933495608 0.39161280143910204 3.408633317115046 19.14901848118337 0.5966273885714979 
8.33638628310343 4.019114804620145 10.923331214127955 3.4086440561959566 17.168530727965575 0.747539232902161 
10.557129094083987 6.423416761185388 26.108384303599713 3.4088623755772276 20.583608536899533 0.7165475484949043 
3.924609476842475 8.001531157182205 0.3459630057672882 3.4092552283044886 9.952736403711747 0.6557804343529853 
7.035256276899943 3.8474804812020196 14.300907486259703 3.4092893603230734 15.851011637235672 0.663505553715551 
5.679520686575371 10.276965260331858 28.948925209064868 3.4101208132778207 6.988680891258177 0.7144836077354315 
9.016136308043674 10.16856022293671 30.617162452978107 3.4113386277967934 3.5021016957003823 0.6622386283909595 
10.419794944137049 5.988800446515905 8.699227629246352 3.411484178709507 20.14313368564426 0.7257529314654676 
10.599157525458814 6.595762912364718 6.259827338360864 3.412459860155853 20.78280486569416 0.6467252178768758 
10.559875737743475 6.4191222542917075 26.114167972035006 3.412570179148878 20.602496895824977 0.7077131761761563 
3.87634678938565 7.766666867105711 16.19447958103389 3.4129870549202708 10.203554176254286 0.665084861362826 
9.153887558584362 10.083244946434359 3.9538847164194095 3.413512086140632 3.34224954859328 0.6560280111899972 
10.268727987318425 8.844576642025448 15.089168873309035 3.4139996087745383 1.659115597825668 0.699465042615194 
8.405481037626462 10.464145402924157 35.826306174359004 3.4155332086590584 4.186366516217113 0.6807573133095308 
10.598822675831286 6.577025383109877 11.3411904080709 3.4157734335198886 20.784531196365183 0.6563615724678089 
6.477392224383756 3.922334674363677 16.314816451450852 3.4161790489353705 15.319014000116582 0.7133277265403203 
9.310690328544691 4.525226443633599 36.39085403875136 3.4162604648403554 18.310803731330303 0.6915698590561156 
10.657052796417105 6.983692373062583 27.152734877072774 3.4174447339699063 21.205860651012525 0.5559828099986781 
7.541296141744471 10.655042825378615 3.4857428232555243 3.417480078194689 5.076515124914973 0.721659678128563 
8.688946563173921 4.149747413478437 7.865477512141787 3.41791359046768 17.591789595216156 0.6645269243331375 
9.51451570394897 9.811894367746234 38.24713068602816 3.4192592947773623 2.895891212896938 0.743288419658217 
10.295087051767087 5.692707112396645 35.0082777799995 3.4201924347351533 19.872857607176478 0.7077003073656514 
8.40552777341091 10.469192987546586 39.51167859152174 3.4202993913096384 4.193871979881738 0.704695528787549 
10.607398375448133 7.903571191978443 28.133446844641753 3.420420903112055 0.657615109474893 0.6201596411372321 
3.8399992978977924 7.52020014139738 23.972858560952545 3.4206889517681547 10.475929365959303 0.7294870291056177 
3.891219065404643 6.601062667312878 34.22523210301523 3.42089593942235 11.399955334079177 0.7119615720627446 
10.378019187054388 5.863645480397224 19.02184071519416 3.421473788969227 20.070352402740802 0.7158753690722062 
3.8968960275390927 6.5662943542795045 13.248415586502617 3.4220987215630108 11.439178078846986 0.6914531036129218 
8.799780475074897 10.30220069598765 12.235108767877684 3.423119718839948 3.7687223228769398 0.6984933356431243 
10.300408548347235 8.804214991450781 19.035359988528356 3.4235327589319557 1.6132610008177615 0.6685003341102386 
4.306259355704219 8.99825991877902 19.556993643101286 3.4237438170061973 8.921172106696666 0.6926504277859487 
7.8909522051759104 3.8863142582825816 37.7190954624225 3.424208156399509 16.78095613740058 0.7698395277130915 
8.484228689794497 10.44417686373967 6.896905735848364 3.4243373513077855 4.116290202460547 0.6924970562574098 
3.993223828759758 6.191835233335478 36.258305170512 3.4243690956099404 11.833745386204548 0.7356815699273452 
7.0798777751655635 3.8279234480553583 2.0482822409012513 3.426302598830397 15.975878407164878 0.6929289431539237 
4.0717412536505435 8.533639176270576 18.689376622519944 3.427689920865571 9.452694189969353 0.6456955063626154 
10.304747410570409 5.691762255244882 35.00775533104904 3.4292253661091077 19.928900359327784 0.7240850998340989 
9.096820155844451 4.360297534066616 39.04702931466294 3.429449668628308 18.11115076525475 0.6278892397144475 
7.750351790889265 3.8565532024107743 26.09444702772314 3.4301360151916245 16.666278562175066 0.7185070939691639 
10.552580577462775 6.322703685132346 13.350981546420535 3.430293999965816 20.614194311832975 0.7451544660595916 
4.035017818575319 8.446223521817657 16.933673700329052 3.430315020669099 9.554752680684178 0.641363980450104 
3.8496643823204906 7.704987155294241 16.15497500031899 3.430640701726522 10.321343985830168 0.7318293427608638 
6.737524515354226 10.642769878396734 39.10933229669324 3.431256121323376 5.904204672694142 0.7541718343486823 
10.680153088330345 7.14031174069688 29.891957997726166 3.4319064269893977 21.453597094881083 0.6973315302351016 
8.69242888774979 4.135216993674202 37.08438944576223 3.4325608913333343 17.664219694835815 0.6851417178535855 
7.621147792174593 3.8368533498308075 31.536129343312112 3.433266773671579 16.550763024848955 0.6687670289834268 
10.289991429333835 8.845629480658026 15.085845485987925 3.4333047243098265 1.6594968013214313 0.7460595082314461 
4.032433725941976 8.452535853370383 16.912294282907325 3.434941805416339 9.562625105408372 0.6403769021622083 
7.769005895864437 10.645749812986741 2.508205076453855 3.4351832429059046 4.874972222031246 0.7760222988236658 
10.443060672991937 5.980091800078544 8.685521414505914 3.436321186623199 20.290293469439327 0.711172528102106 
10.307321086428992 8.820644940714873 19.098945013194424 3.4371700212989977 1.631188395909529 0.734863587691311 
3.9744039651881167 6.208137984380519 7.273811645144036 3.4372962983813333 11.857097959508206 0.7670079192756777 
10.670434897436362 6.900819665201986 8.274989396332273 3.438212005361239 21.25313976620186 0.7109916530078244 
7.94741152201691 10.617040064122442 33.08089675356702 3.4385086337608013 4.698912833671656 0.7324239639647293 
10.397868962860134 8.635301577788132 39.67844775272448 3.439206226552932 1.4257935986162984 0.758702684470663 
9.248099825033103 4.450448634100145 0.04052846489338435 3.43946082418583 18.34011562188983 0.7921853709646135 
9.41636356599112 4.578249945377456 1.051450293213442 3.439677231140929 18.55260501013478 0.7870202697582313 
4.01294241795166 8.414347117103189 26.42576592877662 3.440093893864403 9.619564939316732 0.7011601785524633 
3.949112646122895 6.281215910620695 29.240066421463347 3.440116267631123 11.789512995074187 0.7895494587008671 
4.252459903657266 8.938668490548222 31.76141631284598 3.440472046122862 9.043475666704996 0.7054647313539677 
4.082639706895208 8.596260370606805 5.527651699241822 3.4415967532241853 9.42889665098344 0.6304204319672716 
5.232546456775355 10.038839966618987 1.3819331546665268 3.44205565882963 7.562390933164039 0.7138398954241743 
3.8285269792374272 7.627645572713995 27.017013910635242 3.442251270665266 10.435744038673274 0.7783310416225601 
7.194666493836092 10.692211390292005 37.11880811040596 3.4426561042834942 5.463047451929754 0.6943242583280157 
4.608737511487206 9.458642559329485 33.38909191474528 3.4430174975021965 8.418731259880158 0.7095780831313259 
6.925259215811657 10.677816047697318 38.11939808040762 3.4431641601536414 5.733733778723916 0.6918464825602488 
8.08842431575702 10.58979437993589 13.745642847811858 3.443425886163952 4.561982918428441 0.7504855349501459 
8.389027031469704 4.000414594699217 39.68753999736815 3.4434267648321706 17.38765968848147 0.7265901656555481 
9.91149070954379 9.436205326658348 24.69346024498637 3.4442744558610974 2.3685137166420773 0.7592785968965312 
9.370934995511861 9.963812113280035 2.97895301029169 3.444291137719392 3.1254094642765367 0.7046149222159547 
3.8964709530291888 8.039083810272745 29.01940995731688 3.4451139790305225 10.026993409695613 0.7911331174905447 
7.939123190164603 10.625624898789837 37.793392975654456 3.4452480648790056 4.717979923687295 0.7534846359835494 
10.57275459493774 6.337208798491481 19.928452973283456 3.4458505300914064 20.72709929464726 0.6411861391467591 
10.384889880690158 8.681358833463626 8.438393076331344 3.446204096420856 1.4760798537624638 0.7481275978903151 
9.912854202391362 5.062045070062819 10.18103472386408 3.4464386370033844 19.284124142583018 0.7505660851799942 
6.909792217698335 3.8202522010446724 7.815494157426016 3.4465796522897203 15.900861289624949 0.720854719925937 
3.8768193393951638 7.957982640998212 17.864751080519156 3.446677703098056 10.114999043782074 0.7856410250629721 
10.693196928561012 7.0922979580340435 28.838454949098654 3.446806496293665 21.49916681954383 0.823449265903046 
6.960155480945776 10.68494742477071 20.999475070878205 3.447154428824548 5.704964649913126 0.6992908556781123 
9.732724660118443 9.641891141644452 19.09001989390167 3.4474722582549444 2.6434056668448935 0.7101484596073582 
5.000983804895901 4.635989045252241 17.1162942828567 3.4483513622283053 13.79997596988477 0.7063624466659438 
8.940971162997826 10.255441671629264 31.62364753394209 3.4484870763359283 3.6495448604995495 0.706125829136841 
6.840295015037228 10.674178419665019 17.40033603788403 3.4486020391461456 5.827726350378853 0.756053119423634 
9.540875468135624 4.672211340934288 5.699100801251298 3.4486381052980053 18.756882773337523 0.7923336189469437 
9.862933658342968 9.500978849805074 6.897277309138829 3.4488154611650876 2.452517121638266 0.7644130100578538 
10.140357014290064 5.368430518971145 15.834543974912805 3.4488356559852162 19.679471090228574 0.7529954233722672 
7.7605188948447275 3.839142126654213 26.028499371799533 3.448852124136148 16.764734648937818 0.7995617026159759 
10.087601105647257 9.210287625238053 11.05204730803571 3.448870482988883 2.084987429431699 0.8293112456781847 
4.281489743315419 9.006168505314424 3.7353726081061183 3.449084075968554 8.993048896286865 0.7333962090194002 
3.993907428905052 6.112140936564307 4.40140286406762 3.449182813331654 11.995506609470787 0.7651509261750119 
10.568600681010066 8.190791272298043 32.39518448413416 3.449376566574407 0.9528639331699615 0.6887027878393577 
4.400216599030344 5.305952665217433 27.861602686848357 3.4497225210612785 12.902839194650234 0.6374281298197932 
10.60041052811353 8.073123691399095 14.5153248515577 3.450041060369636 0.8311397722326639 0.6629381856403839 
4.950083430842959 4.678069884286305 20.47917669258024 3.4502812559555425 13.741665195632525 0.7292505763102257 
3.8340156666413083 7.738274521790078 8.471258710764083 3.4507044171272283 10.350788875151778 0.7497888963903846 
6.132268307236481 10.514699501263163 4.832470649904128 3.4507371633545127 6.558666921706752 0.7882923331503858 
10.565382519791088 8.207237764626896 32.36929231060758 3.4508064840793673 0.9699596892269504 0.7465272068765652 
3.8670689945867647 7.931377331440258 27.983991184874725 3.4508690579601633 10.155340560028613 0.8037695660275995 
6.84819503487677 3.8225853336080693 1.066061389880403 3.4508866288819453 15.859201683408447 0.7644680274307049 
5.182850557691454 4.484956953029835 26.610121260539053 3.4523281808707837 14.052442540322886 0.7942626316123074 
9.969473763353559 9.377177536143208 35.133260138652616 3.452596388204195 2.291812183393521 0.7412187128667519 
10.534970240152266 8.312910387352161 21.77389354813061 3.4526523094900723 1.0804589319419335 0.7581678721033434 
8.926931096887085 10.268219253577591 19.183882800313434 3.452788056972712 3.672598462768299 0.7036072578785947 
4.240398289740321 8.94246169146539 17.78754092834864 3.4528436152649418 9.078610316619073 0.7022526164597381 
8.706361730838179 4.11913101391168 26.240515890459633 3.453017535301506 17.775374478714962 0.6941954447072984 
10.58369720287522 6.349527802830831 13.371762340189797 3.45317060371085 20.78590782128849 0.7271590067684264 
6.713786807593738 3.838638595357777 27.83521325927161 3.4532464755347343 15.734648929038183 0.7191851764211329 
10.588772163032612 6.367722511829591 38.08928431497749 3.453377060613822 20.806039242053988 0.7548592041898078 
10.405585145426878 5.846913834912181 9.751593961149986 3.4534574554639605 20.253841383194967 0.7400551518486164 
3.8560815468073297 7.889249453770578 4.812477797813685 3.453595565648604 10.206833350179195 0.8148562724574013 
10.686859635478559 6.908850340875082 36.39348778307736 3.453749736721359 21.3588427355934 0.7003418623422324 
4.153540877524868 8.78050898042014 8.350341919210138 3.4540580244556063 9.265627395261163 0.7145448876303 
8.917880601641533 10.274957083538782 19.128959089508207 3.4543003717950667 3.685390863407516 0.7221833632067569 
4.57452324550534 5.0645471414407215 8.801269212759301 3.454617209015523 13.219167217665074 0.7302831331438212 
4.712641508324053 4.905377982285742 34.90219735475692 3.4547706901081736 13.430532134991207 0.7381181362216791 
8.118473033085628 3.9060653256947493 38.723383300417424 3.4548725758293783 17.158593270436555 0.7527592678878365 
5.056266111090178 9.919073287797351 19.39212153834923 3.454912530149609 7.80379768268239 0.7136058827908482 
8.971701573640075 10.245574223632461 31.655891660577993 3.455100756557754 3.624922867006486 0.7069535358353943 
5.488993008786444 10.222801404674206 20.262677195290017 3.4552414987574935 7.275317768568044 0.808192518411477 
9.07592203003239 4.3160601493159 18.997838913284056 3.4557190723769553 18.208448553617387 0.6925237973729909 
10.220451734406453 5.48331841067572 34.01045232685455 3.4561173800227993 19.861040592212948 0.7732519254196764 
4.277374392769515 5.486892001587863 35.599786218896725 3.456161572442362 12.708078218518477 0.7564851977947127 
4.7258027939092155 4.888919114836261 6.655939094397336 3.456338305421232 13.457646711025788 0.7636414684148533 
6.438091442728739 10.610043360949328 3.8151415879535193 3.4567451298627687 6.249407851626572 0.7497626693716469 
8.944569419500375 10.262944627597383 13.227775527438098 3.4567905413076123 3.658875560991831 0.7299465740112143 
4.727771628419106 9.613934394148444 4.44896541412988 3.456851425538214 8.256964594861596 0.8045494011108903 
7.562914816695978 3.8070293985795285 4.055813561388774 3.457161009376555 16.604831099295126 0.7328387595400857 
5.9698389679836446 10.4617188424585 38.43926069718523 3.457448508784496 6.742325868423244 0.8113665025371616 
10.369726668994831 8.740561440716974 4.515730641920953 3.4575233763186395 1.5410836274415587 0.7694656963667964 
4.701326089236272 9.586694706746407 32.37903054043643 3.457727701243168 8.297017876992722 0.7905258607949901 
10.326859816594009 5.671959296125754 20.903044978076366 3.4579298422690465 20.088123482233613 0.6793452198503311 
9.465682293011426 4.594923577288387 18.119098989740785 3.458132275376909 18.700957063827495 0.8093327970626092 
9.409557289226619 4.548625701012687 8.463465491779175 3.458483885849554 18.63009781148846 0.8047289415645781 
10.319555408791981 8.843596464132284 30.676421943253914 3.4585719738266283 1.656169753274959 0.7617857114303564 
10.570575739684724 6.28232360381115 33.32481271388053 3.4587021916788077 20.750899351939097 0.7183510033047767 
5.175254143143913 10.017540275691276 34.169037372073674 3.45887981116934 7.658261215944741 0.7882195560763537 
10.619611252826576 8.030931152276265 27.11106158452634 3.4589208519090215 0.7877225803422689 0.6687507261744143 
4.150607536727632 5.713863095152043 25.06070591975167 3.45918346316373 12.459059641668603 0.7907253353474385 
4.355279917418404 9.14395026482695 22.83203082611572 3.459255983898747 8.863361953623524 0.8008105312514741 
10.507883684372402 8.413274715365677 35.07716816219818 3.4593372435061864 1.1863951864289106 0.815299474213056 
10.648383597451673 6.602848390015453 31.799222810756078 3.4594531766934127 21.08539861975499 0.7493529266043149 
4.248252148081075 5.53000805039906 22.17412473157566 3.459604381022767 12.668795102221516 0.7525362942311494 
4.001991182801742 8.441788098247759 16.946499260957857 3.4597572382643618 9.652434769851887 0.6611359438234276 
7.447035592408415 3.7958192516239215 16.060269510847306 3.4597958996344955 16.501046327879067 0.8017649826110305 
9.730599835969866 9.662009206288495 19.103169071415905 3.459936987494742 2.6689256675284163 0.7890563457250744 
9.843979714266762 4.960323265648386 39.385172974161094 3.4599639168434324 19.237458783444033 0.791553172799295 
10.38558164966014 8.712845398153164 8.45933188170401 3.4600273034447673 1.5103558256053908 0.7701582290157387 
4.39100114637659 5.300789666309006 16.580596384094505 3.4602449869897542 12.941267745751574 0.6787737547015658 
4.060295545940825 5.908592143040721 5.407453472653337 3.4602874942635937 12.248317798110733 0.7656746465770181 
6.696120067124241 3.834316191432988 9.539650500885074 3.4603004002758633 15.750008648077873 0.7323958678901203 
5.054803041727329 9.925015455813167 19.397971317772168 3.4604331194879228 7.813624578473878 0.729358532255135 
3.7941318168820573 7.428758470517947 34.961507719479656 3.4604883311273893 10.692606651535467 0.789369115139689 
10.586049085474922 8.169661980534219 23.60149584137173 3.4604915343254588 0.9308469995783284 0.6763706234376408 
10.694780928537629 7.579877407352157 39.42284010614655 3.4605396615987454 0.33037905720929217 0.7535739600731605 
3.8756011602011196 8.017633798963757 21.28957378835232 3.4606110991192827 10.097757855858777 0.823082809882794 
7.406689324555831 3.792652006367401 28.72847388581819 3.4608968048043733 16.46583486826664 0.7646037952521727 
7.259665308177485 3.7890254371594825 34.701828389134945 3.4609880587501705 16.319187310037904 0.782768768639755 
4.744759110871772 9.638175596686004 22.024525127080985 3.461157984427545 8.23794692799494 0.823678848245821 
4.925738247176973 4.685260723166415 4.030887174947971 3.461225253254812 13.762311549201058 0.728835132025527 
10.313994459986098 5.63954337913594 38.75313241825101 3.4614494909662343 20.07385478223162 0.656431534373754 
4.17104303726766 8.831970294508356 8.318880104226189 3.461590095760157 9.231941446659636 0.720858685614098 
4.637782408659474 4.978244491548601 19.57334690345354 3.461871435320522 13.353799826456925 0.7929750744258096 
6.443479532049578 3.8833333599712585 19.76205322457045 3.46192425253722 15.499933489264652 0.7422660737367879 
3.798561549315412 7.519662469247983 20.392168235698904 3.4619568492667496 10.606122299639786 0.8031626300183435 
4.066425022330829 8.6104992990545 5.507708565422689 3.4620958942769087 9.478296290303902 0.712071828587531 
7.951633563614594 3.859720369214017 37.69919611050823 3.4621215507998646 17.02139081403905 0.7588269466936283 
10.671574840107809 6.7196303641983235 9.33935017485868 3.4624364740799485 21.222664076341417 0.7211879068763338 
10.605757826995639 6.396559257110489 26.096917236573134 3.46258165175441 20.893715182500785 0.6983763081551919 
7.225873670132156 10.712520228382282 4.440186878842077 3.4626042817147575 5.4631726119505615 0.7178458036702112 
3.825036445358469 7.759230282726595 11.041619030100442 3.4626132951094264 10.367036485669516 0.7552706931781474 
10.692773058717203 6.87636553108247 19.019735126646665 3.462988456549096 21.38423498060125 0.7535970984335196 
4.116175054108345 8.724194180435457 27.38830909897289 3.4632509688329836 9.35733345935796 0.7544912960306508 
10.330790589582092 5.6676039115635355 11.78937875011379 3.4634156605230904 20.11791061233194 0.7703622954773465 
6.836948161989589 10.688706115421365 10.310769990573533 3.463424832318448 5.854372317097166 0.7533500776818381 
4.118481320162285 8.729637950852105 27.39567573547709 3.4634863516079233 9.35206177604763 0.7799629012347268 
9.890343100054963 9.491670406933888 36.13831971563242 3.4635960935609953 2.4380856719755926 0.7498399984865142 
10.638777215488448 7.966035505365973 25.405645979761317 3.46359897522192 0.721236482959732 0.7858682578006181 
4.794290578725116 9.692850453447214 15.96422452938441 3.463816839794719 8.170518826752499 0.8562927653243679 
6.278522004149417 3.9251551595065433 2.749072316706915 3.463865284588565 15.338393713032573 0.820878925684541 
4.300964986104171 5.432639456239963 3.71805375410176 3.4640448696862096 12.795764089089197 0.7640769016108225 
6.059019659803351 10.503440239317795 22.955472443422565 3.464578987632866 6.657927502150205 0.764462572447384 
4.103182391040098 5.800509645941803 13.877126733968687 3.4646043570035334 12.379876176246057 0.7948207286271723 
4.767046899565564 9.666487592903723 29.762823804779067 3.464746511018458 8.210616291668948 0.8300976359414711 
4.015822431062675 8.492816577577242 38.33993088490936 3.4647507259423667 9.613694313907136 0.7330400160094749 
3.8463220985325695 6.601314836086177 24.48428957956034 3.4649409372772344 11.537968499936248 0.7707547349341979 
8.506633305145083 10.479071904016974 21.85481465245804 3.4649722401357983 4.15681457520164 0.8361892838219815 
10.522876820854727 6.11224315166484 37.04949576672735 3.4649983160777587 20.611963771212764 0.7694828774084506 
3.798158209834609 6.947367279761478 36.98449131393013 3.4650827273950005 11.18889722900511 0.8011995605618247 
7.506479214196721 3.7943150140865693 35.68131567091144 3.465189794106879 16.58603617485828 0.8002522472691525 
6.179832204953549 3.954170854275535 38.076192511877345 3.4652198873031774 15.241510239016165 0.7363570736391706 
10.686046193141623 7.698992436817807 8.895168577877442 3.4652572270644844 0.45025832818332745 0.8669981473261463 
9.031294834205225 4.2775788345578345 34.382593230880744 3.4652992469821102 18.200702918444378 0.7135459494840718 
10.243045759407268 8.996495959412766 38.094152438803704 3.4653385194163873 1.8304340512649944 0.8833302845062192 
3.7875013454253477 7.106736373160558 28.59467129116389 3.4654612102440945 11.03037194464109 0.8966574865365837 
10.077209810574722 5.245836817045856 36.77001550152491 3.465513724820443 19.63740949760498 0.7376746679097602 
10.31202675089868 8.873046462986622 26.573510740908937 3.4655861905646614 1.6891353893526357 0.7746637914591695 
3.9746995772255076 8.382600128200668 34.70895645690652 3.4655989251249086 9.733703051996912 0.7808444253792406 
4.7606641615682435 4.838701582240617 29.65208125302425 3.4657110346925415 13.554632286500247 0.7779282856275179 
9.315979753625006 4.467213582030084 21.659757410601074 3.465858131895517 18.54586710440433 0.8178384117269976 
4.661521854632717 9.554837418416135 20.30910428279732 3.465904591066407 8.367021689151976 0.8042178274858118 
9.019627003942999 4.269859406164663 12.561216996246756 3.4659511958637688 18.190150731090228 0.727120278731872 
4.019225155497031 8.50513442329708 10.352973172666452 3.466016231413017 9.604487019837567 0.7784927604347492 
8.171034821226245 10.591449965202024 24.67778876157496 3.4660630421069754 4.512245268866057 0.7931080008841086 
10.349543871223586 5.698618877488599 32.37223176041647 3.466115346742581 20.169749626044702 0.7445460696683414 
8.60626064972683 10.439790974568556 5.870930596977281 3.466151960234354 4.051122309787132 0.7665724955797113 
8.670321705964678 4.088042945276468 33.46207582584199 3.4663072807168054 17.797996296382163 0.7048019553941356 
6.819020959057578 3.8101699213361506 26.776158431181344 3.4667237997585256 15.904454055976363 0.7352447713527436 
3.850998480510281 7.931927116268854 27.986056229511306 3.466732744443416 10.20465895972577 0.7814639063113022 
6.161106752576879 10.541370493453561 1.0783423938074463 3.4668152863197634 6.553302550102643 0.799326632987724 
3.8151146914900593 7.720427417569262 37.67465884873007 3.466949529170899 10.419860111626111 0.8294599454398477 
9.164517874834303 10.14057555505245 8.590498846035594 3.467103363403926 3.4178751054445122 0.7745324621111044 
3.8348337011164126 6.652104313825571 34.284490243955474 3.4671083197062385 11.493141485371531 0.8488955974991589 
