431

6.430789186313538 3.8455265649532553 22.49347172566261 2.921961922829696 13.44957197853887 0.6782767500484398 
6.828301247151373 3.8276076352883823 5.43119600943033 2.923441160452903 13.854702521440919 0.7120295270025783 
9.223887397887811 5.191889622654678 20.463517039570533 2.9236666713938693 16.726663992793192 0.6506802582408916 
6.720048329303712 3.8260037679834333 26.15727966410185 2.9241496315039317 13.749778306037708 0.7087203669847432 
6.371543447026552 3.8499228784844206 27.831538684106043 2.9246669337253817 13.402647443228496 0.7493967942537719 
8.108685600694212 9.340393658575518 4.608396762650827 2.9250924545938783 3.1817227095227025 0.7739668543836842 
7.118788964015961 3.8481800524396306 24.42592197851033 2.925160561069978 14.154267386848417 0.7030904602059495 
4.724631219055832 8.86206462228364 33.73574949846876 2.926249419910307 6.833505057817565 0.8013258197270254 
9.459859069618862 5.644735301688318 36.75049082469069 2.926592938987179 17.25494220992856 0.7822834974511278 
8.377777380515063 9.182850833652527 11.766547116792815 2.9271867687799284 2.871930967095091 0.7247944858400263 
5.230588862934141 9.252323635064243 37.267608019871076 2.9274961619173627 6.196025714762602 0.707825565606554 
6.247351207088382 9.634504762621104 12.140968762840387 2.927972597993249 5.104399653170944 0.7903825157537039 
8.84257608415032 8.800030031904285 25.577097606661326 2.929419362205994 2.2706754559836213 0.72836208337804 
3.8604418554394337 6.266999139280678 25.303432270412316 2.929647777848372 9.688976073842 0.7582000306779813 
9.308813237168536 5.322808250828977 38.442857268859974 2.92991492566094 16.918522441965344 0.7622383922156619 
6.27898328044591 9.64200826368221 2.3390004340491544 2.9301140843499067 5.075681682160511 0.791661458304782 
3.8369497151451935 7.07128753473248 36.80706671249048 2.930714527562714 8.885176637709488 0.7257301683620372 
3.8186981703318956 6.745151524420059 32.412338832666705 2.931305839439316 9.213817368398121 0.7048428760691915 
5.318561484515682 9.309062757920266 22.717307181028595 2.9322036802695712 6.101322537978831 0.7431916678742592 
3.8889328619813472 6.104892878122056 19.795744425326184 2.9328941963439292 9.864384378539505 0.7153099552140588 
3.8889896184534187 7.397715452495689 30.486214411741017 2.9334136617120685 8.562493154206546 0.7733643764720635 
6.468340926817824 9.670721524565298 27.950842837508723 2.9342709584434927 4.891235453140322 0.718628117342268 
4.106980263795297 5.475296129338281 18.82779321614978 2.9343522767124504 10.537178995438694 0.68874060271262 
9.489766992103021 5.69783877938783 22.428466865794306 2.9348537280718667 17.364117308044783 0.7136466857935253 
6.311108169211053 9.651921164339452 34.41326975586821 2.934922909238763 5.05071043088682 0.8163521868557513 
8.990246219210716 4.853424480287165 6.756922571297402 2.9352515777462638 16.380678743325312 0.7495274175540124 
4.882687093781566 9.01491069465439 24.670326773253358 2.9354178483632896 6.634839655230884 0.6845341527520497 
7.816340829181685 4.014851768006606 3.4839961244589546 2.935663232551797 14.92528937119934 0.7540863019957751 
9.588744699997214 7.498250233474213 3.383295540700054 2.9357026218022324 0.7565981485025155 0.656291054358125 
5.530072777079148 4.07944468655014 31.281048219491723 2.9359986565764404 12.577492768717615 0.6315555813049865 
9.684314333665984 6.867653598755982 17.94991467464783 2.9366720923620098 0.1176850956231057 0.7324174990044213 
9.647929167380324 6.273540511922139 28.623949283404386 2.936836240401059 17.97411157596357 0.7820518710785366 
4.572613925992636 4.777127210723231 27.35790791872553 2.9382370833460496 11.393758866112229 0.7694001457591116 
9.206595432364699 5.138040270484913 5.816781758761465 2.9382435719139166 16.755276561125513 0.6324221518274208 
7.13796302171491 9.662939793693177 7.990510827412116 2.938661863484709 4.226940315927504 0.7139163116194417 
7.828839870321781 4.016483387679875 10.415438998296352 2.938708651027865 14.953010687426282 0.7304829822901944 
8.876633752271212 8.778303436697158 34.84181623964212 2.9388068918553762 2.23859701416772 0.6951462348142198 
5.7480735058120125 3.9872313935557138 23.226145876418755 2.9388343050451042 12.826503280764143 0.6849834348279014 
4.682086057603875 8.83907732006136 31.03820487052981 2.939474803829936 6.911009504340004 0.7561441920296367 
3.8195953724841107 6.985278211053725 26.02298812559971 2.939834539147259 9.000232494601605 0.7762470071699674 
3.998432314514032 7.788243793353399 34.87592143911342 2.9409309584292287 8.178089276727182 0.716528898682353 
4.4911123871732705 4.866237160181127 30.114737306310055 2.941281299716929 11.284770512265116 0.7020370135317612 
5.2392574792307585 4.225630173242802 33.028844333024345 2.9419017635370435 12.276850908542425 0.7521543633737955 
9.158717634216814 8.441307299477092 24.68656669341445 2.943202511321902 1.8017542593227347 0.764872109869391 
4.482945152044794 4.872543945416977 0.9389844787816699 2.9435317087688486 11.283330268781658 0.730265742894055 
3.8271745841395823 6.398297869447109 30.690490332066027 2.943909441581902 9.601108437898148 0.7869896020837461 
5.479645218974381 9.40621548054137 8.385952243294938 2.944364438846228 5.938485910044198 0.7518959268564547 
8.800373630600427 4.63685159209942 13.010273961164032 2.9443892777406915 16.14323536517287 0.6924106880991157 
8.680218380606252 4.52605260157463 10.253241863413201 2.9447724916864457 15.981861976147663 0.7538828388947744 
6.722261202339563 3.805203594389557 14.555599685366893 2.9449270468709114 13.849902555865757 0.7007506402518381 
5.5386478587168035 4.065490634799161 12.07617108232219 2.945159510458205 12.630334711399456 0.6712084712886943 
6.901465443195336 9.691843026603081 3.3067387618437465 2.9457396649492837 4.475624780441546 0.7368460373073532 
4.482862222548567 4.868601910906021 38.14379496974797 2.9461114153395327 11.296202151420243 0.7330153725685565 
6.130042984660198 3.869780065779983 21.531323419558078 2.9461862755683663 13.258949849501974 0.7806023634033008 
9.025459331819016 4.8782591862028255 32.76429523922879 2.946375543748005 16.484466230492067 0.7084633376294802 
3.8256080163118167 7.110869200419163 34.12175854210422 2.9465734428435475 8.895156018374106 0.7805415291031268 
4.736088803270029 4.59887403154505 12.370212076874573 2.946723814760317 11.66880039672564 0.7466511118349826 
6.626508090791933 9.69492609230851 36.16140594075635 2.9475141968783336 4.7534725401185085 0.7340598885545307 
8.68097154360753 8.9779280139165 12.70639063018858 2.9482731110628118 2.525726146695849 0.7041143726682724 
9.008168361315914 4.8539449936505825 9.363536137946397 2.9486181399345197 16.467250618046464 0.732215448892843 
9.336167282375179 8.166792130909968 35.567236407206416 2.948823689988302 1.4778892714369363 0.7892400691779331 
4.943650701265284 4.4189777493574525 0.14943374882938798 2.94899347609147 11.95265577676276 0.7908622171514137 
9.14653229602752 5.031423980015653 37.49835458129222 2.94904570706664 16.694749842352085 0.7046420326861066 
9.503319178216309 7.8068647993354325 0.7491345436145309 2.949191363951825 1.0809020327914993 0.7555287978220989 
8.716913443718724 4.551500117707162 34.48812759356011 2.9499407159336375 16.054305581010833 0.7085191106155191 
7.341717793268241 9.640244803690226 25.018337384925204 2.950194056689932 4.038395340946131 0.768747241021938 
9.648064037712736 6.196785107923789 26.034356048432187 2.950393513329829 17.981360211890905 0.8382862479784721 
4.897073101110406 9.04603357746678 17.783159916259486 2.950442048487568 6.637899634661284 0.7130332104163473 
4.144072260142687 8.13361577405531 8.734980219035322 2.950466403057745 7.829042438326955 0.7465727344079524 
4.012591873848152 5.648385280366686 27.219337207042145 2.9507555370845213 10.39902895559997 0.7423284285103833 
9.664589400363813 7.215827130459568 4.345425843027897 2.9515803035298394 0.467782943099607 0.7284525621386109 
9.557888305095613 7.660559198545517 2.315553956678066 2.9518392212226887 0.9256556957724911 0.8415065579331491 
4.866036339451396 9.023557072010007 27.38502827984719 2.9526904399131317 6.681227557799321 0.6863768514921031 
4.378605728959737 4.989834126769395 14.326348364535257 2.9532515453324035 11.163630078196071 0.8398093343541487 
9.099144878105406 4.959798785016753 18.367200465508724 2.9535236664798137 16.63426648355916 0.7200622120504043 
9.19643070129408 5.094801690245951 33.78808430557849 2.953761097456413 16.802036305317735 0.6883627708213482 
8.717190698676617 8.953475129539918 23.92354998509233 2.953835115821593 2.4871042183724406 0.7587426432417205 
5.118966367010714 4.287239250639468 6.390943111330138 2.9538891686271986 12.191972116182228 0.7863631238629446 
7.8126774540335795 3.9937724076113312 5.247005010059965 2.95399287615186 15.007409656442977 0.7147004788668276 
6.309088442957602 3.828740930499375 9.007691545175781 2.9543455370476215 13.47946042676509 0.7254386971507 
4.770722853319279 8.94386838880419 21.96229109087305 2.954758286352178 6.8101794969982805 0.8260520324620169 
9.382110264637358 8.09332873946683 38.23462160637444 2.955086554990716 1.3945133485085606 0.820569200832307 
9.25032622871029 5.174737805828489 8.428386940536953 2.955178882971834 16.906526195638527 0.7268732113585437 
5.5593317981639725 9.455239168999103 1.573729016781975 2.955674158013767 5.86824159772808 0.7726546973347932 
6.967354341027296 9.697707686857525 15.703819444645987 2.955710323547008 4.425268202034193 0.7660860094200732 
5.06967076709784 4.318218123021072 14.048623259441506 2.955853417906361 12.141870746946179 0.7585733007782814 
3.960747445421987 5.771386332203299 6.031089510865343 2.955945622642354 10.283811433264276 0.7629511556661265 
6.972286509515401 3.8021025806734823 17.08415934939729 2.956266308569728 14.15357327974391 0.7358359414414235 
3.822281432095185 6.3372310489666805 12.847116680159303 2.956672829345812 9.702783286135794 0.7986434843628132 
4.0132322193212 7.869044147524068 23.10868352120645 2.956714001974055 8.141145864394964 0.780358867579809 
4.855995859700796 4.479533912469696 25.6717935370539 2.9567326456911345 11.877621680973359 0.7905092103721474 
9.441313472730874 7.975090356316434 17.62178151970018 2.957027999468765 1.263157195798275 0.8363539382835031 
4.360406977787699 8.491928351636798 10.653853157271577 2.957104866933502 7.427333036705701 0.7522722338866197 
9.396625313384753 5.4308451475266395 12.72788441322109 2.957159967646822 17.213022765394385 0.6987940711855507 
4.009123238289689 7.861133891270514 4.216101693731041 2.9575368040336465 8.152288388358652 0.7260797982327857 
3.8460124565387304 6.189051125632773 22.56589761978355 2.9576692330671595 9.856159380731153 0.739854023546984 
9.629622584484888 7.425118798004792 21.901033771473443 2.957703774973899 0.6811231289825734 0.7431315004655079 
9.614956732397095 7.484944632265275 24.436008045367004 2.9577222132923464 0.7427258987882972 0.706915884944882 
9.553037993627337 5.804086608243164 32.98269735034852 2.9583397604777053 17.624975640107763 0.8564671551508954 
7.896710589533557 9.477274178258671 32.1963291374677 2.958541806286489 3.469710077390669 0.808317199560984 
4.907183021798176 4.435337646533194 11.28844086534908 2.9586544620325967 11.952965199822927 0.8134681845764493 
8.1444897562622 4.140388624473243 21.947906587518652 2.9588297030411974 15.395236503710805 0.6635172682823831 
3.8886833204963462 7.504749613811871 18.623916123657914 2.9591857190712076 8.533374241549922 0.7784967158562411 
9.627196842100274 6.055580499333079 23.355191629615234 2.959810823532185 17.89608651124826 0.8464160086996492 
4.136051260960208 8.138492534010084 22.151430397555565 2.9598377535482348 7.853363405871871 0.7585670774729808 
7.471430326157803 9.621103699419429 27.80767417842037 2.960354399108334 3.9213448621911695 0.7627494337859134 
7.838932118760228 9.503075971912955 19.656226658046698 2.9606081244217535 3.5354007807951486 0.7849759841485326 
9.499492585932721 7.848896585946756 25.434008957851837 2.960959842129649 1.1258280569176549 0.7609332059868041 
8.337585694629928 9.24977686825997 24.828013799871073 2.9613025392352617 2.9760305081019123 0.8136519334691148 
5.6383948494783045 9.495323229117298 21.78542895821748 2.9618348439771944 5.791948397648895 0.8165056923508557 
7.476062378716131 3.878359360798651 39.747389729615676 2.962007180696843 14.691667380873604 0.8237009646636514 
9.579158066463142 5.872303304257279 30.37984326922917 2.9621760337210192 17.720825818619936 0.8827116006576536 
4.626021646989058 4.685102697967562 22.059190658950556 2.9622769809725624 11.591056504909533 0.7413725436630547 
8.26367026288831 4.203553436062112 19.44359141727061 2.962361856313882 15.548545041063981 0.7215442524247458 
9.704247686183601 6.523909802503386 32.29701852022805 2.9628864589661927 18.390054477601304 0.7232962620178992 
5.445813881254532 4.089514991062593 22.266936233420218 2.962951554634168 12.61212063179006 0.7279781785426158 
8.539328785157915 9.112388663909389 6.601068029654606 2.963541412020808 2.7340478975290594 0.7994779757487289 
7.420409033949815 9.63691370113293 17.68096848201975 2.963733960832272 3.979160300242654 0.7731993604962496 
3.8067054983922297 7.098222902420755 31.455828035510457 2.9638221459738228 8.962092805113063 0.7634206030790828 
8.108380570514246 4.11573063923734 38.96328840339013 2.963878006835559 15.378033408162148 0.6601067546277873 
5.447080091443977 9.412590973803013 28.105275710221946 2.964285914328932 6.005293303445509 0.8284529676895598 
4.273470409714678 5.120874720666418 31.857613448349497 2.9643292643231307 11.037530968635807 0.7923562423297567 
6.891601239889464 9.711092959857908 19.398227604652405 2.9644767545147497 4.514934055565133 0.8052319391675824 
9.11001806206155 4.955863067061397 19.490666494516034 2.9645594255118413 16.699880101814305 0.7279180155670986 
9.078438426997366 8.585052977761947 5.894847397413628 2.9646323447454574 1.9787303099085491 0.7944306512050213 
5.23967587405598 9.301076483131457 7.397092580025387 2.964636603058618 6.241561848719549 0.7706187755808458 
3.785329160399934 6.7456997648240815 20.616166555828684 2.9646739583295703 9.318098164460967 0.8244381106799129 
7.658381932516825 9.572091951461124 24.035418069635675 2.9646856018513392 3.7336856295492034 0.7763317466580063 
4.086680347295662 8.052464186463165 36.58940803806316 2.9647402128180325 7.965525073245098 0.8123007454649758 
8.631294161560984 4.458434589054242 30.836468840128042 2.9648844420932248 16.009733064915288 0.7637364998272008 
4.201772703033949 5.234305279309418 22.844387830810767 2.964927122769159 10.90554304596969 0.7780044090451983 
5.005255776124315 9.147359725864657 20.98593450535259 2.965040650976886 6.522859985603091 0.7143596073214069 
9.3615938793775 8.154111444213221 4.141644602742808 2.9651225166209514 1.4627200263962585 0.8501897483822696 
6.465832127288905 3.79849676117116 11.666834557111272 2.965151387146747 13.6883420508676 0.7945829199040506 
8.60762591469592 9.061189797475917 38.40783030468402 2.965193470737894 2.6502042539024373 0.7642180835822716 
8.476738911649674 9.16095791131841 32.954003763541195 2.9655261454173614 2.8151070809241574 0.8331777756408836 
8.017459852142116 9.43112635761708 25.773277685792706 2.96561848900042 3.3487716092676436 0.7732586527296396 
5.788281239720382 9.555772131914816 10.370480197229995 2.9660175707678427 5.638431074908048 0.8206983314018197 
5.833467768841283 3.9286686954594714 3.1328052967239515 2.966469561740544 13.047379944193672 0.782023086549743 
5.917981358109515 9.597416845895818 32.53061344578735 2.9664857516503513 5.503077282973699 0.7866976736419204 
7.814243568630108 3.9808973440377518 0.7194159263875974 2.9665710665055247 15.068141211865667 0.7853198289720733 
5.015990669541875 4.34296140057579 37.40131657028177 2.966584429480122 12.127718611127978 0.767970974453806 
8.685968347917411 4.502113116973083 38.214006019471924 2.9666426955436584 16.089206665915828 0.7345860261089202 
4.177859179870945 5.2713485965970115 7.875190925785255 2.966870130517984 10.86862623932667 0.7501302045801523 
7.911243800931318 9.48020452350293 7.300197394125313 2.966901397983639 3.467252603934675 0.796301881582597 
3.8463769660117944 7.360511287797891 27.747922309600384 2.9671115172900926 8.706552390471145 0.7661362090047525 
7.192249875572941 9.684187261621062 4.3038582953575855 2.9673287378892788 4.2171653497355095 0.7889752551753145 
8.230508881004615 4.178391179675922 6.997361836780556 2.9673352475751944 15.533284914599403 0.7420436464019089 
5.725056303223601 9.53474466143927 24.419743633418634 2.9673746664309455 5.707643671138616 0.7717613950386815 
9.495755059054426 7.876183664456779 30.793320183190403 2.967736593839197 1.1551304814720709 0.7811189255838388 
5.230325514353762 4.200522035892227 16.74418944682435 2.968037808350034 12.391148634496087 0.7837184011896802 
4.675021550655979 8.87220154501469 36.4724472190077 2.968042277816279 6.959892386018847 0.7516058440648243 
5.334872704214355 4.140748069247142 27.639053130628398 2.968295959202032 12.512668177707354 0.743161148355019 
4.259169061272962 5.135152760201581 11.647949029137763 2.968496315174466 11.033258448222355 0.7890352077900241 
4.913784587279073 9.082718502144555 30.03047660920094 2.968713972777002 6.6429632723758125 0.6499514550315577 
4.40417710232547 4.930028302817062 21.105265613306024 2.96903722539834 11.286570056316773 0.7766314669096199 
5.7293755505096655 3.9617430067778585 14.74732812147608 2.9691836129060185 12.950074325006483 0.7495249267848099 
5.1549333743371655 9.254776916813949 16.202275546677555 2.969536149520227 6.348402316782231 0.7454673169396181 
9.551222826124853 7.736116347339973 37.16858273631778 2.969726380004399 1.0052010999583487 0.884633892706305 
5.525734026656282 4.043604636316109 39.415894890930666 2.9704213569890894 12.735901123964615 0.7527700792276893 
5.133364058848224 9.2421960324182 26.439236571555178 2.970614890931626 6.375660051325676 0.7183521404413794 
4.956962244077781 4.381542946161442 17.716677222349546 2.9706183211648387 12.073756840682993 0.8239229293192548 
3.8711460290040645 6.017229050043946 36.965313357203904 2.970648658360422 10.072981171017869 0.7920434945139867 
6.776181266479574 9.720581548607122 26.955854805364687 2.970696920865465 4.640178205899646 0.7896654781240681 
6.51567975286685 9.711444318829567 1.3588388151536286 2.97069999019498 4.900928536982747 0.7768621851942815 
8.368332400940172 4.258786856418677 18.44478916773226 2.9707141711523044 15.710605088231059 0.7997845632933708 
4.405859540421524 8.574896573170285 37.41582340850515 2.970730885994462 7.3677218439126975 0.6856559376769745 
9.719033690520192 6.852972185138073 30.64032441243937 2.9708187972941142 0.1029928147523087 0.8026484077895151 
6.616958303671755 3.7817739870045557 6.4101486002768056 2.9712061115285713 13.868392744280296 0.7718421971151715 
4.649314068459793 8.851466837331895 15.195006068983702 2.9713707697587446 7.000575252240189 0.7595751703586219 
8.4422589250125 4.307237986887824 22.89399680235349 2.9716706617638997 15.804064951679546 0.8180203350805285 
3.951838847299168 5.7489968942835326 0.7151713469205063 2.971819821950526 10.357215804020395 0.7422413201921227 
3.8563475005225367 7.428307036933273 33.16954221252249 2.9720910524553856 8.652761437565555 0.7825616301444228 
3.7776276587671855 6.776571621641899 11.081671914269549 2.9724911078088216 9.311784251613847 0.820008882409168 
8.914260571958842 8.787676244231022 17.283971374353257 2.972565945381038 2.245125665681126 0.8382835837356571 
8.745381938174523 8.953380517586904 3.9028126320400247 2.972614133128392 2.4818229606406277 0.8197708113778701 
6.734700964417698 3.7770938306709745 10.68962898125067 2.9729455346716884 13.99437667376225 0.7848909559590136 
9.509156133223717 7.857008458078003 20.273692498096082 2.972946399409564 1.1343317518077285 0.7796596329057719 
8.684833553650272 9.007438065835963 29.29330648533302 2.973147742951257 2.5634450213443323 0.7575706578619323 
9.20333561898216 8.429561659203262 19.408508359038052 2.9731772611857865 1.784850919534378 0.8477518068585936 
7.5841660765709555 9.60376396405605 33.147601581304215 2.9731804193231657 3.824744269281183 0.8172615593302525 
9.472974797297912 7.943949844586442 28.119172264767293 2.9732319078920835 1.228618208679718 0.8286025087778242 
6.300529037100752 3.8105332076445 33.14434446632299 2.9736323192100116 13.561711861727732 0.7509080498352234 
9.254882898041576 5.14691791557323 28.503485425786963 2.9739385505271017 16.99274075146046 0.8200341732461127 
5.661300895467004 9.5177470973595 15.379002411149663 2.974170428061056 5.786422979693185 0.8111946234678009 
6.6898955805976055 3.776112388683318 34.07023234692497 2.9744949261974756 13.956868602097703 0.7984627331392898 
4.4035773093980275 8.578431121615676 0.14000869214672207 2.9747033145281163 7.37618679979504 0.7032013342527141 
8.468608054265355 4.321862693198332 37.24977664179933 2.9748049389611766 15.850721962935385 0.8111952595471291 
6.0947026492403396 3.848022168829859 4.09499987696735 2.975044529165167 13.35885176960143 0.8136654013345769 
4.335554989560519 8.488355320761901 6.1296616487682485 2.975134270861959 7.490144187513742 0.8331550998854922 
6.581023354962433 3.7793861811682614 36.78533353125768 2.975415864581325 13.85224932433167 0.7565244929634428 
8.418418566626956 4.286308262119931 11.254955196901413 2.975465928684794 15.792732625340836 0.7889463213501117 
8.93823670528711 4.733673922433539 39.161141741173196 2.9755588936265975 16.48058243929451 0.751039508596703 
5.174608889657446 9.274320812854203 29.063419732786556 2.9755760310829333 6.334220267972757 0.7227664564529865 
7.484492892593089 3.866024697252797 11.352626954689917 2.9760365179422092 14.766403200739857 0.834397045192535 
5.426102649289174 4.0845863712461075 4.826411003812424 2.976093749794542 12.652532072915522 0.7803659949675849 
9.509247253015921 7.865445247318078 22.794524044860964 2.9761827065958824 1.1433627322882653 0.7468395423187603 
5.6588879146222215 3.980813558555731 28.578887672044857 2.9763936450570876 12.908765806952102 0.7910839050362591 
4.052694820315011 5.491341609825044 21.867924199220347 2.9765208172484354 10.650569619424815 0.7757154153116583 
3.9505086568187 7.761325970609525 3.1525981515968056 2.976563790577373 8.319281052104849 0.7555876866004497 
8.02092200388396 4.058362973174088 35.20695514390637 2.9766008506577837 15.339999784147317 0.7022800472441397 
5.274263753951905 4.164970681644357 9.149639665661375 2.976604448807125 12.482861196725615 0.7537508613453672 
3.8126422795439296 6.267462373059111 8.025172263448106 2.976728563261458 9.836344913706053 0.7663547951647248 
8.137318288993995 9.383904123585307 28.528439520427895 2.976928445095197 3.232960354508851 0.8481728572880156 
4.491788314229268 8.689877620775508 20.23793966338158 2.9770195164521738 7.239748193027589 0.7842931043973959 
6.763771873725791 9.727026530816364 29.686835123812635 2.977058385334496 4.6625804534916995 0.7455758411966791 
7.997485413463764 9.453163536023194 10.877125152069127 2.9771316664350382 3.389249301162252 0.7967516148372522 
4.20016835521508 8.286799291397816 27.54385584198249 2.9771451894033327 7.738153173996988 0.7450211097429735 
8.906657077064965 8.802405001967923 1.172094764844175 2.9771691319368 2.2645382843104827 0.8558832240180427 
8.115848248704976 4.104601940947759 1.6968835742613138 2.9771920209028835 15.448649749713919 0.7600042749202623 
9.726181847308855 6.8292633382134404 0.4366847492458703 2.977237152971779 0.07927270471745373 0.7314040114932404 
4.445634223114924 8.63523555259454 31.992820242789406 2.9772831108991964 7.311919533242474 0.7808333680795201 
7.541594412186534 3.879855502608695 2.495940399013044 2.9773060221130345 14.831454606359696 0.8088280364761873 
3.7908818975362646 6.419395477462107 33.37657020058529 2.97752905857375 9.685471037631 0.741403435956226 
7.529205439586489 9.6239016526746 12.459287711344736 2.9776621410641866 3.8889164384390362 0.8239911300163323 
8.988683518931339 4.786610407954802 15.752894065129638 2.9776840981014416 16.565474477923544 0.7117095001448434 
7.486179279051704 9.6352798743948 22.246156365986792 2.977717227087351 3.9334943921772414 0.8112436371176671 
3.9726730897770413 7.824512342883672 11.330197633567458 2.977939143310011 8.256161282625325 0.7666911443199984 
4.258010465059858 8.380851470590054 32.948307198191856 2.978202202903111 7.630464456602212 0.8297757975754749 
9.688823597024104 7.232715302018448 31.573327125447435 2.9782038542095233 0.48485423880217837 0.8200442893721988 
5.96944279018699 3.87588304772696 13.769348815148525 2.9782239360287095 13.24476827205542 0.8421782061819999 
4.414297167935237 4.901912395087113 23.7658964792994 2.978411575848442 11.350624058331075 0.7992615016238982 
5.92358272807526 9.611478137507492 6.720057787514776 2.9784262016657124 5.515907441396479 0.790427964284051 
7.154046913173838 3.799038520034461 21.692623473741996 2.978494177312709 14.44111965463486 0.9220778179011062 
5.1962811912452995 4.20876037199238 7.392925924715158 2.978580363803273 12.401700198792533 0.7614897790176558 
5.907222554939466 3.8930961571413096 37.649769839037106 2.978619376362733 13.181965207776877 0.7748045497188911 
7.080635330105814 9.71030124587991 25.991236273201345 2.9787083086251207 4.347625993092212 0.7784843989318646 
5.914181159145228 9.60905724977446 19.139537100678744 2.9787248097492545 5.526164601049167 0.8006462400886999 
7.035876267306477 9.715005949099833 23.20581592740311 2.978755699685103 4.392701568075573 0.7730720668275989 
9.716073673147562 6.474619930785378 9.892699764866919 2.978829840232519 18.440766056616326 0.8477813291203076 
8.30748757156784 9.289547106708607 9.26772561699265 2.9791050741422875 3.040652009199121 0.8190644534439248 
8.990830792377636 4.7868938865417565 36.48704889471394 2.979111990638304 16.575047108819085 0.7362449241218022 
9.6403048261379 6.027950119405141 34.02760205326718 2.979130413067391 17.989115664848498 0.9178061684593243 
7.556592337891072 3.8819173936063365 8.85152516027437 2.9793437258299775 14.856611810174027 0.8208460698349265 
9.208617911013075 8.433043232373155 3.16981926971404 2.9795027360939543 1.7885370643698337 0.831186821310989 
8.978892594199372 4.772712590959117 24.77289573072052 2.979534811749716 16.558865807135504 0.7117639417984803 
9.492152661846207 5.584560640546542 29.380385093598285 2.9795385752551575 17.523581373890813 0.8094860294908763 
8.704779309513519 4.501172191843752 23.8437731234256 2.9796625076741443 16.173457425997242 0.8176617394231431 
7.632450367814663 3.9039980738936 17.86071744581647 2.9796720650194994 14.937261382864992 0.8063846068958704 
8.154761267702995 9.377791915183792 31.223342089387216 2.979705449997334 3.217694583908333 0.8231362078919479 
7.950900835235533 9.477035051320698 3.5872548787358767 2.979745456780002 3.4445279726147042 0.760609757620628 
9.706847256103089 7.118816329446084 13.208461732696087 2.9797602555894396 0.3697645899739683 0.8498105455124332 
5.048786980225383 4.303462187048442 6.382972878135092 2.9798780191230074 12.231764778744243 0.7698219858660463 
9.464722721375033 7.9789160252968045 5.124664560511768 2.979925175433297 1.2667217034587743 0.8592237765270377 
7.268441049762924 3.8154974128093837 30.76262035821877 2.979947408312386 14.56376400585063 0.8915238540729972 
9.315237347273907 8.266562771210147 26.341421963755955 2.980000887058506 1.591088574837066 0.9111092755831695 
5.681544206966883 3.9680662426572493 8.239796652062758 2.9800592631538696 12.950416147034854 0.778915171604877 
8.949317249562887 8.760950206936732 22.927746274626195 2.9800867603148316 2.207314668572785 0.8127642146637823 
9.429719061050154 8.053867108633906 12.954492233881396 2.9800945762060747 1.3495204978929785 0.8717585690279156 
7.949830183026748 9.477907225165929 15.991216663230752 2.9801124638534158 3.446283581185533 0.7634966246747537 
9.692692454153486 6.278611882441647 34.9955641743028 2.980208992186129 18.25182918775436 0.8845287954074125 
9.72311682283293 6.542118933372652 7.353460002944438 2.9803755099105045 18.518201618165627 0.848539631204428 
7.832651365825191 9.526945635390547 29.47964382876114 2.980530328957879 3.5738107896452433 0.8256170896122186 
7.152209336712376 9.703289982136873 28.761166974297154 2.980552644918156 4.278400989389105 0.8616905831434876 
5.436877196438127 4.0741293883124 24.933088593425325 2.98070042569319 12.68641839611655 0.784938461878637 
9.291827734092347 5.193138585538453 13.758758875740988 2.9807223442716446 17.090351910478184 0.7864236862878168 
8.765767259679848 4.554204028411991 3.575385111813283 2.9807444697657863 16.260160372780028 0.7852354568342803 
9.38440482283415 8.144581739696108 16.618515338497538 2.9807628217061573 1.4512399507852134 0.9089912180364716 
5.215429586026707 4.194600519906377 1.1481199696636537 2.9807671593576246 12.434528528078562 0.7752629863078325 
3.8400689844955114 7.396325892982357 1.260911606339441 2.9808447921578227 8.713099606042917 0.7195978183138948 
5.561952772292777 9.483886099923836 12.874660574426372 2.9808705813268013 5.904327848086243 0.7559209320558565 
8.786579949471308 8.92676383773269 16.28764859741819 2.9809325211834814 2.4403621825644777 0.8071938926549549 
8.888560474463462 8.826671371032415 8.57492743025152 2.9809402688083217 2.2974612354956143 0.8454539776747226 
5.704735222195426 9.541686221609098 5.713936391818784 2.9809546148240713 5.750437080226735 0.7550865139898256 
9.70880615417105 6.3866453144087885 12.40594790946161 2.981033459305944 18.366125157290348 0.8946343665112879 
8.333667122799248 9.27569912858699 5.596705611251664 2.9811336172637994 3.013165363285598 0.8438452845346074 
8.751509792871587 4.540517142501274 26.502404403913864 2.981250735604372 16.243163098217696 0.786937312652704 
3.8297358297964177 7.350035772949566 38.550757671271555 2.9812725055911926 8.76178121338459 0.7509476468122507 
5.126869504759643 9.250779533985925 39.96192622801975 2.981350513136972 6.399478683171722 0.7134940333162259 
6.456821986169514 3.783077591217861 15.546212549308876 2.981372490569937 13.755734279683562 0.7825436253379365 
4.58716517949879 8.802045141623271 8.131754664329023 2.981399625013757 7.10310652044873 0.824053549589798 
7.372142712478608 9.66576997760134 8.969574600115195 2.9814050575142472 4.056431362278502 0.847134256743666 
9.209596794091615 8.435163088779897 32.755808788441165 2.981508179645317 1.7909372046754228 0.8558305523225183 
3.7839278336747775 6.446744509766681 21.58912298377537 2.9815345022665514 9.670547699853081 0.7672066007192787 
4.179732960876645 8.261070001956368 24.880806017939065 2.98154409714436 7.7821724611984 0.7677406049366137 
9.706495695809911 7.136230698564306 20.943307078446708 2.9816171705730437 0.38731909036810563 0.8702690624963291 
5.986474848528246 3.8676847128643495 26.863497211680937 2.981729711322915 13.278944660059476 0.8458709211155138 
9.683604965602354 6.214079292514313 4.494322539555888 2.982155109802097 18.198585087408137 0.8958217373353197 
8.512845979493946 9.155510138957593 19.00086783630148 2.9822986061167214 2.7985012111404934 0.8660664721030468 
3.818881658815622 7.300588562109269 25.0705793389197 2.982382016904106 8.81566436256329 0.7400942001174302 
7.724211200329277 9.568850389499932 1.0843251537689014 2.9824494934920374 3.692396135738175 0.8116831569832177 
4.392487732229592 8.576907566936448 29.309054237931036 2.982524995841212 7.403599833584256 0.7755861856920122 
8.696623862079228 4.490317381028898 5.209193514642649 2.982534157205304 16.175768229387664 0.8335362280292775 
9.688298313683966 7.262121126315055 8.050994201061968 2.9825936746758224 0.5146715029589437 0.7717084898224759 
6.4260763736554924 9.715012399082255 5.029805154750335 2.982654026603772 5.009705771737806 0.7841489941480323 
4.178410426292965 5.23872107564987 22.829529616268196 2.982790123824273 10.95550817900552 0.7918806323738807 
8.610592174697713 9.081447349958307 15.3017530108986 2.9828593641293195 2.676372412333624 0.80708328869155 
9.732868326165864 6.747600806644238 6.313181031719807 2.982869291030416 18.73952130902505 0.8601254634401352 
4.949422286539823 9.128319204560857 35.521003327567755 2.9830324069631655 6.6187917028293946 0.6630585157988259 
7.098653896607356 9.712822685748346 11.46536229522821 2.983266298338875 4.336651243183301 0.7819017012140607 
4.385988157005537 8.569840586844993 14.21833943474261 2.983349083722254 7.415212772713627 0.7791693198933244 
7.857419265572938 3.9797927634573025 37.98543843965813 2.983358101729598 15.193314461946638 0.7901575660723719 
8.148785784907146 4.114846087176597 24.59080180772598 2.9833936743793608 15.51479738123238 0.7991287429868019 
7.489707634736476 3.859745885688662 15.248480345600434 2.9834101679422242 14.806493346046565 0.8170246127985256 
9.511377082027526 7.879614526791311 11.247854276620998 2.9834933162795587 1.1585095245357486 0.7399697583985685 
9.378074119548154 8.162498232293988 31.791830113829377 2.983609363518024 1.4714224903332358 0.8797889876477634 
8.29168687540117 9.304478613979512 36.782155566364096 2.9836486742012576 3.066565258684818 0.8601095167575987 
4.594682029816029 4.68670146967496 19.217568164702286 2.983721900217816 11.651975774229072 0.7852509355583578 
9.509989837375457 5.616375942159637 2.034735710342197 2.9837304514533898 17.584493457558686 0.8183342183387973 
5.158484182194039 4.2261264747292095 21.31304158103447 2.9837661050909126 12.381984357059402 0.7730474842949747 
3.787246553709652 6.3960509882168814 36.02800688916676 2.9838210211819987 9.728734602498925 0.7957919500843559 
5.820778020719885 3.9145554037677304 5.736784496904647 2.9838229748227416 13.115996812576089 0.8044420433934345 
4.876370414411198 4.427525887539417 15.037272673030877 2.98401974307196 12.036200599577544 0.8253921889738924 
7.923808848301475 4.0065274154095825 29.946501992259755 2.984035695957751 15.268342246784837 0.8227964979941178 
6.86249653731829 3.76807113454376 8.122881966619907 2.9840501385783957 14.174528191674746 0.8216728973621114 
6.460849859145036 3.779927159019925 25.183888304064716 2.9841146902697786 13.772704651252724 0.7827129620154998 
4.1018276917984675 5.374188218331721 30.90510039787111 2.984237697051405 10.805160559769625 0.7208455670324955 
9.0717700348751 8.624891054722578 39.19262153661743 2.984264157530739 2.0272509604378435 0.8719043877398196 
3.7978124685546213 7.1865964035403564 22.34527197898121 2.984296841871788 8.937276019055382 0.780504807790508 
6.814973365960249 3.7663064044954204 3.3375948601456287 2.984400946612109 14.128636633556347 0.863146154536928 
4.289198849944448 5.061332811412008 29.13443610408543 2.9844830664502675 11.170964242194476 0.7415965500042203 
4.6892882388669666 4.591059951265191 39.17798601577885 2.9845527464769432 11.789775387843505 0.7387949232031217 
3.8549471223813043 6.024298362078667 31.63221448647846 2.984622929532305 10.10951894667945 0.7805728439675913 
8.984133367794714 8.729131134860445 31.01124301021001 2.9846795395934476 2.1637381568219567 0.8218616768722163 
3.7800527407792774 6.453167754063287 18.860266810919114 2.984743892661565 9.674173214217202 0.7647487171463452 
9.212016362644802 8.437575397634486 36.53203802534901 2.9848677177777794 1.7935777009878855 0.8440427948006899 
4.640085778969167 8.861352671452844 1.897436237143289 2.9848866181748366 7.031956265524922 0.736150059792799 
9.630317438887097 7.533583941050949 7.075662758541064 2.9850012297200266 0.7928744788561559 0.7413458471574207 
9.728327789682622 6.550233973590814 29.64107371972917 2.985019746685621 18.555516772001667 0.8012686433474546 
3.765084251705993 6.718614940950362 35.061846101618606 2.9850807436893767 9.409293372061715 0.8724233059079842 
6.159477362757647 3.823888166573756 1.3091404379756888 2.9851042606268816 13.472528750830698 0.8047552084627092 
9.07619488972691 8.620852800802412 18.31139458669218 2.985175516994238 2.0219483216188827 0.8715629481748826 
5.555468828850017 9.485886639598107 33.56718538566722 2.9852940263197443 5.918238919759304 0.7667725782775574 
7.883763033153768 3.98833229857987 26.355710361973436 2.9853353427066085 15.23101578993099 0.8495598442932065 
4.222148873055181 5.161678150183114 20.04390545038757 2.985430893288594 11.05380323903898 0.8221050324207493 
8.672187046433239 9.034309313411459 20.01798410918734 2.985443364194685 2.601135833306323 0.8048556040939047 
6.23428073326221 3.8094117824111446 35.83327041889176 2.985469046482807 13.550372243528287 0.7442107825179953 
8.699441138741076 9.0111478047363 35.861577087991655 2.9854832353037737 2.5654036622549405 0.793039326867174 
6.739157232577455 9.735510079433931 13.071380695243406 2.985529768735685 4.700501985525136 0.8031084133071789 
9.594329407224201 7.657767477536877 27.124138195824088 2.985674391167604 0.9223692526001805 0.8232216495922738 
8.502516211915193 4.332715297842697 8.665678589379802 2.9857291244031656 15.942877060135135 0.7471358323336432 
6.460526549573865 9.721784164147119 17.396001601363082 2.9858492923751565 4.980089940206314 0.8415652720168684 
3.9366215513933263 5.749586134871869 10.90649326558053 2.9859548215981273 10.400797813943894 0.768569919530315 
9.663671126672408 6.096915511237132 8.253448373682225 2.9859669763524015 18.102976963655244 0.9012154918097566 
9.734548183202293 6.845716717606502 11.516877340184315 2.986082642507648 0.09573311630470727 0.76990982374096 
3.9452865618071975 7.774973003214823 32.206676169809015 2.9861324698845 8.334963883422445 0.7639300288250841 
4.984270866582321 4.341844409045848 29.29363037612839 2.986136755549498 12.182566305877913 0.8074705214119423 
6.1605990684787795 3.8225939914963973 38.656629589394186 2.9861512682215356 13.47860971636468 0.7804863300667686 
3.7645925737295904 6.8171796370144495 17.26498106045905 2.9861631911970075 9.314123038821766 0.7741149688986088 
6.903019578959945 9.732270479143807 32.36909492248938 2.986193597595056 4.5376153100702865 0.8127660423748393 
4.067192645105514 8.061505252712742 12.310869051899402 2.9862185672467207 8.023671535706928 0.7519897923574151 
4.959653521568102 9.140041574286542 32.71661695123571 2.986241657945919 6.6106794833100615 0.6839565267783111 
4.08420570646669 5.404123367060366 38.889603196240074 2.9862757954562222 10.777850967578342 0.7661266208511577 
9.572263804212758 5.77385881742174 27.755404621459746 2.986306178022397 17.7690980664725 0.8683134791678476 
4.385829304621826 8.5748306491911 26.594406438357836 2.98652138366899 7.4192403923716554 0.7537142388694723 
5.897276371604111 9.612239196523934 20.789556619011805 2.986561702785098 5.556036573630237 0.8161379316858535 
9.7346119074416 6.6412599373776295 15.194326934621401 2.986592144779953 18.656547780529102 0.9646496058022159 
6.897083214888163 3.7670281667953436 37.756101539455464 2.9865957928374223 14.22114383746463 0.8301085664813099 
5.312859671224846 4.131662568494679 13.051572890022541 2.9868148971460955 12.575714697152183 0.7830204097774486 
9.686755839814046 7.295324584470048 38.769030296365 2.9869572754074234 0.5484003404628695 0.8020385693523796 
9.439638882453622 5.450628439640438 7.483069691985655 2.9870593850604323 17.42395577327491 0.7957564189493785 
4.220925826253795 8.339565633851956 30.27522046830454 2.9871282330414295 7.708189988082747 0.7737300747606545 
3.835638046728425 7.405625525276269 35.86391491964278 2.9871977544298436 8.72355184586895 0.6739377842020984 
4.476871480102055 8.688142222683014 34.688921961329044 2.9872242204628825 7.27560126369972 0.7575237666950859 
7.960895180560733 4.019170662003681 13.225819475008649 2.987255598633405 15.323888496075089 0.7252417607100249 
9.69685710632838 7.239952603914556 16.973365400740683 2.9873098867042103 0.49217622423968876 0.7925071073455149 
4.03211559499859 7.989813214559783 39.34036726654299 2.9873119097186542 8.106431937322057 0.7190476501286683 
4.505953687394969 8.722185780769577 22.909620351532524 2.987517465553288 7.23153951935846 0.7964477516972056 
7.471515146825185 9.649103717726982 30.40802723670525 2.9875385308371474 3.9640947794542356 0.8211044720560167 
8.634442727582526 9.068399731691532 0.18557451449167672 2.9876582317002143 2.6538972938043663 0.7891742071788039 
8.338465764368616 9.280475349307803 1.8452518930894044 2.9877297364429776 3.0183040851637664 0.8471185859025968 
5.704172900690709 9.54872517576387 18.10317183668134 2.987744455455352 5.761593508140287 0.741651326381023 
3.904922382897176 7.663149300008676 29.4783391126526 2.9880274917486673 8.459169460000211 0.7704746887493091 
5.843261219709149 3.902749646697659 17.48502626065701 2.9881448743432184 13.160036599823886 0.7871854616100865 
8.013672746830197 9.457801188835825 34.908707264480064 2.9881526214941054 3.389041397649102 0.7329962454111812 
9.738085197107408 6.772086466484231 33.34957690432959 2.988166822179479 0.02208666759182165 0.8245864297039107 
9.323722942033015 5.231743589332352 1.101115863969877 2.9881687219567263 17.182628765797876 0.7058100486420271 
3.797131663795657 7.208248681191158 15.660276455301464 2.988214059395953 8.927687283664607 0.7745962755422935 
4.210460822052617 8.324897038156415 1.0897086823472222 2.9882369245298346 7.729039145488436 0.8038604446778997 
4.465782550736469 4.8232938611365554 35.47959334919158 2.988284775762523 11.481865696764856 0.7612173877109512 
3.8492608531089996 6.031790946350021 39.711854049848036 2.9883292728631368 10.113422739474938 0.7882756385499864 
3.780912719259584 6.411246201725536 1.4498107510468472 2.988349614168312 9.727660721854377 0.7822871065188344 
5.834378794046485 9.594783159625825 38.02533294896946 2.988503541587738 5.624917625042691 0.849927008321086 
3.896559849272432 5.861228572381659 7.110677076151276 2.9886510911002837 10.29154619522205 0.8260232561677481 
9.423641839666493 5.41444517729688 21.436059163312507 2.988656449185953 17.393731304669515 0.7862375104127737 
4.858861258401509 4.435661229641742 22.99956524913204 2.9887404845449677 12.036506310009766 0.8026391749370261 
4.0317709768312575 7.99250314207524 15.013576983176286 2.988742725706536 8.108010333550538 0.7081317760262347 
9.217594534740927 5.063698475569668 25.774973800325043 2.9887515151279027 16.987172673497653 0.7698238860500093 
3.8950992494317536 7.634468803776542 24.091059921719207 2.9887695395344624 8.491581104839074 0.7990800095233233 
4.034082554859802 5.502275935713051 24.471911376498177 2.988816305733359 10.67678611542026 0.7568447951600702 
9.452343853470945 5.47283131046138 16.413118175834647 2.988950010276183 17.460503181555605 0.8460187264335304 
4.9158943681403215 9.11007302414994 13.562403443807206 2.9889610482807636 6.669691985492065 0.6969057329570945 
9.539507538048872 7.8236145683492495 39.669428320938444 2.9889798504177354 1.098153783279546 0.7771477194451 
3.8963021684293757 5.860948590961195 14.591579773948212 2.988980381639326 10.292870806068144 0.8286374227196769 
7.744368931833714 3.9312345443434182 14.24255165122878 2.989014597923368 15.099088470946914 0.746989430684835 
8.899256704458587 8.827245973493156 37.438124325834835 2.989022451580736 2.296651004474821 0.8328715931156797 
8.821960702833621 4.595635130267448 35.49593807154748 2.989031472906321 16.374786567717784 0.7327381064693396 
4.455459748056466 4.834358555923453 32.80913304563986 2.9890796426413235 11.469806332752164 0.7457281294789291 
4.192354415930504 8.297289994676877 38.38377575359853 2.9892569747911204 7.764682539524809 0.7271378350124632 
3.780873947574028 7.097160352996589 19.67188987705635 2.989352743636547 9.043383149478306 0.7975527001227448 
9.275987595391555 8.34864985258248 15.614673934140036 2.9893635916753243 1.6867381610224115 0.9331248528054472 
7.76510319699929 9.561788265773766 26.794116463474623 2.9894126098786034 3.660059742977671 0.8353192608983816 
4.185638604136987 8.286469271081335 5.158378635757245 2.9894292414388586 7.777864609721409 0.7731859618522675 
3.9207966424932543 7.7156438080777185 37.60305396048292 2.9894580783490303 8.408382064641167 0.7728280357432148 
5.083388421952851 4.268128338802047 26.663542624034086 2.9895285739959556 12.319960948461251 0.8558661817767522 
8.214982692330382 9.356008122350616 33.909002164823164 2.989557261967893 3.1649496294334156 0.8543027530486001 
5.035327317957055 9.199076681920143 6.407345496365835 2.9896620211103015 6.5222756809910685 0.6487166021742058 
4.689120780135161 4.584096973662572 1.91032987576326 2.9897088618071743 11.814829930407498 0.7150296070286143 
3.8347907484569212 6.086684362324707 11.84568097341078 2.9897211601530547 10.061367736793557 0.8208075048228158 
4.520919106296031 8.742523217751845 16.850399584144924 2.98980775367853 7.211927478544901 0.8010752199879477 
4.378797055330688 8.571093644891437 3.59410037634256 2.9898136176478296 7.434674226841011 0.7786880650146363 
5.757371870605349 3.929738326505145 10.96229500632262 2.9898472386142956 13.07749118555489 0.7778751493578633 
9.445915528090675 5.456923323735307 35.7670265097514 2.9899845861308645 17.449417358439447 0.8420204849136363 
8.73033044177208 8.990204990846927 7.601070091212378 2.9900212473533845 2.5322321260034357 0.8070973929463126 
9.595423161304057 5.831291628250735 0.3215031715003036 2.9900598721777722 17.853285776306517 0.8571765780240818 
9.413587325353246 5.391349424824927 10.126267284322857 2.9900884310010003 17.37691053389125 0.7961935706117935 
9.22150152834852 8.432970653576447 21.998885158123826 2.9901020092011255 1.787562083681518 0.8041507325849617 
9.151877768478235 4.969060038192058 30.10040524789946 2.990111028419257 16.87965669188365 0.7477503310209418 
3.770921127031423 7.007962378998769 39.4969159626241 2.9902266670515854 9.135790704136387 0.7830066419643877 
3.959523941625706 5.675416390635119 13.592915305970926 2.9902318582136402 10.493260697744837 0.8267389139268726 
7.0012652284306025 3.770297979719068 13.57118444715789 2.9902773023056834 14.342911660249875 0.9131825693525558 
6.2128620286984315 9.691664848503033 16.405861105725144 2.990302540067198 5.2372255054993175 0.8556537635832713 
4.069295056362929 5.4249358159752195 16.255264517529355 2.990313375990131 10.767123872918809 0.7461361428989182 
3.9493792926721767 5.701526417027557 29.8860988224964 2.990446990084336 10.466003792263336 0.7606202238745836 
5.471689353953227 4.046537901584324 15.779063927763794 2.9904490340693997 12.771319014073406 0.8002031836454832 
9.372627583436634 8.187045613766331 23.739780995585086 2.990530979182081 1.4990370201258578 0.8845309565705216 
9.150057594295172 8.534157118070343 27.315236634931452 2.990567350503081 1.9117245055959344 0.8539481282929685 
7.212482808025419 9.704629804276625 39.459339661755536 2.9906065652370257 4.233287485380494 0.8559510918495353 
5.429351382980235 4.066768181035629 18.540798385110897 2.9906263163322606 12.725151595962263 0.7847057183873147 
7.565952208097274 3.8728264792697615 36.9883599626577 2.9906362992329996 14.919471832818179 0.8067167137605491 
8.988942667998552 8.732765393966774 11.08813564252305 2.9906893650288575 2.167626303678972 0.8050942185399601 
6.470944772298557 3.7723395432291262 39.62891190362683 2.9907078787344705 13.813917107030239 0.7616812406515581 
5.46768191662715 9.451927365541426 30.848282688691086 2.9907776840826283 6.023166718490028 0.7560349956938736 
4.92829815186867 4.377974339481632 32.027953224823655 2.9908365648498254 12.135231800593363 0.8005468206970796 
9.740687633915035 6.717814243086231 37.009485855049334 2.990860820332575 18.759946383963577 0.8968120920987572 
8.206331253148122 4.137612753303086 15.927880455622677 2.990897498344044 15.61532722394109 0.8203205533942451 
7.22758290913036 9.702524189737204 16.679333218539526 2.9909002868829875 4.218459119446777 0.8557719153598786 
8.615437056136294 9.088029629625586 26.540061093722386 2.9910262385030335 2.684019085051304 0.8086616609771159 
4.033827285535931 8.002509225284955 28.533595648366116 2.991048908697922 8.104311355003194 0.7016000152036891 
6.223781127235894 3.8054945006516636 30.541882978743615 2.991156789228161 13.566522530256849 0.7526223306912759 
9.727694506243362 7.03364265751058 5.354253514582908 2.9911733031824745 0.2840694762300764 0.7563040008302214 
