157

6.713151990567956 6.014888442202586 32.611053247457214 0.5194104455793958 3.0195663460931996 0.0 
6.813708032156144 5.840397045351452 30.612594472655964 0.6968079548729118 3.940319670228309 0.0 
5.651821879025222 6.863229015699045 27.355054276597613 0.8566603119721008 2.0078154435314897 0.0 
7.150188059429653 6.288204218004937 10.277180841030408 0.9009983932355785 0.03821567541007198 0.0 
5.873333379993999 5.260170673431798 15.44427769080869 1.0590749918495888 4.605676589421613 0.0 
5.49646207712954 5.468306588904225 24.739632885703386 1.0857550322952558 4.283660093795 0.0 
5.180336715366292 5.971651605709594 38.445811018128886 1.1052861037294457 3.7537365322632024 0.0 
5.938844647416603 5.089038894871271 1.9303022201655509 1.2019352482821268 5.349246360548307 0.0 
5.014544963586432 5.715916821593144 22.747014006428877 1.3459546754838463 4.777637638023876 0.0 
6.192657439299886 4.903718915865818 26.560586322475267 1.3475017353477328 6.292592446901377 0.0 
4.986728283607196 5.764127432841802 31.564855746462605 1.3534871927561514 4.749069411142811 0.0 
5.519152810108322 5.0240834335825895 4.50609989354497 1.4272382571908646 5.958427030038003 0.0 
6.347610042066023 4.772651187980069 23.93265495607021 1.4805699013180136 7.074702177338496 0.0 
6.712134055888741 4.8330487955949994 21.858527107650026 1.4904088705039829 7.493265696705556 0.0 
5.579959144238106 7.587767253142481 4.955494076530222 1.4961871447016633 3.0449439206906863 0.0 
5.277542151644768 7.3917433127335155 0.8246086987338472 1.4997506656105823 3.4138738955472867 0.0 
5.3597414036920075 7.505477145516201 11.452541494812685 1.5390851929681464 3.3669081066275073 0.0 
4.980936970625335 7.271097398461869 25.45570053477344 1.6288526236806082 4.013572155933563 0.8569615790947211 
5.4824951124921295 7.696655627619293 9.431153466001106 1.6376435073821898 3.371210913384399 0.25673827710640357 
7.77447999571489 5.5507500769417355 25.152044780718363 1.677196980748493 9.816861693541195 0.9999999999999999 
7.93459207667293 6.217107280769136 20.982414160931427 1.6849131715811372 10.553726874700097 0.42740393517470077 
5.807852445044707 7.882933071228461 12.328776958265728 1.6917342803952882 3.104712561757779 0.3305084267832681 
5.619676199837794 7.840624424744714 36.35822605453983 1.7109629316982224 3.3331044606540354 0.5927304601963108 
6.478373398981757 7.950766608734538 13.225544827502588 1.7160307301295235 2.4664818217525735 0.4733990994203434 
5.385322161444163 7.767077279245116 19.329465551292657 1.7461933557574203 3.6475130968118705 0.6014304010817371 
7.988972537185559 5.786412850853861 23.148643471732257 1.7997051230518344 10.839007499035716 0.6146584151155068 
5.418189521262745 7.856661693816854 32.30957339419976 1.8092181932855804 3.706226780632054 0.10875106212249107 
8.077636884894146 6.4747027602895795 12.144217139083814 1.84139835817982 0.2252642021821778 0.6992031865100529 
8.101479948476575 6.320282682704072 16.203182142913285 1.8528134431450192 0.07029954868922417 0.9714907471305847 
7.414881539063327 7.703680069746111 3.963607351884505 1.862829768182698 1.6676857239019949 0.5483526960983272 
7.681327429436466 7.4569973955799025 26.61460376380851 1.872308981763927 1.3116923691045734 0.6984987612602741 
8.12346135826765 6.244247271621038 18.3979099746535 1.8734701905303628 11.76560763716014 0.24433474857447188 
8.128068552584118 6.092681073504389 34.04602326815165 1.8846460497502275 11.684078170006506 0.731181164422835 
8.122310400656618 6.0329301320223525 14.123171183545821 1.8848516026442979 11.625319305060504 0.6384803114755144 
6.446837725832117 8.149856571148945 21.96858799118825 1.91002619910005 2.80307432245818 0.5689085112993628 
8.008169299226713 7.0275662635135046 14.18080450455912 1.9224381859757433 0.8004992687010954 0.7466474506619326 
7.01539756083141 8.069089715754513 30.983555166313607 1.973555375481141 2.3140404494680524 0.5815801163636171 
8.176330792984333 5.815028202257928 36.71664638972496 1.9748293062517122 11.969650605830752 0.8427168159536708 
7.381147800597677 7.901079485593256 19.92690427319569 2.001389221152109 1.9416343432456387 0.0 
8.238003972946816 5.9905008811055716 3.322013377922481 2.0048689705712186 12.336734045351047 0.0 
8.204459147888551 6.756976879359854 27.187720755910057 2.0191424211706104 0.5124608883197403 0.0 
6.179914037338067 8.286905115117273 24.177007081037445 2.038110519612015 3.271556300775295 0.0 
8.165864116208075 7.172372419342857 21.625292937626487 2.1263363308136713 0.9540640617642353 0.0 
4.180724765752391 5.726216319041201 26.557705773504566 2.134537265898453 7.23503453564938 0.0 
8.09988703153335 7.4388110210491725 5.990943899898802 2.198943763083371 1.2560007747175241 0.0 
6.740871627777931 4.070102041162652 8.169826417203502 2.234482057636757 11.02465673876408 0.0 
7.9387278139993125 4.527961696261697 11.519547081191401 2.411890865963215 13.236508147506715 0.0 
4.730782683367751 4.319265346541634 14.081952802130559 2.456777881132172 9.93941556549126 0.0 
4.081546712433909 4.3511842599771775 1.1893339284091198 2.8823065199445064 11.127989374791035 0.0 
3.9291733370403232 4.444771918146428 34.57528277262421 2.9402525107577557 11.180820568389912 0.0 
3.776012545796643 4.648126681258907 18.03702715394476 2.9473058974002355 10.9527747553595 0.0 
3.4614134461380246 5.184902793031549 1.5513740151135664 2.985070690732767 10.46697556055853 0.0 
4.499518596557145 3.8239329407988727 29.87741067415374 2.991652807319071 12.227958078510255 0.0 
3.3793782038968274 5.400061978374655 28.45284415845834 2.993804291677566 10.267104022460131 0.0 
3.7969619063741504 4.532147950677702 5.717800403452866 2.9947306309817505 11.23777776001937 0.0 
4.517327927681354 3.7463687495030946 34.08808410752606 3.0447203399750347 12.504694866966972 0.0 
5.5716331653009785 3.277571380615459 21.01061593012404 3.048854450405243 13.68329560673979 0.0 
4.969480937655723 3.467134932709939 9.789489174996344 3.0633424640040476 13.114571234156362 0.0 
3.291351418172612 5.425408730333297 37.26477888791716 3.0714088286582366 10.483948279259621 0.0 
4.562942575907066 3.678163789693519 20.88408973083549 3.0757932708214786 12.708641499432598 0.0 
3.873933205970639 4.251823339083934 3.615397993208454 3.1045778099314316 11.92410886003108 0.0 
5.531454976918111 3.203378671695777 5.539250744072348 3.130209013512348 14.025752429565394 0.0 
4.605388503953881 3.58480557130299 11.91798959950976 3.1317739886020886 13.026652987646347 0.0 
6.735408261820982 3.1507709582108276 2.8273600677797504 3.13701160885858 15.270185408936328 0.0 
5.6177130861509745 3.151669416497363 27.49176658165801 3.1621889801358356 14.26488669841267 0.0 
3.0952409505786633 6.517951623625018 22.03617667529849 3.1661179277640774 9.678380300462472 0.0 
3.0834737699904107 6.483933884513265 15.872902706048421 3.175155654084097 9.740899633540899 0.0 
6.439949833198982 3.056929093189103 22.837634502602697 3.198715797793621 15.26365472618215 0.0 
6.982696140563695 3.1352493922329527 16.229175569586587 3.1997679576778886 15.817806374233285 0.0 
6.250435470405678 3.0128149159072084 14.234071520333217 3.2371851133828176 15.255310926177543 0.0 
3.033694265958502 6.617554848936921 33.788969879620666 3.2372394322640496 9.801738446528855 0.0 
6.584572097131419 3.0285402880492533 11.990015489018532 3.2387869895843266 15.597594141959078 0.0 
6.390213547247596 3.007118874750523 33.891188658639095 3.2459109401416213 15.436252135459938 0.0 
7.802351988347963 3.397528339131904 27.235111031265006 3.247520788506746 16.92211084184619 0.0 
8.51791125436384 3.9210198743885023 35.207148101467055 3.250779888451927 17.82891239496213 0.0 
8.101750854090948 3.577340590411014 13.458680611322812 3.251474979957724 17.292318875684906 0.0 
7.485183874960958 3.239222177708484 35.57294212437799 3.254299048975985 16.60246951419298 0.0 
9.44080677187252 5.5889597238914455 28.243447726014576 3.258561354657173 19.808484477443912 0.0 
3.211108764508804 7.437923924050008 30.79045714803932 3.2628244191919955 9.034596188069905 0.0 
3.045804465658371 6.869961570887714 24.432584576405166 3.263620898890126 9.629215408179192 0.0 
8.575397972177354 3.9528724359672704 6.627781204284695 3.268680280242395 17.990498743769535 0.0 
3.8107902756922023 8.451078950848135 22.449642807679925 3.2854973180668474 7.909728364037626 0.0 
3.2368802476679814 7.5620256394703045 6.006750129776158 3.2863812804543584 8.974826567999546 0.0 
3.03546485249905 6.935618529218882 7.9681570812155655 3.2868387520727587 9.63521789672534 0.0 
3.3793009492832766 7.859278611212657 11.626898718037292 3.2910014719371414 8.657496186054384 0.0 
4.502434319051254 9.04881325103615 3.969857617283953 3.299597160776662 7.024712492191011 0.0 
3.1500436295520924 7.422521975238279 28.68600830046194 3.3142928779903027 9.213687880239682 0.0 
8.21814190830308 3.566030796327782 18.11779123949449 3.328253785016967 17.78989277156022 0.0 
3.693682074619135 8.431771509572068 4.000881889019283 3.3607868506651695 8.18378665837496 0.0 
8.956792619026515 4.253740417446293 13.370138769792554 3.3632987680778417 18.99501111436325 0.0 
5.362585161606445 9.504718981238298 16.491376650546876 3.3735294192038565 6.197109256339601 0.0 
8.795612509026126 3.970838954682524 37.275985324402086 3.416828663629907 18.9735019469758 0.5196275815079725 
8.27914382025965 3.492492085532927 4.308131100605834 3.4236346974591885 18.305421021171995 0.9915462924141183 
8.474790980532987 3.636903396504648 39.54149810594004 3.4319045392114087 18.59301334459292 0.9274839108370732 
8.639288692899079 3.783994987062796 26.726408067670143 3.433639640650544 18.823170985753393 0.33685768331817084 
3.813363547676264 8.679057608324426 33.32270054166895 3.4405694391120183 8.112009809712337 0.5445347892006889 
8.81605979161368 3.955027911636016 15.427505183294869 3.442609437694932 19.118521050068924 0.8392641662815257 
8.527166197350374 3.6509279408478488 2.0501617738958515 3.4555262202768144 18.76996087660023 0.17897835276108295 
3.8028254025010266 8.692803768551238 8.831967392161296 3.457738243750152 8.150194441651355 0.5014819089683439 
3.9729336509325304 8.873431224001246 35.35183063269548 3.473819590180254 7.939874267188426 0.9225539577004422 
5.666120145771167 9.681606447557796 14.457752021721205 3.4809249482134095 6.0544772120315855 0.4422547682566208 
8.873746512467978 3.9586790987165994 31.18183245980775 3.4834174648391 19.38632691737446 0.896520117971032 
4.376541191854116 9.188821964241283 12.895248130043981 3.4851861418475756 7.452457961964701 0.35647189936113033 
4.569536926245529 9.309751107757807 27.1289432290907 3.490849894177272 7.23666141139681 0.6917231606199229 
4.219965192276435 9.112475664403089 31.220580035195212 3.5092461084781683 7.677046055353052 0.8489309415286084 
8.922740540575255 3.974656113580666 24.156718602999007 3.5100899986610545 19.579030557135084 0.887609065670334 
9.241622196596783 4.390766322375427 2.3110227257180824 3.5222937462943005 20.172603036444663 0.9845615245031473 
4.495036697456165 9.31087573110949 18.40483330452807 3.528293700157431 7.379045966648896 0.2597356348363483 
4.448784800735769 9.287512130095045 22.681891771280874 3.5314099357813196 7.4373106599993974 0.6078596579343232 
4.527455458146864 9.340190816051308 20.551698933582045 3.5378579646836985 7.356342298897111 0.41070761497056213 
5.540022932421545 9.730607974807537 27.020592508188777 3.5522808603460843 6.294700638172849 0.5935760010500952 
9.716915995803832 5.422436102295787 26.251329955872983 3.5643188026246873 21.560089924423878 0.5585465833588409 
5.161161686408269 9.652952624554313 9.974128468570271 3.5729057415647536 6.7187451853818345 0.7475612737289583 
9.812188879193515 5.8864901401341445 19.540737198066523 3.580688345733211 22.13399122788697 0.4500706884382801 
9.602222725544548 4.946185752388763 24.157541957053596 3.5968498431170857 21.265473436261605 0.8607624683775059 
9.665183009831372 7.399361871309919 25.780956131555158 3.6034022398091934 1.1698013998211287 0.23993907669012648 
7.016117191700916 9.790783213912414 8.512457289854325 3.6227173943524265 4.918605521892157 0.3883310521802469 
8.551976321309501 9.051376328919853 34.47402163456502 3.625852219837716 3.2014274530537605 0.2587998859429681 
9.862905726839495 6.710473570015903 33.253356077935194 3.6421317521079306 0.4617092161244436 0.5950652609662918 
9.125741453143805 8.49027285105318 28.082114479958463 3.6453684796595778 2.4125758021602186 0.11099015345259489 
6.676734101213793 9.871662489977052 14.517061773644926 3.6467164935658913 5.300534815690726 0.5744269853620472 
7.512310729172519 9.671889620196428 27.381056370808977 3.647294469849139 4.440181861517999 0.6130467474103732 
9.75920526417008 5.2457438826049625 39.87759700997513 3.6500756068065705 21.916723147772796 0.36516518396771575 
9.79104795291537 7.157516447913714 4.020206921560913 3.655489940908066 0.9171071614780821 0.46684943253073324 
9.840088278873587 5.554334042422301 30.310420680859572 3.656868192133538 22.27684872556892 0.6145848141293238 
7.177269658719283 9.78774599971507 2.6960314374381795 3.6572497560983392 4.807291165170032 0.49729379807770374 
7.2309032373181985 9.778005442447949 38.55122432224118 3.6618292645785195 4.758958023732305 0.47166479468740946 
9.840575070650868 5.505986234064263 6.621536864255965 3.6668495772094833 22.29027954340752 0.527354680249368 
7.081904536709477 9.82627712847485 31.944181710176906 3.671760239701134 4.928395956095901 0.6118205170173617 
7.1382314539503255 9.818409527006324 10.542513912607944 3.677295428465898 4.879178585813531 0.6397373941201786 
9.87809564519262 6.9216733018614995 15.306324830889125 3.6897456599471954 0.675439362328679 0.22756180217278116 
8.982656657822734 8.748569382377397 38.762760729229825 3.7027370103879513 2.742542967571138 0.31694995002818305 
6.371102387340258 9.977757028945483 12.421247182027123 3.729723616445589 5.737512480115992 0.40675963171961815 
9.971373411526402 6.520449565531067 35.8364396659611 3.7311878853136853 0.27068694445369346 0.29900805588111773 
6.378499643155209 9.981979650818024 18.67108745418244 3.734191247433752 5.737128877630219 0.33184346684852795 
7.903418141872573 9.602584478323472 6.637275792763603 3.738129777866041 4.159124907241268 0.6159630787556575 
9.334761816515941 8.362758955284598 30.092689978810462 3.738917740171614 2.245298313794674 0.27654144424657745 
6.8119777714710175 9.952232281311879 33.96789207084375 3.7446418894755866 5.317960752791514 0.5924354705520496 
9.989430691221589 6.473052036393167 6.8904792107171176 3.74607716223106 0.22318404665042735 0.7757605048516918 
9.55249569654168 8.02863517622331 3.2188214390253904 3.751002654727832 1.853099630762948 0.5714515768254744 
8.404618681762834 9.330969087316092 16.526055261511875 3.759621281565308 3.611188321433648 0.610143030006581 
7.166742028300911 9.9000899092253 4.6937741392372025 3.7634521774404988 4.985557806661953 0.38844968018035336 
7.744238216029883 9.70481418129419 14.566881244771473 3.7641053217883815 4.37608381172484 0.7319838574058116 
6.732259760513616 9.984625742048323 36.074502406298045 3.7656345958922572 5.431457100961026 0.4685461187438055 
8.541353384968481 9.248711951781416 25.49915595073749 3.7739334525880603 3.465694452621051 0.5353651406332806 
9.77503051992005 7.601340960790063 33.824610141812144 3.775177155932796 1.3820022065136186 0.5855154039095853 
9.312610330755367 8.464227089005808 25.960332093569896 3.779204101360053 2.365734118745234 0.5165761196329008 
9.91113805376846 7.202515701695223 5.012226170412546 3.7830170513397707 0.962878566682579 0.6322121722878268 
8.685205876926322 9.145996230097028 7.187650688404148 3.783784061987771 3.298009067117917 0.7748813743411621 
8.150643220622388 9.52966227398098 2.69166278394464 3.79059748370517 3.963330224178815 0.4964296204735027 
8.56586967451682 9.275213747094675 14.177593749295767 3.809878024944794 3.495313573533501 0.0 
9.420915737530981 8.364025106241442 7.234758208567989 3.811011514590424 2.2409523227926123 0.0 
8.647800759187628 9.213903344170577 30.04561655875865 3.812370852153064 3.3952632428072853 0.0 
9.69686244705115 7.897220812637412 15.78335162557973 3.820235219783891 1.7030746442368248 0.0 
9.555411150578507 8.200844170136442 0.9616523724845081 3.838168293668748 2.04643581668018 0.0 
8.433818073010478 9.40700860928645 27.99931291303529 3.8387191529357767 3.706812682986408 0.0 
9.078261257400651 8.85361741875218 2.830784394355817 3.8442015300115657 2.860336401167551 0.0 
