429

5.895003784203357 4.085415027452493 6.320713101787362 3.4424719015987226 14.82959111216212 0.7358434070125107 
5.8599599811475045 10.399644823536423 34.79966715101112 3.442742187332827 6.838728020097275 0.7043431579871624 
10.658755504240116 6.765334911168498 30.940977085941782 3.443038532462183 21.146968959947525 0.7163318733630422 
7.556353019038394 3.8202179389170663 7.5834900129237965 3.4434368236981245 16.533572347201368 0.6381992239962256 
5.144964439977755 4.52456942813507 25.20475149576277 3.443711153830146 13.963302811779368 0.8144956010518997 
8.091701058254735 10.589321961279783 19.76160272550345 3.443767099057745 4.559141815374243 0.7403128683808736 
3.91188290856692 8.098434941964943 0.3797202285457999 3.444251379743457 9.963176218148739 0.7386046302998646 
8.919703243009902 10.262627696475647 15.50193793485635 3.444391754329049 3.667270115397759 0.6418213387534558 
4.766670346128622 9.637323194141494 0.5100484664672535 3.4447406583199984 8.18437017307987 0.7318131469127523 
7.739610298923168 10.66025855609661 36.478296430566246 3.445225923541407 4.920474737098164 0.6195196502184752 
4.313613680497738 9.052174437656545 11.131634026413607 3.445315271655517 8.927267474546646 0.608141634533649 
10.523000716157847 6.173322163769701 37.367926649926204 3.4455433317547084 20.553969219387927 0.6115742287179583 
4.667439596124524 9.531413349438257 18.629109258826944 3.4459345772461405 8.33237094913559 0.7755999297645527 
4.161631942178326 5.720863014317562 10.518822688315701 3.4461974960171946 12.410911446661931 0.735415502378997 
7.018468882738098 3.811399445373219 17.008335860721957 3.44638657618964 16.009008491669945 0.677703971792749 
10.42858423489498 8.582615446923668 18.0779723356721 3.4466304802955707 1.3682732809580447 0.6749798433015703 
4.67158619826618 9.53756645014867 36.930057070187594 3.4469084694574126 8.327369096828761 0.7740150831251619 
9.805078885979302 9.563640225585186 38.04800035626132 3.4469347552605476 2.536423434536516 0.7545990508535466 
8.626537242891022 4.0892335937674265 37.80407565734627 3.4475062082372516 17.66200780684591 0.6855231011056837 
3.9014421245692983 8.070654746083818 5.821652032183124 3.4476534131752374 10.002513698389844 0.7364185229362288 
7.103474043689763 3.8053312399579404 33.001871885214115 3.447783740648815 16.100728006488875 0.6461424508574539 
9.972672608092987 9.365283981272098 34.5269777469843 3.44780690472744 2.2772940113816595 0.7609161298737458 
4.025536317436266 8.470956747468877 28.21583625405978 3.44788361453258 9.583813657913922 0.6187449565882338 
8.166801886028118 3.926075667253153 16.557882449574294 3.4480427300210894 17.176481964339757 0.7166205050872421 
4.922309651486955 9.794051124282007 32.455194634790374 3.4482370106362086 7.971676635866853 0.6436082882994717 
5.494176119780104 4.282050189875511 16.90527156942384 3.4484262459516875 14.408120213265946 0.6081961746331424 
4.759920221041545 4.8642454900604575 31.24546168660115 3.4485245957183857 13.468549687132935 0.6485178374353885 
9.698167563114055 9.678755013065992 15.939011011352335 3.4485323444295823 2.694744187704419 0.6929876428411069 
7.610605957990472 3.8201161996938 28.323243704704417 3.4487881263628153 16.613297448395166 0.6192840805821125 
7.838481617630713 3.851785148446208 15.599405976638892 3.448793237004797 16.843430644537946 0.548035745303021 
3.828708370583392 6.813129105764837 28.25687921596841 3.449071265101081 11.273624521326614 0.7101879563002341 
10.378824898120858 8.701450696058387 20.75578270760945 3.4490947169060724 1.4981139997030084 0.7436565886464662 
4.160619608233787 5.715629463072027 1.2093690324971647 3.4494295397387362 12.426792065049078 0.7569003345472655 
4.235154389717357 5.573746193377197 38.70500570212593 3.4495102374189233 12.587368505118807 0.7643934780204 
5.466126366279459 10.202709422959444 6.619479415735817 3.44973884192946 7.2936458147052114 0.7551009866781871 
7.92076044652153 3.8659759822449047 20.772658495256067 3.449860595641668 16.932145235830077 0.6758967958010803 
10.23128276739995 8.986426638651519 19.771957095718484 3.450104985448205 1.8196189750727854 0.7076962538995952 
4.538708628531454 5.116407926932071 27.0784725242218 3.450118263952423 13.139127153163027 0.5422842260143655 
5.575359021572311 10.266736626108756 20.8833713966337 3.4503800193508076 7.168369586305516 0.7489802483882391 
5.7309003079723695 4.151889010193743 26.592654461780683 3.4505007722759236 14.687078937042259 0.7109917168819749 
3.931079391065623 6.30591075430203 19.929957139725957 3.4505852419918397 11.796616747497023 0.7293202934780686 
6.21955181853372 10.543321038192342 5.36995872574532 3.450766134539902 6.466862462793156 0.5874909031136473 
6.349357114158703 3.9184496548729477 3.3061013480171226 3.4511426093299487 15.351933828598963 0.7447233391088957 
4.936958236173213 4.688479875012405 26.25872107569839 3.4513109903228654 13.729043281291478 0.8145331189764214 
10.634365013174353 7.926940327369248 24.852045421530512 3.4514018527574337 0.6813574183255007 0.3635338811738441 
3.798718148546472 7.300529999693971 36.16408709321186 3.4516517349004903 10.79315192838921 0.6374331449986763 
10.631736059399127 7.941211743771804 8.747161808423975 3.4516535820050662 0.6959170072755079 0.3939946580846553 
4.115292819522288 5.804604263915419 23.303062443460753 3.4518919364936695 12.335799207382902 0.7513175588029243 
3.9429089548367156 8.24113447261561 38.588362826872896 3.4524192566671554 9.840814893270664 0.7696105442134152 
4.832403720887688 9.71476394653983 26.603924222771596 3.452511126838011 8.101434598110593 0.5965793213287486 
3.936084127715402 6.280607374895286 16.078557643542318 3.4527902441630007 11.829862473216746 0.6974092793375447 
7.491840015877546 3.805607219407248 4.38313578898164 3.4528724593125535 16.513316311407088 0.6543013403737666 
5.94591542763791 4.052826339971119 15.973586467376919 3.4529054409663877 14.93416919072095 0.5910441926933914 
3.8035787322470327 7.036320015105009 37.64860817720074 3.4530390514392804 11.061858712793278 0.7925553236754318 
4.580966898680554 5.059091682005284 24.55715783872838 3.4530880315736723 13.221617222964923 0.529916679004646 
4.0849671695196275 5.869207796420188 21.702345073788386 3.453117421618528 12.268808140372862 0.7618861038502761 
4.273196499003513 9.000397418165782 9.631452180513065 3.4532955571549873 9.01321945692646 0.6545762087239628 
9.185920251177748 4.390295663044515 12.205687274429074 3.4533601193217778 18.32866557633335 0.4917017437078459 
7.664426568039458 10.678412573605627 8.036975274633434 3.4533696812177688 5.009112609567179 0.6879440759213997 
10.637572577507107 6.578798972621282 33.48102993799477 3.453427107531356 21.023022171930076 0.7609838113665838 
4.929901777193786 4.691845449372563 5.463553671608935 3.4535504149157026 13.7304587321578 0.8186982771866654 
3.818411437133019 7.639675316263801 27.63729626602173 3.4536425577793617 10.459431194397688 0.6220986241301772 
6.83557344362486 3.8209657974029945 15.553849650391108 3.4539868171736035 15.861101986735775 0.6909715871439314 
10.309292146500951 5.646515064141342 11.703979317455413 3.4540457983599553 20.034902223432642 0.7309802022808342 
3.8148798058751456 7.612206404684606 8.705818900853508 3.454163318037948 10.488700602347723 0.6452709512889208 
10.13633490591732 9.148075002412813 33.49583533611777 3.454506897359036 2.009502231534846 0.7369539609239888 
4.9807309816664755 4.64463308271495 34.26043885726619 3.45507143938469 13.805878725681314 0.8776838451692767 
10.204409146246654 9.041783710081823 16.65891628781118 3.4552890280178405 1.8837165217731915 0.7942271308511875 
7.124224419105353 10.703043827041839 6.526922830207781 3.455333727474256 5.553428899670934 0.606757879824377 
10.58792552752962 6.356739450840941 25.243741539439824 3.4553814892161836 20.80728070889312 0.5782079441389024 
3.8826461294734074 6.472505801436657 22.521581299349144 3.455946949556676 11.641384306596006 0.7308039480732872 
7.2573291879905 3.794042551115826 5.797766153408865 3.45596522052734 16.293181615290152 0.6216593721320335 
7.959910955689546 3.8675709483066676 3.3564544041978053 3.456124976725684 17.001605522771534 0.6208735028479017 
5.3502021668873745 4.3627843609845325 32.707235881855475 3.4561895134490133 14.275472806091582 0.6876813882819921 
6.646149516733214 10.65303809140254 34.21307428852082 3.456197861476994 6.035948503527141 0.746680786382645 
10.140117310786719 5.354249637357796 13.701107079201165 3.4563922676060823 19.710574690903094 0.6497703615369733 
6.138738653021138 10.5230790147019 30.283714754217534 3.456580393650816 6.560937157105286 0.6097424872422076 
8.32682012778724 10.534665512100194 23.7681318405644 3.4566702350655523 4.33468058070315 0.7157432976127492 
3.8149272502425458 6.863208802985479 4.8290629063789865 3.456780615864154 11.247399480357661 0.7225647835987508 
3.9506379029128915 8.28185906812773 32.60004105769323 3.4569529045349268 9.812507509397737 0.7508664399407108 
8.884018923139006 10.296992694911772 2.920539233175006 3.457482078626304 3.729078979853824 0.7813582761651454 
7.926393759638785 10.640708624203327 37.52879381717741 3.457515508616717 4.750268472227436 0.6992601890943893 
10.220505546085661 9.019398355114145 15.397767117171519 3.457553143251206 1.8574632002856823 0.7751905933135215 
7.311759064794456 10.70703672664586 11.532731660348105 3.457588337477816 5.36940471080419 0.6448576372718935 
6.006009210504107 4.023558054057869 25.0193258959058 3.457953255161998 15.022702681791461 0.6725607491143007 
9.628687825962867 4.740071713242342 19.808491776108546 3.4580190540322633 18.918640535651967 0.6277302984297145 
4.223220674446752 8.922574064858306 17.32673901991285 3.458163831867023 9.118353583783435 0.6571163053712255 
7.944766695113048 3.862298515686412 0.24223772747484418 3.458210824611302 16.995961983955777 0.6456226800303899 
9.6886755399513 9.702065165961965 32.73373348699668 3.4582888785179335 2.7256016408628696 0.724229519669102 
10.440590903113607 8.585515343988282 34.979437667356855 3.4588251683280276 1.3711465106394058 0.6423051344505196 
8.885468077419743 10.298036076776308 11.707793154568527 3.4590865495949843 3.730025490079754 0.7846064049922267 
6.291797614727033 10.573959239941999 11.707042602879241 3.4593145043402176 6.40477727984268 0.705972736226709 
4.10821736053345 8.697980834271437 2.974075280633542 3.4593997528575393 9.37403541738028 0.7164596914164147 
6.324540076675712 3.9165027166379964 12.873932955257033 3.459578038989907 15.36600853662604 0.6911725587788756 
10.17103921753897 5.3947621985154015 25.07677851265369 3.460401336616622 19.784273977682226 0.6655916970233241 
9.146209349836452 4.355377063555768 10.738831137742565 3.460412091441743 18.313632460736017 0.5833513688730246 
4.854179030205611 4.752941580154184 2.2417192434225583 3.4605286982525403 13.661055213932222 0.7297424719001128 
4.195297476949296 5.623840616790165 15.104740038613144 3.4605782528262137 12.564602328961865 0.7712914287007744 
5.720592007730097 10.354569512311922 7.817049143853936 3.460843923611081 7.020431214254849 0.7512187859012703 
4.015527651004664 6.0174506132432946 27.546810731931487 3.461356579032235 12.134378597037433 0.6407914124316991 
3.856375390121972 6.568559441821753 32.85845373564861 3.4613652259043795 11.560120592349868 0.7294709974830493 
5.701846384819966 10.345982418450115 23.809566470904855 3.4614862055982885 7.042344880122066 0.7600245849152536 
10.167296339955545 9.11340425175923 22.640793985766805 3.461631600935084 1.9676652662464456 0.8140219927932284 
6.098293695353371 3.9855398190616107 1.662310177134671 3.461665449620324 15.138626707156767 0.7960292325298487 
4.050231886701376 8.571350269793856 13.195212347396527 3.4618611344718815 9.52001759487952 0.5418295474745058 
7.312271927380436 10.711317147650716 24.049252183325258 3.4618772637920845 5.37562880374249 0.6796360563251442 
10.041834732693529 5.2027953540285665 20.62768983008835 3.461991917547033 19.56187895900898 0.6118672409222166 
10.694517440351836 7.59912065226805 39.66350023124719 3.4621648757284875 0.3497150465896439 0.5823211728938591 
5.424299330335513 10.191953248084863 39.967768049079105 3.4624083885541923 7.3617962836513655 0.822071860327834 
6.956072804619124 10.700532292483688 23.053340441864712 3.463028486405679 5.733993673842754 0.7357641506987498 
9.984619083808832 5.125147691723885 29.875197783315528 3.4631111540806487 19.471739986042834 0.5863447938692775 
4.180839042476336 8.855896912387509 1.0010276026825053 3.463907313483332 9.212362461985308 0.7081451032294235 
9.789115076139925 4.893613473761782 8.143170439244756 3.4640529486308504 19.173864342725054 0.7064522224299437 
9.639153158182534 4.741596232016512 35.35156983492802 3.4641221509189504 18.960674981537473 0.6104569632399898 
9.109207959009911 10.173303214059743 16.605322045492038 3.4644416456591984 3.4794396075833305 0.8189606022721619 
9.015591470277425 10.23078219064611 24.571109100488286 3.464444502079576 3.5893010260418876 0.7280692767684535 
4.294349151778506 5.442095272229206 30.500386027266174 3.464735407110973 12.786793937305182 0.7269865952464233 
10.497004494975755 8.459142527060356 30.499490127537513 3.464832440557354 1.2351362849114906 0.6792032925104986 
10.41735886334366 5.845009670934855 30.4976930050332 3.4649906196075344 20.32452465376344 0.7035139311555996 
4.898100690570329 9.794583061604083 2.0846741347692586 3.465015630426243 8.027967614779627 0.7078482187658885 
9.161366186682013 4.359405880281656 36.279740401740916 3.4653794979109582 18.354807967741493 0.6658665965591459 
4.722365287393815 4.8793091052535456 1.2288142023939486 3.465416650102191 13.4976643471811 0.6601073617854878 
8.223680900835337 3.9239964364907856 21.775334357927917 3.465595793096406 17.318203764423465 0.8236227033920269 
5.202445764784226 4.453684442608289 11.305873797842168 3.4658128978150247 14.141750882636941 0.7697127472042153 
5.0873868264917625 9.958413062899519 15.10326388550029 3.465890514357908 7.779571266825268 0.7098289476561227 
5.852910403551441 4.0779454123857 29.090156989421402 3.4660914078122254 14.89558399839579 0.65262103905636 
3.995140492401763 6.058411719969959 17.95409426799263 3.4661207485180876 12.105543068940129 0.644231074693878 
10.501418712294871 8.452128001941317 38.439589739679 3.466530740627097 1.2276276949422709 0.659342575179695 
6.593587801064956 3.846146693515406 10.992045193116304 3.466568087745695 15.675417734487752 0.6937617449199952 
7.7690442756726625 10.677644062186907 17.857628153168662 3.466720464236152 4.924508461081798 0.6763722416389039 
3.878794102517885 6.441492405190612 14.543688097153805 3.4668016577362275 11.707300594078905 0.7944566206113743 
7.8918236846160745 10.656890894462382 12.378403077540014 3.4668203312119954 4.800120883656703 0.7061032053393668 
8.988269988852474 10.249807868491114 31.40053206325703 3.4670491490612565 3.6252033417541103 0.7274461002884749 
5.347251068196536 10.1484877411384 11.629273782767655 3.467230116823632 7.460443550823165 0.7293959164057766 
4.751465138999828 9.654152901776756 30.62794618141399 3.4673660935578665 8.236531129899568 0.6652677360985838 
8.831737549311052 4.164420157708797 39.33275972331593 3.467376045088612 17.982101682256975 0.6195443502907246 
6.805825228355193 10.689379357243936 17.53362589097793 3.4679419820408506 5.8928287659612515 0.8107401228190462 
3.983486771734329 8.41499860736537 23.332617418224757 3.4680441787263705 9.707079208956511 0.6290023693447473 
8.536199803381859 10.470731024557383 13.816979266221601 3.468056843070194 4.129936141639568 0.5662425108842848 
8.02471683239862 3.869483142273756 35.83673448242459 3.468152302851342 17.124591547023783 0.7361558450281532 
3.848312217090692 7.926846064893139 13.962348681080087 3.46837142877688 10.214992770450735 0.6596079916125026 
9.392013347461884 9.978137783927343 5.43958663171199 3.4685669877914815 3.1396513144692335 0.6607919444389899 
10.549219915218242 6.179383930843146 3.5577360354336918 3.468583401982648 20.70536328765226 0.5402324182853323 
4.519446448786315 9.388974856476048 8.143001939029162 3.468592817365912 8.5920092785038 0.6741665343268651 
10.713780602063931 7.433190000487752 36.793322419579155 3.4686214315651513 0.18327526845536468 0.6764813149886592 
3.802265861490497 6.86814019435427 26.950485599509626 3.4688164553650944 11.280243589855516 0.6547163032737684 
4.799180207760962 9.704843894172457 21.323908811377358 3.4688292259473386 8.170390839510873 0.71291923918739 
6.273918054100211 3.9213163638256425 0.35525047342565585 3.468842849546008 15.35709240074236 0.7268695731993386 
5.220108453000893 10.063175848433957 29.81649963425705 3.4690658752451755 7.617547770263954 0.7056430219555715 
3.8714263626270835 8.037552479399771 12.177498927541372 3.4691495688367198 10.104175866820643 0.7137973910093306 
3.806374983702442 7.670130856972067 25.061474412398624 3.4691588591257174 10.477519330060808 0.6136271071592875 
9.502683380915652 4.611152166451385 37.89947411379709 3.4695965620339475 18.80176120221539 0.6559616630303242 
10.531797001448794 8.376329560795684 12.96748622187847 3.469698810882652 1.1471126260754794 0.7693742074314494 
9.545360394009798 9.852542551138766 23.022432249438342 3.4701451077551058 2.9427982706370415 0.8067948786966374 
7.106769063064968 10.71742348225628 2.8817566814551725 3.470380484413422 5.5945325491627 0.6060392476672757 
10.561233896735867 6.210803268278747 5.003315983219309 3.4704754380506326 20.75025157813738 0.6080316243026754 
10.358590487290716 5.706569586474764 19.029355652538428 3.470664527013378 20.207380864869023 0.7342304061609936 
9.177490628748643 10.136692295038337 39.78004045798728 3.4710535187674028 3.4088092485945687 0.7732284922312141 
3.9109789230639986 6.29935552556214 31.028048055765026 3.471712354012367 11.869650182096166 0.68637660810258 
10.70942967267976 7.542858255911449 30.14830584931225 3.471803510896418 0.293206677586344 0.7048302611201092 
4.008793149468744 8.49420022432441 27.090439235154676 3.471808757137934 9.634508193053406 0.612308052074671 
3.8290836917647955 6.657641559537314 25.12273589842195 3.4718232832241 11.50232527956064 0.6898565804540702 
10.67739682267492 7.803673965989702 2.7941827555734804 3.4718300420235026 0.5560481369020174 0.5191902522740298 
3.9739854925879836 6.100044476278136 37.28498870777584 3.4719834042392 12.079649288691886 0.6722263090292803 
9.590870857144662 9.814868680505104 1.5817390931229056 3.4724958917276147 2.8857372497952696 0.7712197508794729 
4.2225565745930815 8.950954056799056 39.442467510694264 3.472557904107684 9.131788551376303 0.641336416590378 
6.635606917566825 3.8320900996403164 7.173888784093613 3.4726915997131798 15.74702933693132 0.6437389077291069 
3.870101177157128 8.047436871441336 3.8212357969696953 3.4726965914961205 10.105181360683616 0.6985127453650223 
5.91153698190541 4.045452452902252 31.902188622388962 3.4728386418630324 14.991334653194123 0.6025213962494157 
4.91099186322565 9.817604942838033 10.752028524226915 3.473262760918458 8.021981821853835 0.7094944805375946 
6.58740905728537 3.8402163671898766 18.640521496602155 3.473564621530347 15.702111220015375 0.6868562352788666 
5.036681273490981 4.572731194762442 3.973797510653462 3.473693717156659 13.969715222406862 0.8715293441760312 
9.090119030071385 4.303723576911214 29.00170901725643 3.4736987212594723 18.30871973810082 0.6230873212393963 
9.65052642752886 9.761305730216952 13.062544124374625 3.4740730562100968 2.806870032978182 0.7411957891239609 
4.850785851872098 9.762622133984193 16.078666096692228 3.4741183797856374 8.1054999061062 0.6229286119788615 
7.823250521627182 3.823368022098901 38.366770157584114 3.474251411818126 16.947908098267735 0.6673479203842161 
4.7633936197591105 9.676406198744349 35.5491642171936 3.4742852979511776 8.228660898066344 0.6595914030945635 
9.05382692197092 4.280425516110327 13.401287933181145 3.474502004575002 18.269829046830537 0.6288514946929326 
10.20614913690789 9.075858222927087 12.28088228144658 3.4745612629325917 1.9224562234962903 0.8235046322830829 
10.278549432812433 8.953206035026556 4.590043066215529 3.474625514316526 1.7800538076550971 0.7037052005920665 
3.790293725161858 6.928144734380172 24.02808263849822 3.474645063911079 11.23823672537247 0.7098047096938779 
8.685529740525496 10.414285937007204 18.229722863380864 3.47468719845035 3.9781614836058097 0.5782623828363347 
5.009830576815364 4.593771105367619 23.756549309648847 3.4747533704208906 13.939875686644692 0.8725270306714673 
5.341155136274944 4.346349685128562 10.301064381446537 3.474891921315327 14.354197525123013 0.6503470939016366 
9.75226878175712 9.66133494139431 19.051652154750585 3.4750374466680745 2.6649844235097255 0.7908121488421241 
5.997422777471819 10.49145457723236 22.817630014617947 3.4750507154079124 6.740017662660772 0.6246817009160641 
6.259326722934695 3.918944238134797 36.346210350031114 3.47525049896359 15.372125717823792 0.7148391071149016 
3.775937271269937 7.346503126069088 1.4177453883419489 3.4754028106814436 10.821784406760077 0.6868732574725612 
8.904878897762114 4.193873945077382 3.325255373557816 3.4754180510889965 18.102338704952594 0.650737015740738 
10.58112151290717 8.24116332869199 35.908060406384664 3.4754532478364237 1.0051160222222322 0.7108740477971729 
7.240101731601808 3.774552137878459 26.782481395812454 3.475461957501833 16.367830348498202 0.6757740115548508 
9.517318004423547 4.615934492176951 27.39350611984979 3.4754901859574105 18.847934368199347 0.5637938341935308 
10.684293466106354 6.715707949886692 18.668652487649652 3.4756063652483813 21.30145972120228 0.9384099381405502 
7.145556693641229 3.775842495754066 8.518738737123819 3.475727084877564 16.274518982781565 0.6125211719933207 
4.347370819916854 9.161946774750383 33.090059112979596 3.4757440392739727 8.894878592715731 0.653080911162082 
6.209027524102794 10.566228915745889 21.748590462359374 3.475772995637764 6.5169297306607135 0.5711522122978142 
6.42594860858776 10.626743162605798 37.33389516194052 3.4758387594785574 6.291807749229562 0.707956085647129 
10.703988525228507 7.641488025725359 0.9553445124546869 3.476104084560258 0.39232038192059093 0.5078037354391571 
7.817047659584182 10.679688251895215 30.217075683621346 3.4762486322799093 4.890885629334125 0.6873240629511811 
3.854805838961232 7.9963684391856376 7.267772771870128 3.476263689388962 10.168779370128242 0.6681724472663637 
10.115966629168678 5.282491486638265 3.8581221446220404 3.476327727596951 19.751006299433143 0.6629590633443162 
3.8002026815811902 6.820106762637721 18.619344701472663 3.476479502844714 11.352678910085599 0.6939454065285547 
7.679236849972877 10.700031178649699 5.527863176814762 3.4766304674252724 5.0307434766175785 0.7360004525691693 
10.704013578495513 7.646509419476448 10.208608168647771 3.47669807722283 0.3973740481190404 0.49817142294613553 
10.684456627923433 6.708000465441028 26.455100661280103 3.4769607165668925 21.302169540276324 0.9445443653061577 
8.699297680803205 4.08909446509408 31.760102781532034 3.477324771743421 17.88142931362578 0.818737410467983 
4.606139523789361 4.990720780129546 9.920903053306205 3.4776918798259286 13.384646165283847 0.5685029154958812 
3.846539697589474 6.533783856027355 11.011638384858962 3.4780033920298874 11.647847144490989 0.6858826129985763 
4.9882148816503005 9.892265771390647 25.098701175188495 3.478108728641294 7.92579115124925 0.718021932607523 
4.21186242250816 5.556762516101921 4.75069400423984 3.4781220675309084 12.695299063912412 0.712405099149047 
6.563253915626907 10.660141172568773 9.075655111938943 3.4786035993269606 6.155464894949837 0.7552312187383252 
4.476409797407159 5.150081589508314 11.323316649218462 3.4788590001092206 13.18358816248034 0.5463496874638207 
10.7204214924277 7.0050436137629255 35.544566988559794 3.4790557578547694 21.614392790035218 0.8865430396792058 
7.934822709174361 3.8385669267361955 32.358002164186125 3.479491019726741 17.086038062030685 0.7008482358679913 
10.469777280322926 5.930672228737421 38.39844016182799 3.4795964569053646 20.509770528236295 0.6696470652863217 
4.345956659199507 9.16710087370874 22.763692602248376 3.4797619868638283 8.901634704681818 0.6380118122409998 
5.3462135958297665 10.162923952931646 13.22349703166114 3.4798748006596965 7.480596106388695 0.6707669618970223 
7.539719249574244 3.781785295909998 30.95739011088056 3.4802945963294496 16.690556819221637 0.6114890089272351 
4.478682083621889 5.144343803465961 18.26067301854046 3.480515911706267 13.195813415928733 0.6125949535400648 
8.071900845176426 10.63247765635647 31.99154806616201 3.4809016209959815 4.63805141394111 0.678710692514639 
3.823778411956905 7.865306983063482 35.2370263166781 3.48103390586464 10.317433544579142 0.6321188286314285 
8.384569520009332 3.9588862105521674 36.801946336303416 3.481189160449038 17.560398194258646 0.8239479439101147 
8.555117073015019 4.022165728079253 30.735350637223085 3.481701403231102 17.744924170559496 0.7461399900409202 
8.204109005920987 10.598476414748166 7.121162871756582 3.4817550596364835 4.502655372399403 0.7001303818617243 
5.693902865591323 4.135283869345603 7.819919588241902 3.4817947765877304 14.794373324875814 0.6682494719910819 
9.915451142372985 5.009834996938206 37.07471247235506 3.481805427263316 19.443322974249007 0.6352616069250795 
9.67616810829473 9.747440675876252 28.502583245730975 3.481881907708488 2.7850627312137064 0.7427982375702428 
9.26547068012923 4.410205013515117 15.896547583728292 3.48232072442003 18.55941607535184 0.7391872896685836 
9.849233510546792 9.56748448518003 35.53931377545449 3.482348228049505 2.5356944165596005 0.8217950794489273 
10.350975116062596 8.835133861954741 24.271533636620426 3.482627747944789 1.6457010336076898 0.7232089702196972 
10.530425007964508 6.080341121180243 27.9243318081703 3.4827130409611473 20.689686996854014 0.57508505668728 
5.904610743993409 4.03762460312932 27.668796937731358 3.4827328264737782 15.030671021391882 0.6994855263525975 
8.740104883421377 4.101962946331174 20.075685288289137 3.4828938908425173 17.95252576137468 0.7536893869827298 
4.381935032499333 5.273715553825793 6.721998687012281 3.483029840526017 13.043745526874517 0.6300236051546237 
9.615669873031287 9.806447273013703 4.0827296821045636 3.4830757396110505 2.8705350303981234 0.7864990450158422 
6.6028642789481005 3.8275222139837304 14.503585076843251 3.4831219957440758 15.762907902538842 0.636621834943686 
10.68416882376069 7.832639921460228 5.466147950794152 3.4832434293584877 0.5853916612361054 0.49410069612432284 
4.417517202826973 9.277674633276565 25.68513673431371 3.4834499012780973 8.779333074581825 0.6649143924672416 
5.50401437227981 4.235435009968137 39.684849791071606 3.4836859633628383 14.58764422514885 0.6493869365098924 
10.532432892030162 8.417180161743552 23.376449726177235 3.483773129905159 1.190198409417139 0.7518284268995351 
9.454666241698437 4.552296117988831 23.9003918152992 3.483986146973442 18.80499952833034 0.6539707665493187 
6.221820037655039 10.578852960429314 2.365308534128033 3.484022971670351 6.516411898429574 0.5800990040746394 
10.66492904063764 7.940714424043728 28.701685211573277 3.484081911805799 0.6953208369372526 0.539315380714188 
10.245987870186275 5.471523929284286 7.40489071325846 3.4840953563890458 20.024736134495246 0.8032703441908099 
10.731327505426375 7.39250781984933 32.74873721935313 3.484243056785278 0.14254758247786015 0.7754991992033804 
7.338964857148733 10.733120825511708 20.4081114353654 3.4842567974994147 5.3840832523105036 0.6542936072559684 
4.820468487559458 4.7524144865741125 0.21001025063674916 3.4843301747705375 13.73105557516039 0.7283327943748401 
5.320521227184521 4.3482989690008935 15.173454680216238 3.48464592290907 14.376176923971155 0.6934749645903681 
10.551404644983576 6.134869545023754 17.276213368948348 3.4846504217115783 20.75960626616837 0.6829365879921838 
9.737153872188918 9.69087532157514 25.697917255693 3.4847965104750167 2.7042284212223784 0.8341075187312426 
4.78536852537864 4.785654022492439 12.7608077788083 3.485313386562527 13.68659178640846 0.7833039847627894 
6.148864415168569 10.557034466027241 10.300232714183416 3.4855381988545386 6.595397264381603 0.6857493456345692 
8.706523288745728 10.416827125123753 28.864983884986536 3.4857214649306463 3.972726224418068 0.6300283105698892 
5.837380205846744 4.063178040849651 24.005901018586414 3.485875626317792 14.972346592556114 0.5470569290033388 
7.625893867282411 3.7842583791451734 34.11249368579614 3.4860667208167384 16.804328510253022 0.6373709595187897 
5.978107345658238 4.004153142538602 9.607015073730025 3.486148698242887 15.126141678240511 0.6933693374888557 
8.291632203167023 10.576978514608976 3.844764414563535 3.486227715360022 4.418365478086471 0.6880737145473909 
5.36863208939889 10.185274823205402 37.45289873508415 3.486457156309702 7.463751785886089 0.6672462506317166 
3.7740790458065945 6.976506029080124 34.742156078952 3.48666394020564 11.22745303098268 0.6536028141975004 
3.786385799759598 7.651717233604577 29.440250278550835 3.48683238253316 10.551595727933908 0.569618129114298 
10.564415640810944 6.167071207063486 14.139244199349179 3.4868446783048914 20.807350960252542 0.6048651958349364 
5.0917041793324 4.511249127799271 21.258557606697806 3.4869753640499783 14.104717684525571 0.7696430853341192 
6.469789530520028 10.648714927587154 39.843426633856076 3.4871179411786337 6.264423234535162 0.72290499089685 
9.995469715382587 5.100005168305582 9.867236080571999 3.487130874285574 19.593597582785165 0.6432420311792634 
4.031677670310085 8.592593598017647 24.504073109520434 3.4871415496390026 9.576984870642793 0.49977259555465364 
9.772380833135482 4.842134665342641 14.666873123405566 3.4871507763808895 19.252594671153695 0.721070099551634 
6.31975966123883 10.61091295534312 32.345200221530064 3.4872744344619195 6.4194393934420475 0.7345803293568096 
5.538541146590418 4.211455435669155 4.776217324446705 3.4873836147373516 14.645024463464047 0.6408186068257955 
7.039886581617548 3.7686556451614486 37.59415649365784 3.4876791947584014 16.225060280571768 0.5953817197597447 
9.709956705037559 9.722992145284463 0.5478545588065344 3.48813376195608 2.7487913092467124 0.7569101874306569 
6.6363012376215895 10.683727434028562 14.552184120192578 3.488138509598661 6.096064970810403 0.7639632083014204 
6.356069032354986 3.878255826936023 4.306023100283035 3.4882332696517917 15.533895295725507 0.6822506583003445 
5.396781200520746 4.294759805528592 8.804918169370907 3.48824662628128 14.48419055499308 0.7332287998368348 
5.76475483995695 4.093733998138312 22.237149743251592 3.4882614953496915 14.903810197035824 0.5779345561808632 
3.762860838094271 7.3429129289398976 32.21526129828099 3.4883767495585656 10.866134851149837 0.7820382046017168 
7.3713511780535725 10.7362728389646 28.732210102051802 3.488384212800717 5.358165440994334 0.7065949014243981 
9.634169512390187 4.7032761592232895 0.4266811124667633 3.488562251844068 19.064408623117977 0.69257668088579 
10.66677183358795 6.5454031562193045 15.875337366567095 3.4886654289377903 21.21045421301497 0.78090381033419 
5.18245435769386 10.06058753140577 8.69307512895412 3.489147066936658 7.693692935668903 0.7159206340629206 
10.73330059900266 7.043573286000267 28.198307083421113 3.489411848903055 21.718073951414826 0.8508116470179121 
7.094400745283174 3.763917882720598 25.131412683160725 3.4895529307468127 16.288479914183274 0.5647784706815917 
9.128755380356276 10.190728066226853 8.046507524738757 3.48964229380491 3.4976063157101827 0.7486356683134545 
8.802835472069143 4.12474494776149 0.7549784327203994 3.4897732225545157 18.054435600007583 0.6288579776424272 
7.733598166034225 3.793836091471441 1.7831430916950524 3.4898332551580564 16.930611193392007 0.5826440713601181 
10.655571782106 6.487256385682498 36.4088473399068 3.489942260877498 21.159003737714208 0.8563308822063651 
6.072913261091438 10.53553652618778 29.009316542893714 3.4900262829710114 6.682749432223833 0.6338894983414217 
4.28809798842425 9.096042014959803 20.25878224972194 3.4900909224794323 9.019246032495914 0.47361075428696064 
4.322908844816752 5.3489910501170606 2.8916110293334825 3.490228883366682 12.975217099716804 0.6531784952442647 
8.76493452294165 4.105516619199523 17.350684588838277 3.4903871333894796 18.015112582238583 0.6541000450433574 
10.152832452098453 9.188182195509823 31.950867955075296 3.4904135095926927 2.054835566768933 0.7662164198370489 
5.448562663122059 4.260353231272823 0.8705241351460629 3.490438981053634 14.555445697546322 0.6645106768412314 
6.939626139793898 10.72665550335181 29.706577783293824 3.4904821188606086 5.793620822853697 0.723081918599343 
9.209098802419403 10.138936553063205 36.8382871570336 3.4905619211333065 3.4029269975455456 0.6964968261580987 
9.704548302730702 9.7318872561856 24.019059003467518 3.4906405891834065 2.760874366023799 0.6771366030898334 
6.212981965276612 10.583076502511972 12.822368051924599 3.490674057533729 6.5360499190306065 0.6386165619677272 
8.418108394677631 10.539505796397021 0.34414892974582045 3.490748573908749 4.292168605190419 0.7497444330729275 
5.76349042947685 4.091568404110603 30.90664264573563 3.490759351368892 14.914260444041467 0.5738699788133513 
7.41068644120841 3.7628998658393638 10.340117326019943 3.4908004065044107 16.610752609869223 0.5744451019413643 
9.923782751827115 9.494304089522235 10.586172118128559 3.4908473255377963 2.437633433185006 0.824487701199656 
4.578467881676161 5.002997538354407 21.989622480993958 3.490860054754015 13.4080163758038 0.5464150045466282 
10.664461048049839 6.523143662737645 11.22696077834825 3.490968974893364 21.202191725850934 0.7432862087220652 
10.740355869911621 7.173313454300571 38.279759064613486 3.4911982076241124 21.859152568793693 0.930369870558853 
10.728954556474346 6.9574487542498975 21.23221268348607 3.4912334550132176 21.643172045474653 0.8839979729598549 
8.549696509605152 10.490351093123087 26.308069257557136 3.4912871872396547 4.152342319641029 0.6552540217052143 
8.541940960562831 10.493480406813209 34.979590700065046 3.4913144508853984 4.160737817988224 0.6252823360756835 
9.777868230907172 9.65815714364402 6.950254142379812 3.491323333825369 2.6574221171436854 0.7884358213953541 
4.360303466113583 5.290496617226763 7.927049241627429 3.4914179877314777 13.049066383787032 0.6566800100118303 
8.933330958805044 4.1911691866180405 33.498340107794505 3.491425076063705 18.209445894575115 0.5555408702120741 
9.966023901845553 9.443988686380953 26.77414661977977 3.4914713505002384 2.372369383486326 0.7644666955672228 
8.112200148632105 3.8666582942880083 11.116159939784858 3.491473928573913 17.32439604889988 0.7352396271362214 
9.457960291277415 4.545227463972848 32.475111092218356 3.49154451776067 18.84387382360315 0.5215949377408448 
10.735009812838843 7.032691555349777 16.856144515337256 3.491778394414418 21.72204173741421 0.8661670732443398 
3.906427676637236 6.243125128862168 11.976211363074867 3.491886723203705 11.991462568618036 0.563060459947236 
10.226076063600939 5.422677236119757 21.607111202666033 3.492296840151677 20.019704416950198 0.7977937850513166 
4.565964515923785 9.484324431413679 7.148430256716665 3.4923132941636674 8.547004142450316 0.6284826913241822 
10.716876611468633 7.671585700855193 34.1078760998014 3.4924157745482933 0.42261636654936297 0.5389461498419384 
4.825763142272351 4.735989357283799 38.48227600655622 3.4924452542674946 13.778283590367035 0.761586116418296 
9.980058541890147 9.428110028583173 39.12246540988839 3.4924751879951788 2.351880131882119 0.7281922762752665 
10.733731471404367 7.497308808674088 23.00850364890116 3.492498620143039 0.24751595478918276 0.7599676865559603 
10.341393292024541 8.875219105715033 0.4338839733278945 3.4925706331519626 1.690453991074417 0.6424035868497161 
5.148310265737969 4.460461656301803 18.622112413428585 3.4926528470583627 14.20358402181823 0.7065799048578294 
6.541455632500851 10.67014733729646 24.755799293904147 3.492770093998576 6.199926769152846 0.7321393157604856 
10.739025946239536 7.088177133440478 13.738231761013903 3.492776645260075 21.783882083107613 0.9776964819237984 
7.294943119219209 3.757416362930943 36.60139450913 3.492872792686225 16.504719617597758 0.6659568317415265 
3.8490820943861834 8.046276076497204 2.245864928306613 3.4928925249320866 10.169905800407225 0.5219659581174665 
5.661820857343683 4.139005984660379 37.13098853365304 3.492935263162989 14.811346428744066 0.5799784449947437 
9.7153220876781 9.724512119361865 11.651822359175767 3.492996310456432 2.7498912244579685 0.6924381017215626 
7.869619162640539 10.687612336148248 22.27853138424814 3.4930082279247476 4.863888880612556 0.5930943091342807 
4.125193897009897 8.81100653519514 30.095784644190925 3.493015113652692 9.3553515964586 0.5175101089229802 
3.757307509957787 7.299292371630418 15.455133942714244 3.4930403043621223 10.924415751109855 0.8074073684637876 
5.234796067310885 10.103226295620441 36.320963443123674 3.49312856682167 7.635039425424544 0.7972574281723535 
7.081997393767681 10.73926892951744 35.66763014611809 3.4933111138569735 5.655347702030316 0.6195603632504654 
3.9386670067005465 6.137160321103572 9.075707195285958 3.493327689101013 12.10718971576474 0.5929677232999429 
10.046235904417538 5.155882105659474 33.85109234033868 3.4934603173001637 19.70446017654558 0.6143683529400653 
9.587739625612429 4.6538257061809105 6.265656546701386 3.493586627099089 19.024171302765915 0.573058669664886 
3.9363285571817457 6.142667908019575 5.584403380920467 3.4937948985134994 12.102843375494444 0.5988416288647798 
8.320714923620912 3.924312129264994 6.927836643417422 3.493798829529036 17.552364701429216 0.8152781887008524 
7.618973970715533 10.724262761527623 33.71699463598836 3.493800728032887 5.118386047478566 0.7334040277263966 
7.026297646159891 10.736717902344022 4.728050494324691 3.4938867287935795 5.712039918330795 0.7012349974828865 
5.993130859096954 10.510096376949605 18.229128808392403 3.4939874676870692 6.774030348607752 0.6406157535014961 
9.619164401242028 4.681524744972846 17.21485601715647 3.4942817710939265 19.069845103271277 0.6665236985074201 
8.638530771096697 10.456637928733393 1.3637990495746166 3.4943589552697603 4.060984347805896 0.564381256906797 
8.902752252879768 4.171191449377179 1.8789039499644673 3.494374350407714 18.188405236128457 0.5612646007870783 
10.584262404102276 8.295789459477113 33.200793986973125 3.494421464701034 1.0620653906646567 0.6681605928089339 
10.585358681593142 8.292333653538599 19.040202019220082 3.494435144651831 1.058444043709322 0.6659214618577717 
4.367639432263104 5.273895187604051 37.69576966535554 3.4947092399824875 13.079224899591022 0.5805128285274949 
9.789105219365776 4.848702326942917 4.834781467731979 3.4947511827939786 19.3108554051062 0.6629065442748872 
10.378509887875804 5.6925294944539 35.81879234163513 3.4947515640146274 20.343906661774927 0.7339103917547857 
4.106213243803694 8.776432663982682 35.55107707004011 3.4947663507176783 9.399454447178428 0.5469294236814024 
4.287187928971365 9.103432272391043 32.02546437426301 3.494777039608336 9.025565645423033 0.46770190847163895 
5.420606377268729 4.272197727093767 19.640235123850637 3.494851556706718 14.54378790174346 0.6490101985493145 
3.9496995943831656 6.09986330316034 3.885431582437846 3.4949674088225597 12.151741947362837 0.6218219114572408 
10.690149185168194 7.866640756354549 21.983873626494898 3.494978145655689 0.6198857332709906 0.455234395297943 
8.162863609052417 3.8763206562695682 14.652114078681684 3.495001041923394 17.393379607799027 0.6913077726985031 
8.818673247198722 4.12680011226778 5.848055254510044 3.4950126316234584 18.096639819933436 0.6642006444006374 
4.94937072220732 4.618949182526212 7.311593214969662 3.495042700449648 13.958818273767971 0.8006908154390379 
4.129318652207731 8.823944602346089 6.495328638436682 3.4951328566612405 9.347605965587768 0.5057671014248162 
5.317637618220154 10.16238989510201 4.724648632556239 3.495145100794839 7.53763494103589 0.6654534700973578 
9.99131542771786 5.0814701486083 38.65144880928656 3.495330025994807 19.6225129319211 0.6515589315264191 
10.06387862610218 5.176483859940102 39.644313119252516 3.4953371948245 19.742112560033053 0.7188681730317518 
9.37751810127414 10.02336677688073 17.560576789669938 3.495410784207618 3.2032825420268694 0.7248509764794913 
9.623053946842647 9.816492678603238 30.108796805686254 3.49546416144544 2.8821479036196145 0.7045677894611572 
8.823085498064437 4.128287092511886 9.740170088449581 3.4956672411713514 18.104639552227813 0.6429399036451964 
6.263668934552996 10.603635608719372 38.66987257401452 3.495671718959947 6.490899196400417 0.6154564642930657 
7.749700675130141 10.70980283390038 27.056460851200043 3.4957025637474692 4.989618425756838 0.6611847917148941 
8.531248435538917 10.502496111423952 27.741217890088883 3.4957586456159753 4.179303889520355 0.6133561340449422 
10.079964738651396 9.302433700573228 29.346591054939267 3.4958810788210415 2.193569068361249 0.779476622519796 
6.075003509438311 10.542578711719983 1.2779591231461893 3.495953564580616 6.6897561655360676 0.5177307347182865 
4.5627610830631244 9.48627252124335 13.226535106891355 3.496021708452073 8.556632315966446 0.6113070689902653 
5.738975647452493 10.40269354093622 14.142152511592293 3.496093699695787 7.0541777596119815 0.6126580449988085 
6.075508690975083 10.542956281288017 35.77771927614644 3.496139428777014 6.689509135153198 0.5229446991453562 
9.987978916414509 9.424090319977143 21.530779049008174 3.496168941305421 2.3462857479392625 0.7272247240178584 
3.9986862109234913 5.964543764568985 34.5319187636683 3.49620352500359 12.29998353379245 0.6766881670987929 
4.8374122909310575 9.78044086515386 38.770227949519544 3.4962423294147027 8.154484254213926 0.6067114080787502 
10.743917144396937 7.122425639192091 4.4067182980461155 3.496245447540318 21.839955338805005 0.9019148512987588 
10.055141755621076 9.336957691956703 30.95992548558079 3.496314155957119 2.2363631025543604 0.8153821147808122 
8.772451725192635 4.1024980872786365 24.705452649916268 3.4963734849307317 18.051472343838082 0.5743799653298828 
5.47660253772948 4.236707434783195 35.66021210936082 3.496408248871745 14.616559316000064 0.5430848506195753 
8.910556204261805 10.32692026960872 37.81358521375284 3.4964103381956435 3.7618224146259536 0.6860355131362738 
3.7601723822928363 7.035498321473092 2.7423117858436825 3.4964135584056 11.198943609502283 0.6141501915517745 
10.31670444425281 5.570478464651785 26.108372260912176 3.4964937775003064 20.2172090581998 0.7633663600401102 
10.51191141004352 5.9907323807338955 2.4986067669812897 3.4965441487137316 20.681221355052955 0.5411358747800878 
3.7649013784604968 7.532859505225144 22.22170169089403 3.4965585797399075 10.701593812361445 0.637148671095036 
4.8561471498275 9.798657450272728 24.073407538330926 3.496596383214636 8.129179862308021 0.5192508587933657 
9.148026602079415 4.313367519206796 22.96357962539205 3.496614835730519 18.483729153804507 0.6677413295725134 
10.716178792524776 7.710354232761574 27.439626573676925 3.49661571256694 0.46169464646552427 0.5333859630380035 
9.968439050610034 5.050684616306934 31.33453117314021 3.496698303947678 19.591856429266656 0.653052936292549 
4.252748905889447 5.449014735264985 26.153621171818934 3.4967216138748527 12.877230639063072 0.6149408303064677 
10.745391085740318 7.355990109585253 19.517741522474388 3.496997675950437 0.10600634388935148 0.792128299840696 
3.8252658747611843 7.957646522897685 17.98759974974611 3.497079843232703 10.273833275667602 0.5384526114237973 
4.6734390345430485 4.885375066960332 33.31044185026537 3.4971584869246786 13.583401954412587 0.6402872652426439 
8.643469707966924 10.457779019169221 10.736811963525263 3.4973710216166194 4.060405989348531 0.5591813057893432 
10.190521069889215 9.14341494961312 7.790096466386316 3.4973824975087964 2.000776511988718 0.7788539876854967 
4.024174019143734 8.60157153676741 8.605445837330443 3.4975275378139785 9.600111806061669 0.35194245745171193 
4.60873795949513 4.957305893239045 15.74762395748256 3.4975293327988504 13.48808635895027 0.6615145878191058 
3.923750850250487 6.168733199241636 36.04328313450323 3.4975807782854136 12.087249808156685 0.7069168610973664 
5.181573971683915 10.07048339991129 3.049776648835575 3.4976438989397676 7.7072739774177315 0.7148529172769051 
4.498584316475119 9.409684454695528 14.292219316144 3.497788616740612 8.660891819431662 0.6370143926806725 
7.536373519473562 3.76383130518456 18.293475618100572 3.49791108540038 16.770212052918655 0.6355093283152331 
7.380809682193151 10.745499786011074 32.71124288213092 3.4979465300314323 5.363721370378819 0.6493620315847966 
5.011717368501719 9.938091792502613 34.46874468895557 3.497963210696587 7.923378610632959 0.6484420471052645 
10.461142461138481 8.637205428692724 9.515680544764024 3.4979672392864223 1.4264102074330012 0.5268259768217026 
3.764421086358463 7.545940603377858 11.22392229016009 3.4981196668996586 10.693372286760486 0.6191079124206919 
10.399657128835088 5.727831366328974 23.39779761725518 3.4981905863679885 20.40495388994191 0.646458463534276 
8.803629929223192 10.384301841516953 4.693157330264228 3.4982301226069494 3.8851545613601743 0.6460535594986165 
5.171334677012565 10.063700806790987 17.830852801102747 3.4982512424248067 7.720880309211736 0.7672003604727653 
6.430847343046338 3.8489980757867084 33.74189007625994 3.4982603053370336 15.658333875323557 0.6752832441697934 
5.178189069461656 4.431156795413084 28.32869332190057 3.4983249625991006 14.268149718092186 0.6356760791757884 
6.682829929569554 10.702064630577832 7.837604668202388 3.4983470528920564 6.064875264193347 0.7735279605432079 
8.340251780638917 10.574136355974343 25.23586578735497 3.498361253257975 4.3864939580333875 0.6702155118748734 
3.751656110561461 7.23887053264432 33.6065106349001 3.4983615927767646 11.001556565597319 0.7456060408793383 
10.2581568333268 5.464066162764343 6.3741928391773754 3.4983663623002674 20.10655707517108 0.6679308885354153 
6.286350804703204 10.613036154948766 20.234964686874356 3.498375616066512 6.471507001505284 0.6175634470194435 
3.783707415324331 6.77682143623727 8.074900280229407 3.4984399717276977 11.46530658227919 0.49755805828615446 
8.135679062603362 10.634483744031606 16.6736246916399 3.498450745051035 4.599930003701836 0.6827926930606848 
9.347646800718087 4.449757959463607 30.24708259194366 3.498782300479731 18.73706566346982 0.596444205498262 
4.8150914788387595 9.762623077641244 19.663550651433297 3.4988647068326264 8.1890509948229 0.5911935740217836 
9.365315014966875 10.037130467509519 20.36629967231687 3.4989503933985886 3.2245861278737102 0.7097110723276643 
9.467797761342297 4.543665944074508 9.09322467925817 3.498981413565527 18.89064403780324 0.5033052734520418 
8.398643838419826 3.9448432468322565 23.766904804067323 3.499063279014852 17.659290877140737 0.7051624290850137 
4.432344506678437 5.175315671993754 34.97539377740427 3.4990709538275895 13.21346540835198 0.651757707970444 
8.73886375761564 10.416573095973108 22.770957010453003 3.4991285287742806 3.958518176970527 0.668217102937188 
6.949069013435553 3.7638148609081483 31.7679708604593 3.4991493655886603 16.18804972663123 0.5762892616718059 
8.75110363314291 10.410892993883362 38.83110730824383 3.499222290197603 3.9451307523548884 0.6230021738835836 
8.917692966654755 10.326269474413797 32.464917014886105 3.4992333032022684 3.758270070866633 0.6866546029170042 
6.869997887033705 3.771446400880798 30.060999276290868 3.4992480260484538 16.109064841764273 0.5889187580525175 
4.658606020400224 4.898476551060195 29.696395098901444 3.499283539300539 13.571973759184903 0.6149890965089891 
10.420528200681208 8.730965332038696 27.903986052781846 3.4993581391471356 1.5291703268135848 0.6658987378488226 
7.453780433098689 10.743466471364231 0.06429592311430454 3.4994048710402086 5.2929565359546125 0.6843010376926211 
