78

6.832076451324257 6.873215368064241 15.833184956889248 0.8527663162776138 0.6988563501646325 0.0 
5.3163279698453945 5.686847755738975 14.40191826126214 1.0903595324979989 4.017245822079104 0.8259682168825164 
5.142345383101608 6.457341176448142 29.151592018950005 1.126893568083171 3.3317113133178644 0.01923901944458483 
5.133611020178555 6.790785002854543 14.610195117011031 1.2404728024342808 3.337489921806835 0.7354183716421278 
5.047243677846855 5.8499743360263015 20.469843948176354 1.2675343396993037 4.389059167610354 0.5449367842737731 
5.905125371248027 5.019050035416073 4.52229473410781 1.278349062215005 5.674876702767973 0.0 
5.051593612337646 6.807591668540592 4.005442782993473 1.32177393635062 3.576861362597757 0.16091060009700314 
7.443645546902465 5.650239657036588 25.875592685589446 1.3358525968952097 7.771417103100477 0.0 
5.043283754477091 5.527520015202267 4.252934726813496 1.4064641572547227 5.1772892103891355 0.0 
6.042815118629075 4.832910557940534 2.195997985814394 1.4321550411408301 6.540957185984013 0.0 
6.640724470071796 4.81599034163064 25.77898132387199 1.4862870892965128 7.399333816043857 0.0 
7.146465581779819 4.987401162667091 27.83150615574452 1.5484851834455 8.253125030050342 0.0 
7.877023792235946 6.150084669985127 32.29673342546294 1.6300887993216264 10.142171993544263 0.0 
4.673160072503629 5.710006017229087 35.44002532436569 1.6667386292924142 5.786130768457745 0.0 
6.955101889158941 7.809783098956885 1.3385343698011951 1.7117511471843807 1.9620740318646064 0.9999999999999994 
8.006836293415803 6.627107324425477 21.49938496996544 1.7968538326748562 0.3799320094469607 0.0 
7.995555470407693 6.903322055367465 38.85054511592139 1.8638115806861446 0.6674999885187485 1.0 
5.668018110826674 8.022793465690652 10.215896514662262 1.8658776999903353 3.522770973267287 0.0 
7.172688150697226 7.932253383232153 15.674450478770545 1.9186791990411245 2.0512948403298377 1.0000000000000004 
7.523418863040897 7.693541163032931 9.425921123382654 1.9249432952995864 1.632219996819364 0.28785245232959206 
5.5233396773213865 8.04497324311788 37.25970303461117 1.9364824213156453 3.7867142529738835 0.0 
8.253424251281963 6.314387923350436 25.743945415963474 2.004458663903568 0.06439900155878497 0.0 
6.9050871109272 8.255463138929322 24.289825408970515 2.1097444216082657 2.647880354935115 0.0 
6.199319355762218 4.0807033923795935 13.587658585404736 2.1698885454174293 10.174673616848137 0.0 
7.795248823072984 8.36217276634884 6.60332214505776 2.617072356682971 2.4579040152174656 0.0 
5.1114552059542016 3.6797049650257208 26.56902576678553 2.811174276856955 12.075125509210512 0.0 
3.2841314175869822 6.358488445352217 13.391121609962852 2.9678521174276105 9.215269788171405 0.0 
4.25758627713826 4.0053548904929475 38.964540209148716 3.0013570448518294 11.964761214864254 0.0 
3.511987432580576 4.966583136454684 1.0440335802439655 3.0238835402474087 10.825265004294666 0.0 
3.7176425249375544 4.55335423461133 3.089828953608823 3.048186548542583 11.375497520604014 0.0 
6.018127917247488 3.1750618392809393 32.67271779592634 3.083668165514297 14.299352738020822 0.0 
3.54926661338858 4.699862291288385 5.381490245541542 3.1139826174093006 11.40543433327186 0.0 
5.836956557913895 3.135698370046768 13.68954591809809 3.141572779258775 14.390070165428035 0.0 
3.5065733185113785 4.70666794889264 25.947269203521735 3.1477394709027173 11.501918421595072 0.0 
8.39890733032574 3.932367133362714 16.7712472910083 3.1605734952449787 17.256825005640863 0.0 
3.0874635895924154 6.117798017457417 34.275818865950264 3.165298392149131 10.076318623511611 0.0 
6.381882617781237 3.0734519778474176 18.3301468884236 3.179284567621198 15.113946031772194 0.0 
3.0518480879411136 6.463282630012628 3.0448468294985602 3.205255860749812 9.856167925965067 0.0 
3.283998061337156 7.506302907371756 30.31774854722027 3.22109678451649 8.82881923438569 0.0 
7.01654573778414 3.113440777462058 32.908060250229006 3.228869171180966 15.989622721873971 0.0 
3.342797586056159 7.702998619627181 19.870829032496992 3.2500816704014377 8.704079074269586 0.0 
3.435482388991568 7.909153847633865 32.30801379339123 3.267154859016461 8.523780438638504 0.0 
7.476727369623918 3.2143033874280427 26.713337361084818 3.2741890542492 16.68666060857789 0.0 
3.8150830877373316 8.472197587486912 13.667513684515143 3.2965106533204804 7.917687757616985 0.0 
3.1705312239898564 7.499456477293737 2.7850595650939294 3.323291956941592 9.159490524501201 0.0 
3.342764440681451 7.9047081926264955 4.92815277800247 3.345157365522807 8.778200083026064 0.0 
3.576014158099147 8.293939295921657 17.90039058073343 3.3656928154688934 8.37704840488319 0.0 
7.883297863823271 3.3059937704281506 9.768393861170871 3.3667246088338607 17.57060035738307 0.0 
7.884225664928858 3.298385337252327 34.90188302283941 3.3738290770664747 17.60479810113946 0.0 
9.44387262683487 5.1140263886447315 1.4545442984127064 3.3898758682495433 20.140831323439663 0.0 
8.798119481385656 3.990374064294901 33.15347755100422 3.405704370718082 18.927955627378587 0.0 
9.431208626420654 4.977334071792638 31.353281502868178 3.4263343225133607 20.224381986631187 0.0 
9.51111653182582 5.194225449618768 18.449671637421133 3.4277603380896338 20.46402988695309 0.0 
3.609015872292887 8.466266971554322 30.181626880623078 3.4477001685186397 8.424153615351473 0.0 
3.920151860475033 8.822542355668215 32.22191115022325 3.4707587823060986 8.00610199151398 0.0 
3.992123138429678 8.896603793924182 9.23285344021923 3.478867569199568 7.921730345063867 0.0 
4.41812454876232 9.23277809119055 6.772600612187643 3.5003903796767566 7.426273788361783 0.0 
4.423644482073174 9.238214812601843 13.41650876833034 3.502142521959214 7.422442140078392 0.0 
9.026123668807848 4.112810810046142 15.817351205768503 3.503489725712176 19.714497331793186 0.0 
9.77748636425203 5.994159354897599 11.862758635760839 3.5367519683560538 21.966003705602454 0.0 
4.403169790452424 9.27204672462835 11.261150003062381 3.541687200859853 7.506080017984289 0.0 
9.599978560629676 4.976037490714006 24.757251397663346 3.584039178321681 21.2167418409178 0.0 
9.757474450012719 7.0376807680239075 14.821272729464212 3.5948321253998423 0.7941238932443824 0.0 
6.39622886240881 9.868160747339504 6.903320917328884 3.621114479520046 5.541764688466916 0.0 
9.788781964941105 7.020466386486005 2.037929697221303 3.621684172881069 0.77639953761157 0.0 
5.149919453555247 9.702007345266464 29.2652266971345 3.6230556054854843 6.80880865276583 0.0 
9.889447821598559 5.957637782542902 24.583146275338912 3.6511718820585446 22.64831397443051 0.0 
5.371626004357433 9.801539411591731 11.580959354858265 3.6585479453343823 6.633872961950237 0.0 
9.90130277486694 6.533006211517247 26.858878621093552 3.6622540148805025 0.28328864057054126 0.0 
5.759585128983428 9.880840270832177 9.467998901859374 3.663810559787564 6.246991421970769 0.0 
7.0545266747239275 9.862833301343032 14.878916289510236 3.701327820341716 5.0030317442398555 0.0 
5.954738956209166 9.942624747974865 18.731936684882278 3.704410427225483 6.114448861776808 0.0 
7.42585219573407 9.823728073619298 21.12218537658911 3.7622015802435835 4.713762721367907 0.0 
8.896797616101388 8.987425555886214 23.13117612380642 3.8077600101134195 3.054694374951847 0.0 
7.932509946764304 9.688410344598847 18.929494952046586 3.827989735984826 4.270975537570412 0.0 
8.864338351531902 9.058615411040268 18.680735969034508 3.8370673102544655 3.1510296088442793 0.0 
8.584899587603273 9.309747388454815 27.36702860434338 3.8488712845905866 3.536968328750644 0.0 
9.194702189330421 8.72849687386494 10.061066171841453 3.8489242312113205 2.6928766979893943 0.0 
