75

5.505172577181121 5.507235273677702 2.016794474109126 0.008894084544567082 0.008450562184462829 0.0 
5.507527603066686 5.5069922400095574 20.106015510529545 0.010274056077365423 0.007690580215899967 0.0 
5.510679279221247 5.519234179109281 6.222204504944138 0.02200001478847935 0.02340694130984866 0.0 
5.522874072882729 5.513534256665968 27.32571655995679 0.026578173634483004 0.01420027822860459 0.0 
5.533417495297456 5.514117598355449 31.75859861461936 0.036277204623307524 0.01450066540054995 0.0 
5.515419779968292 5.539648541084862 23.707254138913534 0.042541467116552156 0.05104487922817835 0.0 
5.508933751605305 5.558229347324156 38.67452609357417 0.058910685003167984 0.08356833446613154 0.0 
5.5256958292413785 5.556835777332266 30.712850185065832 0.062374523848804264 0.07149317673854902 0.0 
5.569671183692822 5.503466483104988 35.153828228554545 0.06975736765587126 0.0034679114032110103 0.0 
5.56084230447624 5.5929957224196185 34.13384054707326 0.11113051067248136 0.11017926845014347 0.0 
5.586913416967221 5.6550453449832805 37.54012491289164 0.17774420117095813 0.18838679804522673 0.0 
5.710522737554033 5.537319379602748 5.147003733093186 0.2138049557919044 0.03751152902042909 0.0 
5.726536440922865 5.61682501298356 3.0201281015003545 0.2548859406177757 0.12135863148330683 0.0 
5.5069533748398625 6.001927879420582 13.18710079572427 0.5019760408239696 0.7815485238395974 0.0 
5.893527039801526 5.9111133252071415 28.277682423457563 0.5691025366468022 0.45940845851277623 0.0 
6.090641158961315 5.568118156950069 11.11929716194549 0.5945561890733609 0.06826806655436513 0.0 
5.562477649770699 6.1087688178765145 8.098535905436549 0.6119664454360539 0.8986879481517884 0.0 
6.244791760917101 5.536602065630508 15.116651370062396 0.7456906049685872 0.03661677924836676 0.4648395862038987 
6.250036723619745 5.5800758339899685 1.0207645528569316 0.7542991621150272 0.08022700817671091 0.5194752631127025 
5.623917721044251 6.248618758153072 18.237881121212 0.7588054076292883 1.0674535163679877 0.486700567684708 
5.7001442001364655 6.234199229896356 19.282490834535057 0.7609902824797885 0.9928342317345457 0.5112602188659492 
5.517291538634488 6.26806482919024 21.276169588730426 0.7682594478087355 1.1894861197399362 0.45078909852458515 
6.278593001767449 5.519637098017786 16.136793121907388 0.7788405985949931 0.019639179188838618 0.5035133676019337 
6.2558351731445025 5.692845302878212 7.07484861720803 0.7800487932203788 0.19486579335170795 0.5896350475194461 
5.575575510477458 6.28327927379292 12.195114411018977 0.7869168180547992 1.160393871124835 0.5283291384598368 
5.690836565115054 6.289242899208818 10.170352499174292 0.811987037172671 1.0828276766535145 0.49262774505600593 
6.336818079727681 5.519044567597963 10.094216749557134 0.8370347627871344 0.0190462111229035 0.564458803243398 
5.688137218217728 6.325282673295098 16.19397682848936 0.8464556123742162 1.1398876173491663 0.6895596628419706 
5.557741422204794 6.356970059379171 15.197437933828155 0.8589131239599106 1.2913925769251566 0.6963528786205693 
6.364526783650529 5.529091611969201 24.43587334677676 0.8650161163447143 0.02909709884146272 0.5141147887794543 
6.386720228648839 5.53521298153091 31.22466839941518 0.8874191331965675 0.03522222867153313 0.5249197248628505 
5.651994090658684 6.390331531527333 14.189889641388305 0.9032122893467323 1.2660417768865035 0.7265918073125335 
5.789581061740077 6.361874383559672 35.732441753488146 0.9092219994890557 1.1334877867628523 0.5089679693621909 
5.603512241493916 6.403602402964219 4.143180621656491 0.9095120047485933 1.3249210983675912 0.7325341540472696 
5.570321834645088 6.411009285377407 30.193651294959 0.913719365271254 1.364875580903222 0.6153823802325592 
6.422540231943058 5.533939511079998 12.119513980914967 0.9231643244655314 0.0339471612617086 0.49312733851118806 
6.420068114867788 5.5868724665706715 18.13396811937973 0.924160246626328 0.08700091630670048 0.500296502579694 
5.915473726941205 6.334572096199906 26.605398251688808 0.9322708842036863 1.0337835042228618 0.5722258854920533 
6.433316207245557 5.538153312096277 13.120262143015232 0.9340957220387798 0.03816392878211139 0.4130387588244138 
6.425314264606002 5.670056981289092 21.312822068800735 0.9408112803152956 0.17099690168256743 0.7286957155072405 
6.442212852807671 5.5316128719375355 14.128541471149425 0.9427430369236938 0.03161879946786755 0.578945529770152 
6.442579750480038 5.555116459192019 30.215437121697413 0.9441898167682566 0.05514780943021602 0.3707812508235694 
5.5629309834373775 6.444358171707906 11.171151254937065 0.9464526745420991 1.4237069379298672 0.7518879872361881 
5.578883605479127 6.444378490100476 7.149090545900393 0.9476673233671401 1.4096173643209764 0.6599782960298639 
6.4378367725136005 5.678516455873017 9.09783490793297 0.9546758281721559 0.17957350543970008 0.0 
6.450917220380936 5.595948718426968 39.119583392835025 0.9557456338298308 0.09611062284007588 0.0 
6.455592995801288 5.5372566357855435 19.256522218959823 0.9563190004044355 0.03726606663635512 0.0 
5.620969136435299 6.452625651506859 24.28321196450603 0.9602755666363529 1.3871059407344957 0.0 
6.433372451529871 5.74980856158674 34.61147333575346 0.9662238098478605 0.2526787765260895 0.0 
6.418559329255286 5.815284619506501 4.043092259205128 0.9711620012435007 0.321103313956586 0.0 
6.474566695459581 5.514249952296056 23.361262490900423 0.9746708701092106 0.014250460004966214 0.0 
5.898564888477518 6.389932045170506 23.26962115442677 0.9751066687026892 1.1211030746409287 0.0 
6.13845621957389 6.238779720143016 32.28710827421379 0.9764332128759132 0.8378908343839893 0.0 
4.5237616353483485 5.54056339888566 24.064292110404473 0.9770807202820502 3.02901455312819 0.0 
6.468361180396405 5.6355996318687085 8.079447436785053 0.9778090999073645 0.13603806322185363 0.0 
5.6025905560113065 6.4746603949867865 31.216563884364156 0.980044747824562 1.436671843062947 0.0 
5.523429345088569 6.482488727069543 17.204470617239313 0.9827680464026132 1.5202968723673687 0.0 
5.668709909279057 6.468924072887375 5.9294641893215925 0.9835023601952401 1.3753334254171972 0.0 
5.5434020815959455 6.485234411470486 38.1191752312217 0.9861899341569325 1.5056874215915461 0.0 
6.407311973707553 5.892250757606243 17.119596190363126 0.9884713827298028 0.40335158716320896 0.0 
6.470082732041914 5.693157312848898 5.967183037562478 0.989126005376925 0.19440653366722982 0.0 
5.643546457395975 6.480287709844138 34.63898552844367 0.9907419338568432 1.412200295734591 0.0 
6.4923790318235834 5.528724365107025 38.02820146740438 0.9927946574966614 0.028728374188208283 0.0 
5.70706932394843 6.474533620756763 1.1346781827434498 0.996289858879306 1.3563785610951644 0.0 
4.5086603466100135 5.599267255493666 38.447518524598166 0.9962972931794121 3.0305280196906788 0.0 
6.414731075621196 5.895017163935235 20.311203191094478 0.9963791951413631 0.4061735949268823 0.0 
5.58369802651548 6.4931159734111175 9.121803334080255 0.99663669222385 1.4817165320851924 0.0 
6.497188053116462 5.517684577992296 35.625024735226845 0.9973448538880455 0.017685504829806575 0.0 
5.500529332910725 6.497957667291216 27.510868918573042 0.9979578076745805 1.5670591256559745 0.0 
5.5519552483215024 4.5031998577780925 27.540120658241023 0.998153230401907 4.755665021440343 0.0 
5.7925425997392805 6.45478425650497 2.238805466641324 0.9985960890830514 1.2716936658255271 0.0 
5.547054895213763 6.497519527336003 20.253555271368356 0.9986287451201377 1.5215700397764493 0.0 
6.493616595660042 5.600864737260411 2.183472720481646 0.998723001834674 0.10103699456951176 0.0 
5.887413811596774 6.420932692132884 39.06411859933333 0.9991028399794798 1.1715422680545904 0.0 
6.499573679938647 5.521896742607716 27.051680606457225 0.9998134870879267 0.02189849343402095 0.0 
