50

5.467164879499872 5.476870314336444 11.637109893337119 0.040163758503815816 0.15082609060313068 0.0 
5.496800708558307 5.458631361900695 28.607051569541213 0.041492164126737396 0.19232474691326384 0.0 
5.422245218978213 5.486713424955637 9.008221157915415 0.07888180429069758 0.2611647130489563 0.0 
5.403629513614283 5.307065838020819 13.217277814181752 0.21566376956927458 0.9163859769200968 0.0 
5.483990396339414 5.114484847960835 19.35853444358922 0.38584743080801986 1.8022489801620147 0.0 
5.032107239101234 5.431003114209243 27.292657747737163 0.47295264662574077 1.5550685582265102 0.0 
5.209409666948022 4.963694078352043 7.3548775635879835 0.6099727725545818 2.571544336004811 0.5168281438391816 
4.812209742004446 5.475362890574335 35.04974113225973 0.6882313754504684 2.1867850075260957 0.8167045445350722 
4.781457625553597 5.492430905474182 5.483114090702294 0.7185822395989311 2.2650619194245305 0.7507079828750374 
5.342903694613816 4.742830110757488 1.2102428223291284 0.7732952155170151 3.4858703935181774 0.5749661969599008 
5.475042239426864 4.724434893588914 4.220671808170884 0.7759665740837445 3.6316942672001304 0.5966355051130665 
4.714838700941597 5.449385979121177 16.22539678000317 0.7867909790081471 2.5224257550231424 0.7266419495623225 
5.353320798041413 4.720493935857005 15.188329665476036 0.7931862910583591 3.5902740069443513 0.5476015081952459 
4.683336006942314 5.484834733093224 4.428644070246833 0.8168047887208298 2.581234061993571 0.713036391465826 
5.445287056374972 4.681482130767023 16.204145542290505 0.8203444450069783 3.81102853506782 0.7717494613071104 
5.169890068369711 4.719522634765063 30.22493033382399 0.8474181285558062 3.6542774193834764 0.7006455395405196 
5.2575520324738125 4.667923406282568 22.33262194169127 0.8666789917668385 3.838401535313413 0.8603554995704142 
4.630672609893185 5.455979885602576 32.0334496955782 0.8704411994279031 2.7786105774416088 0.7178918856548994 
5.469021655800825 4.602339737895467 5.530167631754924 0.8981946359063292 4.201658015383706 0.5663872213825335 
4.586023674529485 5.433407052328054 22.385956041295366 0.9163991183977784 2.9456044344749173 0.5677585769179376 
5.211471111931606 4.62633355401714 36.41311223942511 0.920077158767842 4.042281182785432 0.8404846327226875 
4.576753318173272 5.4935986400709105 18.240154599414588 0.9232688735753014 2.9069361217297036 0.7068287752214534 
4.582982632919187 5.382036265600736 15.081480224704116 0.9245735742282732 3.022919695515043 0.61785794841867 
4.574680051654433 5.456241686546668 1.255323992479589 0.9263540342668807 2.954001631823143 0.6367185983775686 
4.571680505069554 5.459241468681277 36.10335400380134 0.9292138303658507 2.959982955661123 0.5922974524767634 
4.564216968522082 5.437450419711779 21.24442324798541 0.9378711702554013 3.009005221673945 0.6269479848363625 
5.19526788420469 4.609386541110181 39.46258197527129 0.9413044117355299 4.125469678555282 0.7899531902815989 
5.477285056482213 4.556263020301086 35.112856855987715 0.9440103047690979 4.425826621526323 0.7220174914509732 
5.437987975432962 4.551024915300642 12.088483473257988 0.9509990549790562 4.4194214124814515 0.7777230312681843 
5.420163606073469 4.551839608580319 38.15967053116843 0.9515156213390895 4.403981362604128 0.7478753491551282 
5.396412967668145 4.553981156433707 24.36062692510849 0.951673224195064 4.380861738844038 0.7493132417447914 
5.31025758408224 4.563122599400821 32.06619290209505 0.955898241525624 4.31355329740441 0.7647870565673439 
4.543437175382825 5.478682459239774 19.333943144210508 0.9568003318266841 3.0271961982436784 0.5888319469925059 
5.174149228570162 4.59981901916342 8.567282706046505 0.957342427505084 4.178874820807442 0.7846862100514088 
4.584644635813203 5.214640728125503 24.25606205303682 0.9588041284799974 3.3019213650458346 0.7053500084322463 
4.542792642673436 5.413393995829008 28.989174422013683 0.9611173314838145 3.1061627856540976 0.5685214568115846 
4.534115337404756 5.446061946421387 38.177772934383526 0.9673895260238127 3.093109867644668 0.5337874173338698 
4.591392234197958 5.158982026805822 25.645270137567145 0.9704954044802298 3.3973581124159846 0.7097102324359432 
5.164520097982403 4.587130824498917 18.18841676098291 0.9725620269359505 4.240574040476451 0.7131269006001013 
5.410532616210053 4.530432240201019 29.01485677413955 0.9736868354886148 4.498797355579476 0.9462072879187806 
5.235027583608516 4.56103509738535 33.22031931119199 0.9756359309652762 4.329233041935359 0.7863372363014184 
5.456860326411657 4.522701569399846 25.63917145557278 0.9782500978230633 4.566741312874035 0.9733188705808707 
4.571600314394668 5.190539588347097 10.317097272345688 0.9786172503141686 3.3892815724871737 0.7292548520589757 
5.16280371636028 4.581138103348651 2.502773641394839 0.9787790960263473 4.268137883906752 0.597618911220278 
4.516785903682162 5.482182308521175 2.468780136238344 0.9833755281314154 3.107184001429922 0.5683472487203298 
4.522533195702619 5.3840568714740105 33.085052011462025 0.9843191365384151 3.208542693906062 0.6992503462183647 
5.279368736357317 4.540409762566206 21.289181320762296 0.9846276343241702 4.417427827263968 0.6676205666430289 
4.514940392633092 5.474181749421077 8.490819592014816 0.9853978953340635 3.1215399943051008 0.5060444555476443 
4.535407421336562 5.293075962646357 12.053364245327906 0.98653758167001 3.3077713447819344 0.7118674572091575 
4.5179677247473515 5.364680055626989 39.258774164245494 0.9913116951711044 3.250041302681729 0.0 
