301

7.25870847837553 5.003271677084792 8.803886990760006 1.6780447633408004 8.694873378882466 0.7739834174459994 
8.03338670111349 5.605558521687801 24.28997446327243 1.77519022453286 10.21644599012221 0.6190532081227429 
5.170394736603544 7.697626731913079 37.46393182131795 1.7894580032636613 4.309676357107689 0.5669672674721393 
8.145219680416531 5.704761042540774 20.366588664264924 1.8273348889272347 10.658726267482791 0.6017972649117544 
8.043998289733821 5.471910106629911 38.56901253631591 1.8549661850154282 10.565404988678058 0.5434691973684572 
4.799832581645262 5.748127765105897 19.0978346890293 1.8590000290585447 6.61426601721012 0.8299042244669482 
5.501143110608766 8.07706687296559 22.311794255481793 1.86677663561814 3.986291276819575 0.7683884060520081 
5.311147946076085 7.9437453336986685 30.60285165145612 1.8702325509668005 4.226114703487877 0.6655792813314144 
5.169861044356379 7.815910435507202 36.34460617123625 1.871066518218276 4.418657752569295 0.6770751131394281 
6.06921246253334 8.325389814102696 36.893132810407266 1.875533491001016 3.3807493223841085 0.6003779746787252 
7.447900005664891 4.880406602066373 21.170163705500798 1.8765919096515618 9.83692111297944 0.7761247081992979 
5.128693524201834 7.784430485949242 29.36417632876028 1.8788941225630025 4.488481530613589 0.715210160075877 
7.279118506226251 4.782549411292246 33.25958039984624 1.885911496172829 9.690327506027721 0.7372252824865456 
7.139596728842449 4.72312553823107 12.234695613334473 1.8884826788807418 9.551767232086576 0.6386387672510917 
5.3388880245802035 7.989650580094645 7.837855878996898 1.8887138137472224 4.217275407202937 0.7137236600855328 
8.386460993010118 6.386798851614177 33.11372689585946 1.8898543801427117 11.761036322981251 0.7471730707474058 
7.476930929477334 4.882130640517101 17.47350073663209 1.8899458471932615 9.932848023805633 0.7883591346762144 
5.401314451361813 8.0421879506188 19.78103677810745 1.8935294055863514 4.146468341349841 0.6750568511730709 
4.740838022474861 5.794829327846303 6.820413019038092 1.895235220239391 6.676604307825691 0.7555521987806946 
6.246951881917905 8.378868954618927 21.589433593841676 1.8958327718170966 3.2317727380558576 0.6137475182955183 
8.05990733048326 5.417327520932737 12.86551704345456 1.8988129388186359 10.778527475620383 0.7862703938285736 
6.876700006394778 4.633995557387497 13.428824033452045 1.9036479387395724 9.349932388898296 0.5649325112965509 
8.120654586598508 5.499399795029689 0.9448802077477723 1.9046579900993816 10.913816437815392 0.805189214710199 
6.519966396096013 4.595074892815973 32.61826934640473 1.9050297428001315 8.997207928938387 0.8716192780628116 
4.675049740971728 7.047631110158463 11.94311968498537 1.9053459740269598 5.430355010869565 0.7878506884598531 
8.384407227355243 6.214588331984089 13.543991365770253 1.9058988479844094 11.68862630565445 0.7779114559190785 
8.408316491784195 6.428009231704797 29.627707158137703 1.9096739259714675 11.926827322531565 0.7391092986673723 
4.933055351368637 7.594857367891574 39.82666347936799 1.911551251706564 4.839523035345103 0.8371469925491455 
4.588777573514422 6.541068387052874 25.88605285792943 1.9116636147388864 5.964596821495903 0.7089661360590844 
4.58759914428356 6.567163414915161 14.91826092748444 1.913579880028018 5.944511280918382 0.7000318926985546 
8.414889392041031 6.460182867664507 32.0352017442808 1.9153033148247545 11.994385645576665 0.6216087565803655 
4.606766586368426 6.798497723995901 39.13922800486482 1.9166203718320949 5.721522690557846 0.6399150720174029 
6.752764004282799 4.593567406290921 24.118787936261512 1.9231159289594053 9.315967784316758 0.5567358279780614 
6.031180425490218 8.36546096832444 2.713074492347843 1.9234698900127079 3.4949695729592865 0.595507403366465 
8.055574245245392 5.368381691457735 27.75266347690578 1.9236349000521962 10.876744243722587 0.8680990064575795 
4.614831724270749 6.882888848842553 6.317553692540024 1.9236588310778968 5.657889241490761 0.7533699407527522 
8.423141032533643 6.42837981977285 0.1843306094610746 1.9244741830511354 12.020191188248388 0.6414537856133479 
4.595450598202136 6.7786896958316945 36.899367430961874 1.9248315174194761 5.76736385512713 0.6882936849776276 
6.740732188069927 4.589370925707929 22.88949249847976 1.9257350404204392 9.31617620867722 0.5591551750222852 
6.487784483462981 8.426953768560377 15.234366830951501 1.9269924870152708 3.0391283187168057 0.9019115995669529 
6.514123335981143 4.5722258022191475 8.148531888973473 1.927825932559484 9.098789143012727 0.8368669608332615 
4.591992421494801 6.7820460740055 31.312086342030327 1.9287412754164805 5.776258329805186 0.712782513867625 
8.227140612498895 5.639708393199703 3.554329379398986 1.9295378576421074 11.231950861678769 0.7328406171634877 
7.9783873799312115 5.258862660154918 14.096164016970071 1.9302982001487736 10.780341651929383 0.8210879787301215 
8.428678642943417 6.402169667401662 5.195630159085468 1.9311582228606676 12.035952746679985 0.6750396874904296 
4.630063377166934 6.985385786215328 9.652018568989504 1.9319063990970688 5.578619737387573 0.7822294518510241 
8.19526240869797 5.563251006649724 25.37953914696383 1.9368565540295415 11.19187784131508 0.7985729616048215 
6.005276640080666 8.372862829263479 34.643760662094365 1.9371025734551797 3.543059361599896 0.651014386035372 
6.502487864260036 4.562345624834913 30.222508288952554 1.9376559723193845 9.133476516678044 0.826592694666467 
4.624076098658221 6.01465446082017 10.318600642074033 1.9376921262231328 6.578008711805078 0.8552827891070481 
8.219844641486088 5.607329109259135 4.620687669448394 1.9377117716586485 11.247294376252224 0.7630072595068698 
7.342802479182636 4.754372482276073 39.107679306944746 1.9384353096122122 10.00656832615767 0.7738803650705628 
8.431764504049784 6.320100281456323 11.301969429705622 1.9401231939850632 12.009995026212138 0.7324990708840057 
6.0006745394442245 8.375877366290393 33.492687748560584 1.941195973857307 3.5542259908286606 0.7037165096565785 
7.396466964756456 4.7762071433489055 30.75249333381172 1.942965473584384 10.087782516310057 0.7478166429947607 
7.583651608696293 8.113739407763639 21.12926758507082 1.9438250140378874 1.9038679368793208 0.9179400148761401 
7.4098055207981695 4.78216726417058 9.95113133329977 1.9438866720984571 10.107149342766668 0.7996808350784472 
4.570635787401464 6.750765373180164 38.095386789828126 1.9455923358304419 5.860793672797895 0.6780260893247028 
6.104411871660988 8.40584977195277 39.160217614816375 1.946472018944837 3.4558743385526647 0.67877577418177 
8.186299441266247 5.527218211984243 8.140587240716975 1.9467691729401295 11.213281488451067 0.7756710494746007 
7.3683957662915915 4.7570066689180965 29.71846964248654 1.9473409971315112 10.076734723620259 0.7482903127061562 
6.691691644572657 4.5620526278458335 3.566823532668323 1.9474048638735109 9.368931783705339 0.5849346318944327 
8.43396097539458 6.270823075902026 28.28860108574007 1.9474925203677105 12.00674719795581 0.7518725352995446 
4.580820082889208 6.831098566242217 5.165288294488249 1.9475312102272062 5.785635100181263 0.7108882901446337 
7.757535398287281 7.987799160542183 22.413940072108502 1.948060989819254 1.6930147623214733 0.7525391071390339 
6.267082218016117 8.434320683662987 20.48886186932287 1.948293407167087 3.293848323107019 0.6084875266345733 
7.899767562131808 7.8557420678642025 17.160535629884734 1.9486882209766467 1.4993640999620421 0.7602740893226247 
8.207966670058866 5.5607241651951576 2.171929909732647 1.9492022060012946 11.267148298651785 0.7866881392898635 
8.43964933057627 6.306945146808243 27.23913878147839 1.949233106107595 12.054020938831533 0.706329005410996 
5.1622303364102144 7.9177867273675435 3.2064821928548355 1.9492939432319336 4.5363270923314865 0.8455051457901547 
6.500550760867263 4.5499816983563655 34.8750039177601 1.9500183794217574 9.189795883609287 0.8272310064261079 
6.260365211137715 8.436085847061111 8.339169252833713 1.9508596154576099 3.3046446596180363 0.682389871988795 
5.704164032559621 4.718312596350433 16.319161705363857 1.9513495051874485 8.375783755695636 0.8530188925385004 
6.30411135887454 8.442615331704799 14.188121955520984 1.9524668208951788 3.2631464806366175 0.587321871595054 
4.7336666158986915 7.3321000690562865 21.766521670797516 1.952517387557473 5.274413805534579 0.8092819779457087 
5.210237702583555 7.9680416651382195 9.105462902620545 1.954132317530915 4.478165647885826 0.8078664258341486 
5.2788919240996375 4.9737259583470355 34.524438396569465 1.9546399625641446 7.892078835760358 0.807429183617058 
6.992184255579007 8.391901256156661 3.231974375786656 1.9548748564772631 2.5731719221499603 0.9322792242070352 
8.216793326724332 5.562484371473749 34.93132928879449 1.9560968484244765 11.31279775147284 0.8309575058340475 
7.482516306557224 4.807899787242995 32.02205456482743 1.956665894490715 10.249912645752737 0.7566529023813238 
5.241754523386046 5.001040873082642 9.757771702793063 1.9570539449867803 7.855758443974853 0.7757010584945054 
4.790849064233985 7.455176144940083 24.079893861895293 1.957947493956987 5.153264105228544 0.7515312852576818 
6.335858137550218 8.451581958585287 27.74023674901961 1.9584725405489014 3.240696109162002 0.6919605029557981 
7.531831282334753 4.834935863862961 4.108002041934206 1.9588553730825458 10.317612676532912 0.7573059262689 
6.07553251314865 8.412489348246101 6.113544074569056 1.9590273491068715 3.5050938876739792 0.7113871028366949 
7.796177751719724 7.969484363676502 16.074863012050887 1.9594542758489994 1.6615780985021882 0.8454652212164511 
6.660301313944262 4.546980329838139 31.446688297446695 1.9595872890206751 9.394818186232948 0.5799863541396023 
7.381532714974344 4.748561045100184 27.21494054912173 1.9607749336195115 10.154242323767841 0.8295779736254842 
8.43747036588205 6.197292752584717 14.68706171430582 1.9609750371457733 12.017247026945963 0.7771460247602385 
4.601577478677175 6.007905810367866 27.003381163753993 1.9611641341140753 6.6585888102519455 0.8350319495565675 
7.430368360397841 8.226452920130331 29.56907070441683 1.9611794847631645 2.111254421738394 0.9351928653162039 
8.249344996765814 5.61328217943692 7.09381669256547 1.9612435878833907 11.402757277131155 0.8606862795271943 
7.24073783390771 8.316577269656069 31.799269843474107 1.9617965019882606 2.322008610315379 0.8088261027361455 
6.664119412693696 4.54504894959636 4.660232883355427 1.9618279208679905 9.409207722372955 0.5742352132802637 
7.268127317491775 4.694307965969115 11.13148388378321 1.9622801272090855 10.036261814224812 0.8279417392848661 
8.45803095509973 6.364691826139108 17.390387851761375 1.9627005688699255 12.19659579322549 0.7916566695269247 
5.108099177645471 5.116034332136465 10.934882493882883 1.9628420387530354 7.702451652187449 0.6349916370021745 
7.0664200196313915 8.379931310744496 36.31448315123371 1.963408610492667 2.5095285568165675 0.7182208700815795 
4.80122678633945 7.484802843837427 15.471871184581516 1.9635852598450818 5.137176513718572 0.7786518835316821 
5.824425772167311 4.65550227237604 13.944013932652744 1.9643249233570474 8.567007630653265 0.9782855725692805 
6.5834574521765035 4.5370550181381475 29.02657478662391 1.9647183381188291 9.34199961694295 0.6971123563906394 
4.9423930950995825 7.6976495218607415 17.741963746038834 1.9648164411483136 4.884735299863513 0.8998501193306381 
6.518652544512365 4.535053246247848 10.44375506816882 1.9650352827615862 9.278663437182463 0.7997287643244683 
7.047438825496547 8.387304760580307 4.4479202984915815 1.965097587136608 2.531989013961688 0.816610491523785 
8.143893578359977 5.423160991697475 31.435005253955218 1.9651891376595645 11.207995235792065 0.7909458912494968 
8.414105438837566 6.05379058266697 15.77752065572389 1.9654267920999346 11.899006483518235 0.8489815270171289 
6.251510661143461 8.449966928285553 9.563940031009999 1.9657359875966989 3.3369268044199902 0.6735509909534529 
4.555485834192169 6.794262328740008 35.83810029034176 1.966653416121617 5.883052397347006 0.752274608204362 
5.4846442923231145 8.184496904380161 23.51933399811149 1.9668444356324641 4.156426933707907 0.7288521669103482 
5.347041204153474 4.9062409852493865 4.014218896402895 1.96707442208441 8.037695307263132 0.838458156839983 
4.54176285918378 6.693484877078799 18.414609181433107 1.9677726233816435 5.98814200211161 0.8538950013183952 
7.0845790718168065 8.37918840449343 39.84451547863336 1.9680146724017977 2.497814243010845 0.747119404892792 
8.45887987891585 6.310011032271421 26.00969495482216 1.9680716927693311 12.175473843010128 0.7748577780135865 
7.636329730948345 4.8923920540293615 19.920644686403968 1.9686666973830462 10.488454115939174 0.761590303661481 
4.5380440451388075 6.663082344055667 17.17645126894078 1.9687221794245076 6.021653704108935 0.8576083019280034 
6.686879752485398 4.539534246248136 20.470928273154726 1.9693526889622561 9.467517276441775 0.7229270064158267 
6.543462487035214 4.5303859515127165 27.762571702409346 1.9700935225967724 9.32731301950415 0.7128016138025705 
4.590035703984583 6.983166216356086 27.72091199075679 1.9701302506894127 5.701201143224575 0.6700186692333056 
4.596579683757605 7.008812476639118 28.860377947454865 1.970253546289901 5.675089211328675 0.6786882603143728 
6.657327302150602 4.53599434574835 7.025097293001579 1.97029695475947 9.442300626493163 0.7032870492406544 
8.115909609167256 5.37243735793955 11.78104718694371 1.9704216241123147 11.18006455600123 0.8087870276093666 
8.27736352740619 5.649069855363038 18.13865938388451 1.9705591134512181 11.501510774420634 0.9128045794618961 
7.566798524403541 4.842820554226019 24.73861667514761 1.9708634674084697 10.414739043125438 0.7165186995830161 
5.3762056068212445 8.120499845914821 11.328527046900447 1.9720379278173024 4.293397269194891 0.7569807304481874 
8.277551115674123 7.354202741971491 25.380293325930815 1.9721435782482812 0.8834555208411885 0.8097386191297538 
8.210313898669902 5.517541003237945 36.165340752382036 1.9724095194208902 11.364585806241587 0.7894549651353218 
6.679037393770795 4.534945673000806 21.73014782214706 1.9731935780420766 9.477739645195546 0.7111652878583454 
5.3807035384097475 4.874817738376148 18.683770298615237 1.9733327019094566 8.108963346545867 0.7666997981492699 
6.7213484706145366 4.539118280238117 16.871281142834377 1.9733353147247217 9.520938879717384 0.7105737871425674 
5.233276025273515 8.013636905695435 10.148141888843256 1.9737493028320794 4.475714925161739 0.7820277179626841 
8.14551595995793 5.409362525554531 37.26006403644766 1.974135981927551 11.248367899520485 0.7798478614045176 
8.030079101222041 7.7474778257558 4.9507855943666 1.9741689344503592 1.3503365560336587 0.975308702755877 
7.247977156858301 8.327099612594425 34.12109969744208 1.974275264881905 2.334048238864879 0.8601151760813017 
6.471306384564183 8.474564903948746 12.990483743040933 1.9747733752187633 3.1306613892258692 0.8099429965631973 
4.5520955526938565 6.82681204702147 1.4679841390896442 1.975129831153742 5.876731388775077 0.7910315184268539 
8.318647362461675 7.271696708446758 14.16881956085652 1.9755996656246848 0.7928049631874874 0.9431902647290954 
6.207979228391537 8.454271300817991 1.4220684902128937 1.9759687366584655 3.3969387819501016 0.6477400086271204 
5.0958635280876265 7.8906251602691295 31.799007825269697 1.9762179961046995 4.665907931142636 0.8411944080259158 
5.0874857582412645 7.883296387814456 32.88632582039711 1.977044607415771 4.678962129555892 0.8262346107153267 
8.476496867575726 6.450204723100708 35.50522375169926 1.9771240318043113 12.372836124344468 0.9085308182127216 
7.8836677932900265 7.912419132806262 1.5870681668060058 1.977236548545794 1.5732485792163526 0.7560974299913548 
4.689704665182624 5.704777884469305 37.43838450746743 1.977257548295283 7.030127556403043 0.8354593105923964 
8.46671996164338 6.295872560315374 2.801410186390868 1.9772848603978985 12.219155404357391 0.7892095324318523 
5.282426501958579 8.058620913238531 28.385768491775828 1.9778231403028264 4.418377463858771 0.802284853847939 
7.473015223885717 4.778062605789618 36.720091684059724 1.977833920098808 10.337601132386549 0.7822708551829333 
7.273130553620357 8.320548694189885 27.166547160014225 1.9779101093977498 2.312584547859732 0.7995460413778037 
4.594993642874108 7.032649113243682 31.132155318152968 1.978070852757641 5.67498709219533 0.7253948335415753 
8.466127781535388 6.281304362023226 12.409919698116461 1.9782533294285978 12.210588691075653 0.7758585849529823 
8.478429609392204 6.472868415775 7.672270646942437 1.9786156378090103 12.404876269481194 0.8924107941111212 
6.290085390431679 8.467541513072245 28.797074938857655 1.9787075956221607 3.3184569837369065 0.7261156185598587 
4.6194463175051155 5.884247231148777 28.23991210929384 1.978796003910716 6.842720728099728 0.8748967088768815 
8.12104619935156 5.365099846373319 30.19926955515823 1.9788352986375626 11.224725298948393 0.8231137393888258 
6.50829306187952 4.521078015173954 33.85696610720665 1.9789393616033817 9.33382512662228 0.7420266779757028 
6.564703059116145 4.521937352302528 38.50606512853999 1.9791205936159928 9.391100666873374 0.6491138530660361 
5.353434186646044 8.113214739493067 21.115454286951433 1.9791601653402617 4.331767546774595 0.7230251200800738 
6.129358773198247 8.444668931498285 7.305882230778529 1.9796747642326966 3.4825072805161703 0.725984136133375 
6.504717435303778 4.520172738836333 9.30926284388773 1.9798328813924346 9.334460093044616 0.7495502314855148 
7.144371857207542 8.372102619822897 37.450945752327996 1.9798947723323224 2.453684900343317 0.8262873725849158 
6.699824024933276 4.529443689424079 37.31349493251696 1.9806619636099259 9.533814175887507 0.7540270389486816 
8.309545365475559 5.694365509024909 21.783038166419942 1.9807830175874344 11.615942980324865 0.8528527226022072 
4.723319745695411 7.375776194692058 19.181038071794454 1.9808020267621707 5.315716554979481 0.7884250786552697 
4.836595124343564 7.575556179627174 23.01503168939891 1.9808424661976016 5.086034697621706 0.8273607326072019 
5.133727629707417 5.06554857429809 12.054524779376585 1.9809974968492907 7.82757361099106 0.7560143273191964 
4.5862949684193985 7.011981627117692 33.36087510969048 1.9810078582385753 5.705660122316063 0.7038972673886481 
5.072535993648636 7.873914492063612 5.621717734089124 1.9812356045990847 4.706043945534649 0.8219256271382062 
6.394929564415801 8.478510349633869 26.661019214648825 1.9812983117244611 3.2173358565837518 0.6825771632247607 
4.6273625919189705 5.851800818476011 39.869145703977956 1.9816490711205166 6.885887144428853 0.8812415443648915 
4.539552234565257 6.789160666968085 0.4560626630346647 1.9816582279292039 5.9353661599866925 0.813224461114784 
7.508604554670402 4.7935185209730715 5.232676554314509 1.9822618863217372 10.399335744654966 0.7678208158450954 
6.121467420577975 8.445800785139797 32.26521013907889 1.9822783884042474 3.49462731821386 0.7585025621939883 
6.364574385240651 8.477865792846975 10.77136523094294 1.9824967065917534 3.2496297048714737 0.6593306320301964 
7.406139011756574 4.7363145415385866 28.363931556123596 1.9828450027713782 10.285009976216191 0.7508647124426067 
4.568423818339113 6.051916170335131 29.431375860938907 1.9828680399781493 6.681351526442057 0.8439741590632772 
7.268040542398474 8.329085417821219 8.944595174075701 1.9837942787632885 2.3274862855087637 0.8407216118229904 
7.625297035243957 4.866213924122928 23.500791097831424 1.9838221591812717 10.545077697438085 0.7821187434943772 
8.139799711340913 5.383260924793898 10.587471189668356 1.9839478963435289 11.279359571437723 0.780684753639861 
8.2005858858303 5.477953775493175 33.86431607876021 1.9840793432002366 11.392649822928693 0.8033881622488968 
4.837739714234214 5.415729315192872 15.552916178444704 1.9846289768030374 7.381974121911231 0.9182265951065376 
5.0328935311635945 5.163381639640196 13.260152527514883 1.98467882342523 7.701513217429692 0.7377291651324281 
8.068988901538034 5.284357530772354 28.90172821668189 1.9848205929351455 11.162639424886208 0.7981151729280873 
6.432206289721442 8.483687339095752 24.21339207485864 1.9848454464874905 3.1855948352629984 0.7723564069938014 
8.256288562484343 5.574958184845418 19.371416735264276 1.9850067693833697 11.509872173583307 0.8478522919837662 
4.563591859213128 6.9371290068068525 8.5177244846046 1.9851343169412046 5.795742369957736 0.7630799992149659 
6.202102809531832 8.463009312365202 30.151316890334286 1.9854843984583035 3.417817940314542 0.6522072635975213 
8.27837850384033 7.383084422276969 26.747998578704255 1.9855649573332064 0.9151421124716688 0.8405177991658312 
4.954418477648257 5.253409222141183 25.237934830674988 1.9856512306237921 7.585814255856963 0.7862763427268328 
4.648988676687917 5.780744105327994 31.616885595095184 1.9858428842811244 6.974698963542874 0.855606084871819 
8.486288668954128 6.490524625049513 9.99637256385543 1.9863112694504867 12.47088637280855 0.880394457512946 
8.463083964695857 6.196340453733816 39.18435476410235 1.9864309130912632 12.176258700768097 0.824348173046878 
8.236373393763454 7.464874019227755 12.941966224794626 1.9864476926288155 1.0075188338666905 0.9842110862851624 
5.067112801568433 7.875987461958676 4.420411100907664 1.9865817926520275 4.72101001474182 0.8589407486271027 
5.317842511822072 8.096636324457585 12.43369039828466 1.9866413565192327 4.386758979302085 0.7649925074198012 
8.48539641532334 6.42752584959214 21.066353474492672 1.9867187592752298 12.410431883683222 0.9201052304955833 
7.150168783129235 8.377431766349002 7.811473663075532 1.986823969014891 2.4585253458293685 0.8590699995729549 
7.7636111906182705 4.96635043184285 16.277264928313038 1.9871573261733293 10.733726961652359 0.8396674414283629 
7.513827323901616 4.790722837725813 1.7243379857294947 1.9873284228233674 10.428989463511897 0.8036366509410847 
6.808637853160953 4.53677156656504 14.560874357422108 1.987340737329985 9.675014762690179 0.7990594470977213 
4.51289295969007 6.533687115136097 16.12042797181585 1.9873925659958294 6.209889156643683 0.7895196512392663 
6.596678102852245 4.514779935764585 1.092245142114777 1.9875727304966666 9.462932099402463 0.534873693981282 
7.373324124147921 4.714500396877957 0.3290221085834659 1.9876377583875038 10.270710688490649 0.7526455199572557 
5.673720461820071 8.308191156981952 17.207202426060647 1.988037508550219 3.9749358450932615 0.8676181520724021 
8.17946807780919 5.4354424821971605 39.77169285248271 1.98844052792399 11.370372038289108 0.837199946232031 
7.347760755624051 8.298744888902405 28.42720197780345 1.9885123771625812 2.247745973960967 0.8379492274633913 
4.609915026161 7.118577083801545 29.99006560817964 1.9887329677300574 5.618776601386845 0.7961564645173271 
7.126599428441507 8.387580645594635 0.900759054645178 1.9888658922478106 2.4866455336097832 0.8166872009543104 
8.307904137072647 5.67081753846611 5.9000835639564 1.9889848977203937 11.641861170110246 0.8790377072504377 
8.200868101216585 5.468477876336003 32.537445533350066 1.9892184870808938 11.414182369579962 0.8573379072447802 
7.625095999671224 4.85950665909311 2.7392160546235083 1.989235885971303 10.56988438164857 0.8240899318075909 
5.319661109869269 4.898772083361852 7.492674691727643 1.9892538140157965 8.110516543269913 0.7734183848828088 
5.130894591315263 7.943238563705645 34.05749568385425 1.98931826811522 4.634794617627044 0.8268654272312693 
8.489378914224506 6.495042057785874 22.406711094368426 1.9893850923217637 12.49471723505173 0.8380771067942215 
5.401753150886179 8.158809543852335 27.23054606575994 1.9894208313888815 4.288414186630035 0.7861158732883385 
5.080618318890872 7.8939725293422445 35.21264999907041 1.9894229739371643 4.705434677622144 0.8273633128982998 
7.532437513640328 4.799238630213679 7.5881487110991515 1.989602084973088 10.46127210916461 0.8012387561194086 
6.204877080649009 8.468027661737741 19.361570349741584 1.9900327672908233 3.4221517043143876 0.6493322619902603 
6.320117039489485 8.48218354964044 25.59556478842535 1.9903289938970425 3.3065302266764434 0.691290539316357 
4.510114893305136 6.547790095420698 22.354675576303897 1.990458899617461 6.205416368183389 0.8341963468704645 
4.761935803736623 7.47024282104951 14.27422410199513 1.9905371843125095 5.239992332228109 0.8603009224012448 
6.244624113461327 8.474258818793148 31.22449141319575 1.9907070922182217 3.383076957713701 0.6749173858844063 
8.29788279745501 5.645236748049271 22.900562140544224 1.9907292056605883 11.624640390060788 0.8871554931884331 
8.490382067198414 6.459243642340887 8.891094182854559 1.9907993003099713 12.467801708104522 0.9241060190866521 
8.477731585855121 6.267908519646177 1.5130192054252092 1.99130326192216 12.279107204273812 0.8452810870105198 
8.477697831103566 6.2663477866789705 37.95330242286194 1.9914522509820742 12.278471895340262 0.8324857173487403 
7.57699528108181 4.824612783932862 6.485321395770825 1.991693038405688 10.523528100706994 0.7644289715120401 
5.468546350531081 8.204030103608437 24.67627487893138 1.9918873524892249 4.213052076037652 0.7988529059858094 
7.519746381621831 4.788798882872374 37.83302861334649 1.992007014568386 10.457650927482486 0.7611136687188295 
4.682062074452002 7.314689350927878 20.55349434777355 1.992138810339542 5.419189706445703 0.8534452368435139 
7.662513834453058 4.882108169440885 18.61897008612675 1.9922380356485203 10.629481083026299 0.8436311775486941 
4.508611317330859 6.56798391160023 13.787258736611129 1.992548794308237 6.1917795454675115 0.8984616684405142 
4.507580055273705 6.536506433833949 2.8380043480620074 1.9927543641538985 6.223913994722086 0.8433087987452045 
8.23046165219143 5.511735545260189 9.44309747857541 1.9927780012352778 11.486946073492323 0.8733241225675045 
8.493021484710777 6.486335663813957 34.39379417610613 1.9930683261248612 12.509153179678545 0.9115527948255819 
8.39878285099433 7.106583821175221 16.623757294095114 1.9933189025697022 0.6163588880624786 0.9438555188619139 
5.109574577087409 7.928351497294228 6.816791314172264 1.9933566807032588 4.669917434618267 0.7846947431757352 
5.007070034753474 5.178537429664344 26.492267452130733 1.993766086061531 7.708180497988369 0.7641630574588755 
5.387122929899393 8.154564536277796 13.63808575693082 1.994010826917414 4.312850884002785 0.7456506937126812 
5.919123999924244 8.407600188699014 38.125263952340276 1.994080090515052 3.7217153166217685 0.8249632840403708 
4.5343202997321015 6.83616439158326 7.364847414040497 1.9942174360419778 5.92724168836563 0.7156201399631755 
4.8338240171447975 7.596503578157494 16.688031587421293 1.9946083582387002 5.105294147293186 0.8206535151019366 
7.420708792808831 4.730599219907209 34.392406549771195 1.994613697373121 10.356401773507672 0.7747955044784919 
5.314103084059337 4.896151669289225 35.61723294342627 1.9946631202188811 8.129652148619435 0.8085490055702542 
6.759896002883403 4.522306212816973 15.651932410387772 1.9946976332710464 9.660428172971072 0.7878050895568064 
4.576446117637168 7.0280273827422 10.819647995381345 1.994711120758769 5.73217267007259 0.7028692263796745 
6.0733498301379 8.449177250518582 35.899106302326786 1.9953251167121966 3.5642194550641513 0.755259689748954 
6.697762227412598 4.514259598685168 2.243576203630269 1.995563790011529 9.601960183746806 0.8268183837779441 
5.3789632697232435 8.150965105168945 25.91758317148831 1.995597436637737 4.325062089669977 0.767546372741266 
6.572866696381299 4.505705060707516 17.98796802355637 1.9956256814165163 9.477047367337383 0.5861256264559461 
7.377671930179346 8.292285494229782 11.288718179206022 1.9956440839616747 2.2259957783462063 0.8349256468287299 
4.678697413134575 5.683433540693546 4.5083688304040805 1.9959769275687955 7.111799398073616 0.9201105554508499 
6.078834117311935 8.451170426246795 0.3527489723768227 1.996107896132002 3.5598340769646946 0.7468924391772 
6.706731564836474 4.514624868349131 25.19133479756166 1.996109303940403 9.613546420904845 0.8164740501853277 
4.614135369234752 5.845757483268429 1.038963290059101 1.996125916937758 6.937575926705678 0.8236997576636068 
4.509560021778883 6.651402160946548 3.9545641099870608 1.9961898510011924 6.119667674971126 0.9084921282402535 
4.6632605582657085 5.717810108123794 5.744537104607431 1.9963548792175472 7.0754603506803395 0.8873819164144467 
6.3761103985350776 8.492544884933388 11.837503905203349 1.9963926847755544 3.259895552922707 0.6651959516123095 
8.496206003172707 6.467800823059537 18.77859133923385 1.9964656756624686 12.511963226590646 0.8645409639877215 
5.0227305861793425 5.156858738017549 27.65836241615697 1.9965854278366963 7.7456940097236355 0.7064816076088334 
8.483518792914495 6.271851735398101 36.778933069373146 1.9965967125300574 12.31633942337573 0.8941577301793598 
5.442371771967732 4.806021129686265 22.025269520003448 1.9970332700784117 8.296196220044504 0.8443534559212225 
4.674902316851195 7.310657833015892 13.097503875507208 1.9970347205958021 5.439114983666164 0.8222830026456779 
7.895701043707289 5.0715713043905435 15.160598665659805 1.9970953762517578 10.956462821934341 0.8044953000564999 
6.249953950427731 8.481386825087538 22.891354325736486 1.9971020949208325 3.387744629786516 0.6250544414434712 
7.07388411018977 8.41290160828325 35.12961809302734 1.9971318271213192 2.5549966447109824 0.8722922840120841 
4.5030173612141375 6.524818003894765 23.542920150305257 1.997136848823703 6.24937180978484 0.8939947059354972 
6.178025050317423 8.471042590280875 4.956937414938913 1.9971671840194656 3.4605291127075315 0.7485619337031969 
4.995432731836232 7.813402449577097 38.62596775254184 1.997185183948875 4.8410340818686795 0.8712151928080051 
6.9160484373692395 4.546327985862552 19.268978944667033 1.9974810740182891 9.832024788643317 0.8419843148687128 
4.652233993888501 5.741174573487944 36.16278455670705 1.9975122631068984 7.053744916281227 0.8799277373203117 
7.6707754969043265 4.88151383445474 22.234468947429264 1.9975516844910357 10.66419425664885 0.8186507412954852 
8.496521313115904 6.434787348772122 24.982309565113177 1.9975860541178752 12.485979104946457 0.8448177266573775 
7.863415300551736 7.959980586779361 0.37041671046530666 1.9976097205288106 1.6372142781549623 0.778645251596315 
5.59469939923436 8.280820797946651 16.096871825273446 1.9977216753456863 4.077571047833345 0.7731255823586098 
6.514042929370939 4.50224099239378 39.73837512813257 1.9978083632663823 9.428493160992021 0.5446091753053152 
6.321293475109002 8.489815499644543 18.293255187807638 1.997824252696988 3.3171207020269957 0.7046808635156536 
7.27557755946129 8.341274441023504 33.069317904148164 1.99795198088101 2.341866643839314 0.8105579873301588 
4.69124310734335 5.65117302400564 2.375548367723347 1.9980262090144538 7.153672666301327 0.9293056128057582 
4.570577281217179 7.019115609421046 32.32996950683116 1.9980372978750616 5.75187852656129 0.6661558642797617 
4.502101067216312 6.523777787637965 21.164196080145302 1.9980404222145147 6.253250763083171 0.9013566854281215 
5.305557467281385 8.102011058645846 18.68281382513446 1.9982823614271445 4.419138891938129 0.7931160522779324 
4.501644759160815 6.517197007429299 19.702515699956194 1.9984292345874939 6.261053382421501 0.9252542565642506 
7.032490691982101 8.426269033057455 2.018652950294964 1.9985141292379396 2.60025731348785 0.933129860134598 
7.499663865385539 4.769406573129505 35.529008143290525 1.9985698518903254 10.464924863211955 0.7259988607294786 
4.555745295161604 6.037148625964477 11.38376098046686 1.9985889401607349 6.745844261262841 0.835630992898119 
8.497951220711819 6.44784574815799 4.1329201759015035 1.9986318186021776 12.505613904392149 0.8309639664293356 
6.448662026424188 8.49805522259247 16.596808759728475 1.998714651985099 3.190917253893625 0.6885170075621461 
4.5017862376193065 6.546243020635024 24.7005536585484 1.9987487728889446 6.233007314204402 0.8387141528160035 
4.533241454368115 6.856873567000247 34.578256253323794 1.998874163032663 5.9208511721697885 0.6757904202895665 
8.472725031718836 6.1771437811546095 30.800061641068446 1.9989697818669578 12.235620940514181 0.732445661222396 
8.496413302800322 6.398066375151579 23.547734170607868 1.999013891765843 12.458196862689826 0.84931997869165 
4.910688298970001 7.712632963746258 2.245519701805378 1.9990973932739988 4.977408756976917 0.8602000781409652 
4.715019020929795 7.400745463709083 25.326633259824156 1.9993747737817735 5.346832277580862 0.7930856509527645 
8.237368728603577 5.510482404185311 26.596596496829733 1.999398702499454 11.527446894421898 0.8273126345084999 
4.929438367156461 5.2626415031179725 14.5028052405833 1.9994298918357472 7.6155839129650005 0.7111408185054787 
5.921661593176884 8.41404334696383 3.881087892808509 1.999509251507281 3.7275437663808635 0.8111110199114928 
8.417697710644417 7.06611343328392 15.453651438636697 1.999512172694966 0.5739633243933255 0.9717005952242266 
8.499510860254864 6.497019087914513 19.792273658899376 1.999513082256279 12.56033030675633 0.9602270419600311 
5.3405444769943 4.870688197192791 6.2755359600207115 1.9997484993356793 8.186780296660023 0.8317069495839888 
5.5291483072085 8.24830184596096 14.79794037513291 1.9997780761841102 4.154955166253451 0.7589250086356724 
7.215730934888459 4.632670898707094 26.07923090116951 1.9997971756384891 10.155787610562028 0.7720145983545083 
8.499800770663448 6.496517310675603 6.435152548898557 1.9998038032444732 12.561655182702703 0.969028985753155 
4.6590741225201775 5.718636838264384 35.10459291056151 1.9998841158658007 7.085567720593152 0.0 
