282

5.957478176959562 6.292198094176857 25.93560382959688 0.29527585691226 0.5064884131180385 0.0 
6.3301012254702815 5.97331780809299 0.6679375458165069 0.33117783504024656 2.054140564361198 0.0 
6.333846564077151 6.201109472419946 11.108379840313809 0.3897416429420226 0.21131129398174053 0.0 
5.929031133765864 6.563968646329755 28.003316038671983 0.5684164089974653 0.964020961373032 0.0 
5.457673028984363 5.642950346821598 33.00064492348901 0.6493096320907403 2.4179164952650094 0.0 
5.730751857233166 6.61719173914377 3.87471941956575 0.6733648381454889 1.3347132921312532 0.0 
5.871899984192465 5.171465608339954 2.4898072813989387 0.8383787045323672 3.822162798942255 0.0 
5.223649003436876 6.317820886118843 35.31076531376431 0.83888675369082 2.3094788670424755 0.0 
5.751241093764975 5.186245169940793 9.209781611943448 0.8509276801679064 3.757456459737721 0.0 
6.559416612483631 5.344786735369141 13.748307654925064 0.8615401142552157 4.6687557150950845 0.0 
5.107213153521377 5.941622266810162 9.447336166553704 0.8946934184275808 2.869181506336453 0.0 
6.7935478192681416 6.435585032149271 8.044818820499962 0.9052361358771006 0.4544328069279233 0.0 
5.885360466445428 5.0765544650480745 11.21038871381107 0.9305341899555635 4.270107537485792 0.0 
5.93416001953109 5.063769717740586 33.73806724792979 0.9385425107301684 4.356883282766315 0.0 
5.3163590232534865 5.336801675096886 31.008384158170685 0.9524688988314649 3.7258809264768082 0.0 
5.668629365205781 5.063025918210524 13.374986005833335 0.9938445188001772 4.345542372193616 0.0 
6.16781624367683 5.006780022130492 36.66847827825611 1.0072974814228948 4.915379964663996 0.0 
6.012667596027075 4.987232255544074 22.482659918940648 1.012846963859522 4.785596797608692 0.0 
5.006333384212315 5.6591575166183326 24.21352875040609 1.0504984254194456 3.6473632986662636 0.0 
5.103174195664291 6.643831958649578 23.99895427987223 1.1040000517667306 2.780924781055859 0.0 
4.964880461113779 6.449239023349021 21.567041030930774 1.128400708916654 3.0829329278545785 0.0 
6.993463813835422 6.544335876275529 19.3009644800551 1.1328159142601537 0.5678157062912934 0.0 
6.322487044139372 4.881746037864282 15.896218774901314 1.1638255098896835 5.811161779340718 0.0 
6.787644622989221 5.087797429483192 3.0099763064703495 1.205196076072812 6.537757136825434 0.0 
4.931418408019084 6.568205600999217 32.61757437612892 1.2102579162010678 3.2106666885775006 0.0 
6.698923590477795 5.011454619991742 31.51506056986635 1.2106676478960043 6.450210034777962 0.0 
4.9589614500660115 6.7801812393867635 19.51259681033168 1.3009396714451156 3.2503445319891373 0.0 
6.990722268228851 6.8625901686749575 22.885659245111157 1.313618061637099 0.9410381467764317 0.0 
7.009057212588543 5.138373024897934 5.354052611158657 1.326875089260664 7.399233278338258 0.0 
6.642824622950734 4.797887654202077 27.18724228879538 1.363193892222065 7.09330498002208 0.0 
4.782888964822966 6.628978786715887 12.308622281867834 1.3700268559733768 3.6505889613735114 0.0 
4.747020865579984 6.602519098453536 39.383525781491066 1.3903186596220278 3.7446376537993116 0.0 
7.019786780111765 5.034824295939478 0.7870688010920048 1.4041115399424107 7.758127104505096 0.0 
6.800825143866518 4.827962065528013 24.828791115951276 1.4195047836799262 7.540128684691936 0.0 
6.714583622348364 4.761154136543793 9.274575474297393 1.4301639160358732 7.487745391750877 0.0 
6.87065450823806 7.1534258200414715 31.096797261298796 1.445140268297025 1.335603538449087 0.0 
7.037057877121407 4.969427704870503 38.74258723992967 1.4620425082698656 8.042584512155733 0.0 
5.365800814981625 7.318235490926005 34.963481747438045 1.462857961599449 2.9538138085142336 0.0 
6.977925173857267 4.804212950836016 22.8288605859099 1.544747329698962 8.338383902568111 0.0 
4.937393411718213 7.171302644791973 7.857545988017634 1.5814811561180644 3.6493871791500005 0.0 
7.218975828096498 4.983318014712465 36.726285558183896 1.5873072571785682 8.869915101651763 0.0 
4.923449177900174 7.171154726746186 28.20516329990331 1.590774989287845 3.681260470932152 0.0 
7.45829341375496 5.257699843575319 30.84147990896802 1.6363462967322056 9.511014056818833 0.0 
5.030763027611329 7.334452504107311 5.656708873611109 1.6492979701568276 3.6267533510767187 0.0 
7.55673120041253 5.4152323801404005 26.89186651638068 1.6629387239384674 9.851008348480082 0.0 
7.593121660782595 5.5106166482293695 24.786595276702315 1.6665931390249242 9.974809453879878 0.0 
5.091426737175496 7.457892388698948 37.059453960604394 1.717834564486898 3.6557366002116467 0.0 
7.545871603647907 5.23908058063949 14.256163346234487 1.7229966273109452 10.03779167538545 0.0 
5.024345425137476 7.441280528801425 30.261989898460897 1.7404572422648856 3.7696124197176033 0.0 
7.337833810798591 7.1609113864387 2.099479865270432 1.771303066242167 1.2659708868956017 0.0 
5.434396149036475 4.313055484198953 37.65073051228201 1.7792384650788087 7.808872541075644 0.0 
5.294052094997522 7.6497620682763525 1.3860378943538905 1.7944573905503756 3.5442835274631683 0.0 
7.7823601251135095 6.283484574388259 16.172339473499136 1.8047634525085936 0.284663436456448 0.0 
7.243117253728071 4.604580502007177 7.3386618104176335 1.8688328127189346 10.166691367814922 0.0 
7.856943450509405 5.411895478757186 33.13746233478045 1.9478464791394647 11.641252940163472 0.0 
7.784175470081547 6.7965737209672685 29.109559471064898 1.9539221583718098 0.820473763256345 0.0 
7.937520932291338 6.3005768718630755 8.179869727010363 1.9606972787674488 0.3017668191622871 0.0 
4.055677554152652 5.673876269959507 4.4964447811423724 1.9714833148473097 6.521227185593258 0.0 
6.27514323450034 7.958357087094596 20.666161679393902 1.9775910295268173 2.830353996440225 0.0 
5.913617056332491 7.9757438305575885 34.190001111825964 1.977631334941635 3.192866472910504 0.0 
7.935105993565534 6.487507320384876 25.10607476535172 1.9955697416432474 0.49249143844497745 0.0 
7.688978549980606 7.166356561671751 35.54844687249683 2.052568189183817 1.240507526088642 0.0 
8.006956069044854 6.655087729617515 21.08974302042344 2.1111638014544036 0.6660835914746244 0.0 
6.240819610468801 8.105281511862543 18.16566955133856 2.11901022389619 3.0871924374899766 0.0 
7.113654964999062 7.8045586632542125 13.992935023483682 2.120532798660019 2.158433683257673 0.0 
7.719071605305928 7.255204948856745 39.975323741986536 2.128555061022282 1.342447791010482 0.0 
8.101783081169742 6.548676769325478 19.065096437586412 2.1722196752374803 0.5546852559044062 0.0 
6.71044514443655 8.06359622068106 24.770664477389168 2.182466876097463 2.7045796611595634 0.0 
8.117572964358367 6.65458506337035 6.138336767383713 2.2164378774441316 0.6644947594570603 0.0 
8.203778784770204 6.339832627338977 39.743835779815036 2.22982670779757 0.34116210346843 0.0 
6.828436277515648 8.070896693794193 36.10794429583414 2.2304528200057723 2.6548135251045935 0.0 
8.167341982314646 6.5269066521572086 1.799730421817273 2.23047122563621 0.5319346517413237 0.0 
6.4675459550374 8.189672205261047 9.10869685868176 2.2390318413467485 3.046050755787139 0.0 
7.749046400296013 7.4076041351585715 33.4061789244586 2.2451086191327034 1.5214002552702919 0.0 
6.405634772106027 8.243944800395107 29.030289412665113 2.28031310033551 3.17410235278002 0.0 
7.74173758053451 7.47438629555371 37.834272574608875 2.281987017483406 1.6030056011900378 0.0 
8.232182747242168 6.482683901952516 37.59485844150916 2.2837739744312913 0.48635173071948046 0.0 
6.93196480432303 8.103063844423243 2.4928933442614394 2.300312137562453 2.6537702777874728 0.0 
7.830206137446 7.396714301422104 27.00092653249041 2.302273950975869 1.5007638230964666 0.0 
6.724213449581356 8.200150769916672 6.976205770010097 2.316279026999865 2.901838105851727 0.0 
4.283624822354162 4.383142385003078 35.2976694743312 2.358001759459121 9.189471263100781 0.0 
7.129392702630565 8.10046827002633 31.353148300296027 2.384846919645489 2.56956822926127 0.0 
6.907936894327676 8.231852248009089 38.117362093077475 2.4094633969049237 2.8538508575629384 0.0 
4.042150374366685 4.4566806882460845 19.14293359084646 2.492992108817252 9.496160332990032 0.0 
3.4896262549172423 5.875549571646669 34.195179918864405 2.513456633625923 8.02075823034061 0.0 
3.7730011986950824 4.788095381847384 8.440171956393492 2.535396707521957 9.228748281994912 0.0 
3.6349945189666144 5.0860799271180195 29.76448781146229 2.535448840922365 8.90031371954828 0.0 
3.5640912295025604 5.2524553989615725 10.813836822116727 2.548033451257666 8.763589573541571 0.0 
7.947372394295549 7.648335222625731 12.086200148316522 2.551326762336215 1.7921133166997372 0.0 
3.57519197457556 5.008841479928897 38.02853778817163 2.6195589651833213 9.246062768568969 0.3246724036201369 
5.7274432294112625 3.3829832273883333 3.700147590096627 2.631171598608602 12.126057467176896 0.4078293651073518 
3.8346199659186713 4.492267872005106 32.500624277510596 2.6385842533044253 9.894227188019041 0.3061612237074371 
4.757758136500753 3.6473029458730544 3.6915426826534485 2.6605165430659676 11.244905092572237 0.5532176799549908 
3.697446123856576 4.637839291749639 25.442657414460662 2.675301132142741 9.833880152141912 0.30175004106544334 
5.342781153142365 3.3934809877590038 8.299856973521237 2.68809932365578 12.003420431206504 0.306031514574708 
3.285661400005969 6.219847348739856 31.51680962613885 2.7232272935187587 8.335184001840702 0.4868407238822709 
3.670117692880064 4.583884505267997 14.894866047116317 2.7264876048591495 10.054555044534233 0.4946062058467257 
3.606479947018178 4.693720683053543 2.3789393351615864 2.7267753662353993 9.928658450588152 0.387347555167684 
4.717110435646886 3.589962598116175 16.28759559762525 2.730217191507859 11.530329359938765 0.4610966209126007 
3.803512034118434 4.350045393032364 27.650843638928503 2.7471639174458193 10.40034391440934 0.6136574843258779 
4.348249460600474 3.801135218136462 8.41973446006692 2.7501429368900823 11.187941678454575 0.8629954742766404 
3.7785205200782688 4.378064611255743 21.16445895785658 2.7505718469028055 10.375831991415138 0.7621446308498988 
4.435125956935339 3.7301897642228763 39.570084805728364 2.756967405882076 11.327807342933676 0.7518309493711518 
4.23729459330027 3.877359813296561 14.355920109851358 2.7591179229994633 11.08990539913857 0.7335481123458557 
3.4520458707922757 4.941158483750208 12.80811860386725 2.7592056105119918 9.755019759262053 0.4063104162086213 
3.2716107730261648 5.520326229652525 22.878225765333305 2.7702336904720237 9.1850494308639 0.4365628372255298 
3.380547720970295 5.09078715629313 18.738678208008864 2.7727600396131367 9.637232015483601 0.6224467376755439 
4.84679451997572 3.4653093439051457 12.252335588396608 2.784697398507168 11.933571709913469 0.8152227447220519 
3.6766120122453048 4.454279540638307 23.186960459752328 2.790588375259265 10.405098559044841 0.5533928561384553 
5.7104864667911155 3.2237630944027442 30.658212647744612 2.7912917156598516 12.863617166860122 0.6832979011034201 
4.602080509265713 3.581140526488568 19.490312451613576 2.793753757075023 11.701244317518178 0.5322077943884659 
5.326496014377428 3.2694315919967405 24.134932092071118 2.8124031448984956 12.573024115559258 0.7244628796198858 
7.010177882647106 3.3748516331879 17.179288973876183 2.812803459604959 14.288283601557655 0.27226848252457625 
5.144099945771563 3.3060615020429065 6.056639258040622 2.8266357270797298 12.450656833491138 0.5963641208993924 
3.1712835110123834 5.887585076892073 28.894339417729732 2.8309493266407615 9.006134094477186 0.27368573139237246 
3.159371556971913 5.907381729110387 38.23347050233885 2.842137944478199 9.021474358212696 0.3245827565606221 
3.1573351260877436 6.072024721641704 36.20821442349063 2.843577174247634 8.861328735376098 0.3892226065872222 
5.5038165736390425 3.188440668872838 19.74095392194701 2.855006806479367 12.955186793432222 0.6783602791031785 
3.152328529665912 5.740868939085585 8.586827993890573 2.8594373064792546 9.242674301197887 0.6168201394005752 
3.1699502391949057 6.438994992099641 24.667510732748028 2.863895642603191 8.55646093641996 0.5113546053481464 
3.2000410155999504 5.369862422348291 15.530133505650113 2.869990188326664 9.651653595118649 0.46244483003305736 
6.919499775252291 3.280941141634214 12.883521495366516 2.8703241823784422 14.462084654291882 0.4509763196210017 
5.7197040661013965 3.1357444272735258 28.341324701308878 2.87793776799547 13.281221252630075 0.8777904257255131 
3.127246165212389 6.2098198402959195 18.671383775725957 2.880406040937412 8.839056614233098 0.30673978097726556 
3.168400121476168 5.45701151247545 25.039562405470534 2.8831916983857266 9.604064451452889 0.4220387094113139 
6.069145354544002 3.105941549988575 17.774463408904012 2.8948843486636138 13.710973035053865 0.8274201183399243 
7.662375081051697 3.6128440859311883 10.87239099117135 2.9089524348423668 15.477614876005966 0.940049022081421 
6.642155942652258 3.157878392599688 32.68872305907035 2.9137638006426227 14.37825968635844 0.16475720209415098 
3.124521097753325 6.534054853412618 22.669637919902705 2.924652715061965 8.6509992339507 0.599686257707559 
3.075103298831472 6.08683380420748 11.16380702049129 2.926185370419941 9.10603590932277 0.32461303412450027 
6.738869878773581 3.167434147252422 3.832373743629063 2.927346581447181 14.541744681418571 0.3034088984508079 
5.858249419269487 3.0616830334285314 1.4775430005679766 2.941734152363057 13.720790109663156 0.6581382202914546 
6.154496452428026 3.0504228569020704 33.561683233237446 2.953620570909302 14.073176022154595 0.36732371692542465 
6.039325251701264 3.0379619856551336 14.67048017599673 2.962299052061666 13.998831816394777 0.42239448587518696 
6.167621214969936 3.0414136959817437 6.134906713017571 2.9633308607093474 14.132078424374974 0.4778518693099925 
8.381206359617549 4.235502735818997 15.8651737061816 2.9637129284708577 16.731531070988797 0.0 
6.474115950350942 3.0429233827158413 39.53723683799823 2.99484357769582 14.588986903594034 0.20051420981442858 
3.218736668905974 7.118944790210804 35.8757976075998 2.9979097985810257 8.271508712571485 0.852985327546966 
3.0072342087271267 6.285192632407597 26.907332308032338 3.006323655063227 9.159022182932691 0.0 
3.124530715397066 6.901593258898373 14.043132981810217 3.0135019514156447 8.551579316986537 0.0 
3.008874285200333 6.3919610080932845 4.547306565923584 3.0166979420554068 9.08416377843853 0.0 
6.798414895696393 3.0867831363412606 10.544147163223556 3.020645434402315 15.04247303839815 0.0 
3.085092595542074 6.960440956869677 29.114750045932247 3.0690604438812192 8.664886227932637 0.0 
6.868840277782089 3.0531020541656044 1.7942222690238054 3.072310357281542 15.358780307549658 0.0 
7.0068241798489765 3.083633116896374 30.161487332766967 3.085269959986018 15.56460120495759 0.0 
3.383156115990447 7.724472655820495 22.675020161015887 3.133955624119588 8.019553813383315 0.0 
7.403338001340252 3.1820140652869107 26.009587929374547 3.1480791404039477 16.289514859466802 0.0 
3.648028450552509 8.10843772165541 35.71274166451627 3.1586832376023217 7.614761880095042 0.0 
3.2075743433504744 7.494637686643554 4.703993298950813 3.167267412494519 8.3937228634985 0.0 
3.192815286004093 7.570098289439709 24.718230419858152 3.2164413032097734 8.46447235082745 0.0 
8.261774214278796 3.7096578666390307 25.75207447002965 3.2188957243478615 17.67660282859066 0.0 
7.7549665295973185 3.29624586470724 4.000915801175495 3.2233823763431415 17.045635294870465 0.0 
7.7202945830638114 3.271705943344358 32.04737921763221 3.225368492451861 17.013693537615797 0.0 
8.001153673031398 3.448817015731688 29.78875057222612 3.242398902403468 17.436150783024488 0.0 
3.192800276419355 7.635920326497164 6.871918097248397 3.249093043099541 8.492956960445582 0.0 
3.6868014442093173 8.310889846854483 27.102349723735855 3.2697246738536325 7.705739764792288 0.0 
3.8318079835257333 8.463078095511786 12.020258734444212 3.2814341871950923 7.52304062370877 0.0 
7.77993941586602 3.2426314617095677 34.792636976632906 3.2819606304932094 17.34716098335295 0.0 
3.4476349643787145 8.073706639038072 11.033652644536083 3.2885903514808037 8.087621463181915 0.0 
8.069738956065542 3.4397591566392265 15.142146251173937 3.292210886663849 17.75239267140703 0.0 
8.06652422857124 8.56297151624101 22.268021709897372 3.292316111848116 2.937488848079795 0.0 
3.4415992562709317 8.091529802581483 38.13564862561701 3.3045289044885022 8.116792016843139 0.0 
8.335382190372563 3.6317749992049837 20.997812295774253 3.326033618215531 18.262601303345658 0.0 
8.2833507422175 3.5542460819295805 8.711689029989856 3.3459532034596666 18.28047956192453 0.0 
3.488542665113661 8.222413879935154 20.537545439092582 3.3535863487739244 8.106213000736737 0.0 
8.40783572927256 3.634694138842761 38.04333317906547 3.3752547631232677 18.586505799748963 0.0 
8.240354977270806 3.4749282241014186 18.846175385534416 3.3756744359641218 18.35729479530902 0.0 
3.491166192368647 8.259666726828765 31.347477630173444 3.376439069589595 8.13181492011476 0.0 
8.45197548484856 3.6535496162371874 34.0312559708164 3.3938198511056807 18.73312267324025 0.0 
8.557341414552859 3.724022696773231 4.63986406996284 3.4234584553329404 19.020512514776517 0.0 
4.862799813976832 9.23709764390779 8.417281494420934 3.43103853363446 6.54858632212483 0.0 
4.209442166974656 8.931745318942687 18.46064167092625 3.4352915405465607 7.279662301904143 0.0 
3.720198466861305 8.57327290699299 6.642846033979282 3.437910482308358 7.892743918612691 0.0 
3.7090535976200094 8.570844492756674 0.2637840132718168 3.443497760201849 7.915523480274302 0.0 
8.815934348337915 4.010389536355952 13.311007371557665 3.4479031383133654 19.542970233254653 0.0 
4.145437059747525 8.944346130084263 36.025929882080504 3.479738184562178 7.4219052508322605 0.0 
8.6699185748654 3.767961654348321 27.817594624416827 3.4800086742522307 19.442385007176835 0.0 
3.766061654713024 8.670696930576089 33.40020341473375 3.481824611540916 7.894614605603717 0.0 
8.920807037460895 4.011380804544862 29.838955314842536 3.5335138395956154 20.089547406010293 0.0 
9.369583598114113 4.8830670568370635 30.13192109710215 3.5498778604625665 21.168305513686125 0.0 
9.172626151251192 4.381684756650019 0.4048807180665719 3.561530699356931 20.69783825099578 0.0 
4.482656750341832 9.247340093424263 39.96528232883881 3.5843476700292225 7.197041640984715 0.0 
5.480744682773114 9.565077296267987 39.848361960002734 3.6026937439690707 6.180168214847569 0.0 
9.201133657803807 4.3341520283371135 25.88979981920268 3.608643257488567 20.942243699024942 0.0 
9.239712995520696 4.385456838174088 23.849524643775652 3.619736166455299 21.069943471647736 0.0 
4.240358702847219 9.172716669326874 27.206644306551183 3.628011653574192 7.536022482404068 0.0 
4.37282732138053 9.244217278032089 4.435540595261472 3.6294127173866038 7.388366109280298 0.0 
9.200579134513905 4.277232920093416 7.022177411838861 3.6347810398833724 21.043181477576827 0.0 
4.497128996125172 9.31553074554698 14.847233020587922 3.6402424890321585 7.267294054636682 0.0 
9.642349755277179 5.78313142030035 15.41648060510316 3.648800312517616 22.7090920447568 0.0 
4.685616990850303 9.406234633919066 6.424604383906775 3.6510323301843197 7.079598345798749 0.0 
9.584871930388905 5.2672461409652644 26.038597760114854 3.658993710738044 22.25239331798277 0.0 
9.36782659171062 4.567959746887475 2.7024394054146796 3.6596441409470053 21.522861663812062 0.0 
9.544332196545406 5.064436903407186 21.705603144984593 3.665728989870188 22.086425072970354 0.0 
5.342655593017776 9.607565862563126 4.138355184376472 3.666965110567821 6.4209722173939205 0.0 
4.42653839665269 9.314871112731636 2.2389980280233246 3.669353064401264 7.389979257344084 0.0 
4.731595713091352 9.445616563917744 29.18754414690497 3.6716648731321557 7.062530424815307 0.0 
5.770039436053933 9.66549288242843 23.41182846516533 3.6726992705779624 5.999173611472521 0.0 
5.75343040558381 9.709128160763152 37.27596097337876 3.7173146595165685 6.085894970293577 0.0 
5.633870446203453 9.707298320176408 6.216961393241782 3.725333768261046 6.218462146964711 0.0 
9.532511073726274 4.783639738302764 17.585271798925312 3.736063004318172 22.235432654987353 0.0 
9.740649851495382 6.251781850860462 26.143462698688502 3.7491139502441353 0.2519714985868262 0.0 
9.576377287175584 4.847002067409825 11.29310265618718 3.7576427095697404 22.43806235974339 0.0 
6.231187431437766 9.758413086420221 30.566471584264363 3.7655167715241378 5.68352699282951 0.0 
5.297884951709646 9.706323623084637 12.634781506111516 3.7722407584976585 6.631655424899627 0.0 
6.461126936596267 9.762930655543064 39.354962648722534 3.791079683952897 5.492742405248563 0.0 
9.74815813704969 5.411327165992677 36.29349787986189 3.794103995125856 23.247997834040785 0.0 
5.461276792703217 9.767136733811254 2.0100625896880615 3.805462109298981 6.5181449480232345 0.8069164615634304 
9.773142923597561 5.438157854538996 38.3658880150718 3.814744305757671 23.404851901572727 0.8912259578581734 
9.793348448084332 5.584055849786882 32.23839600301318 3.8160846406598887 23.56039475758373 0.7644804235464874 
9.74975466791445 5.25407188651857 23.84157945008546 3.8232275396617617 23.27130366293529 0.9593759151243805 
9.80389923334801 6.423039945138717 36.31895487616602 3.827350542169939 0.423906098672596 0.28460540130043244 
9.825776255069828 5.8404029863986935 11.382845778185938 3.8291037019917047 23.89932486102392 0.5220139025204676 
9.773742839152538 5.285337193961224 0.6333735491704431 3.8408173534275525 23.413714880425474 0.6882044108677281 
6.317276471119614 9.8289424303787 16.935248587662578 3.8420651340497187 5.7174636116749 0.38485718250072054 
9.823496539537317 5.602341158588782 2.8265232886890033 3.8441199697728408 23.75494660496991 0.8685530911561422 
9.196773746686677 8.150508265604127 34.671179637433994 3.8527974496379658 2.28153498880868 0.2340080659867165 
5.55152897250675 9.830382529879508 14.826945330082538 3.8565472365455333 6.507338236925161 0.7575757165391204 
5.6766816183266755 9.849989031051336 8.239047655323361 3.8635411626050367 6.392533213825182 0.560503900919636 
9.855997389688067 5.749488349000101 19.791953345415706 3.8641262863120724 24.028334042594 0.644526121142961 
9.660648316744325 7.266795912462591 24.204353421874742 3.873644018584442 1.290537553828166 0.39640249111706954 
9.85332307265271 5.577303170283949 28.073041623011967 3.8764379670116966 23.93283907042095 0.6437203696823944 
9.8879070503966 5.728908461678095 13.386113632014641 3.897346771160259 24.21644134966921 0.9475790295959311 
9.890473892889514 5.73928776855586 17.430492707808654 3.899199658760689 24.23848712299611 0.9661061812565581 
9.906168501071193 6.142707982200488 7.411177380534021 3.9087744789056984 0.14273970510539868 0.8090553730460498 
9.911051273872904 6.300476850533702 24.078254957883416 3.9225767557269666 0.30077148813674626 0.3698902216332666 
5.965748045296632 9.923198434822485 21.330660930249735 3.9233479523736623 6.197032942147221 0.4456250972220313 
6.446279270159817 9.898850561072297 1.635827391710258 3.9243089690476864 5.717043274166635 0.22582511920881057 
7.204450886452289 9.741430763909214 30.16628854745248 3.9305223697368747 4.94990491890767 0.6058540001077074 
9.881488247391712 6.6212419395397255 2.8835816728910046 3.930889538270323 0.6238575704273366 0.4906671120917296 
9.392424456758125 8.039604638652204 8.919499912145497 3.9583495016006642 2.142727825314857 0.6222035821572798 
6.571618021090954 9.92044315584748 5.821426377068672 3.9618962253278758 5.649712034579501 0.4027377001071454 
6.118097325403381 9.975994473659949 18.9844105434007 3.9777479850842576 6.130117241799818 0.7277565699825458 
9.790892182491659 7.20528327519 34.45179554915175 3.9778852814943138 1.2245317546243228 0.6598276429063107 
9.963197165016705 6.378917138030932 5.13160091498434 3.9812698936758872 0.37949153812548 0.6674339567622808 
6.7351701565681665 9.914984659169722 37.03468029656532 3.98341311448395 5.517721721596121 0.6701411066211488 
9.892739984495714 6.8766981385508394 20.030179018730493 3.9902411221667062 0.8839093468782657 0.4636744984249962 
6.6189879043370325 9.947648423247902 14.63135659002215 3.995882142817428 5.655226428658299 0.6461456899764092 
6.898678972517102 9.893829287140166 20.92710093496204 3.9961894866278422 5.370768248698106 0.7776872837688911 
6.4715967637950875 9.96857429510724 32.650359410087184 3.996496646240046 5.804984106734437 0.6763675793200468 
6.5213119456275255 9.967274024068406 3.7866479193549196 4.001378428329649 5.762552448091647 0.5275230569371607 
7.550642327097714 9.698715068066033 3.578659833472585 4.010609028729394 4.707717664793492 0.6058351344937292 
9.922311481270379 6.847250816393673 11.342024874387988 4.012774763425573 0.8536755464764063 0.23636058606475382 
9.11419414335917 8.536721163377464 32.33968288789537 4.016610439569619 2.745596748063866 0.7137854904705715 
8.0917952141671 9.432293922308741 28.19328255249043 4.019483646829515 4.113783638889782 0.6192360887637903 
9.938557292120672 6.80512633976096 15.465805519206413 4.020007707243083 0.8106084194386547 0.22668879143785392 
9.99743589102374 6.50386374064559 38.577236423882056 4.029065942868408 0.5051864170290941 0.4389492589263227 
9.279852137720672 8.342755654588647 5.399590545538615 4.030624530071976 2.4999961517700404 0.4391985100419721 
6.813558211702011 9.958453899253044 10.056996995633767 4.0411921800799595 5.528733557774871 0.32703734569986675 
9.965276520505723 6.844980472145608 17.66237287011782 4.054307571260643 0.8512204677345707 0.21839865816505624 
9.817100993423958 7.374765539222157 0.7962344924056666 4.057122167476714 1.4025343773643897 0.5797263859143607 
8.504221476396092 9.192509796911565 26.172377440377826 4.057492329779534 3.6746150613630206 0.45195752697838193 
8.978095106682536 8.755822668263708 17.46738130843926 4.057537312627274 3.029572674324168 0.5822042449721777 
7.438884466452437 9.798203820314743 1.538719710879107 4.061617998833915 4.909154084151886 0.7797705039357967 
7.631655998671903 9.721780369739987 5.619992766382488 4.06373601733478 4.704280500406643 0.61105571533068 
7.493384829802265 9.780798917755954 26.107458359070876 4.065050886076103 4.856169731679529 0.7255758645360976 
9.88446231360979 7.210859837242955 9.213914147273485 4.06881174439206 1.229485010324435 0.5085869233782656 
8.621191983250746 9.117316873895003 36.53192488614293 4.072875139913878 3.5500771688631723 0.4929001236280739 
9.758672587296939 7.582842230694478 38.749955892610814 4.078358633784836 1.6255416416840944 0.5680675289724993 
7.795481631098344 9.6657869028332 37.00554307013286 4.081880437322363 4.552711216530483 0.6261396674347045 
9.241256544564877 8.494093720675085 38.73911580988654 4.089773523704649 2.682296132000829 0.5325062036662979 
9.819227889517132 7.494706937149509 4.898772883345444 4.1012986358016335 1.5299449225654556 0.45046590394216207 
8.70437546397246 9.084927429094101 34.3889125250294 4.102489962560958 3.4913722841958226 0.5058387292431289 
9.704838817021352 7.77355584856798 2.81800777086481 4.10747258153939 1.8338786615378737 0.6313734147221595 
8.407089410180214 9.329591371025508 32.30826345903006 4.108559130231576 3.8819342273806257 0.5569327983391891 
8.453266544859074 9.296751048097772 3.2391712475249506 4.109389761662736 3.8260549041754146 0.5950990753061658 
9.673244374074267 7.84407997263267 15.325054395838933 4.110152695111604 1.9123329188661913 0.6378085054271779 
9.219285224401395 8.568688940101936 3.191390006630165 4.1184900421211585 2.7736513882653533 0.45739713420192496 
8.385112819680918 9.35978013737498 19.658572987805343 4.120301655717175 3.9285261433039302 0.4652750598728378 
9.222689621764017 8.56821056613304 0.7739555372615481 4.120853541467215 2.772745877398048 0.44149640995811823 
7.529321725880532 9.83866724951713 32.299523404563416 4.132092834601569 4.9240942247465895 0.690966034742652 
9.362309602138138 8.405086557950831 36.71329939827042 4.1339529764943 2.5668788824439144 0.5055415119089611 
7.754212443325608 9.74839666350924 7.882006582939468 4.138567245234225 4.689340091321871 0.5081085881088137 
9.692273697956336 7.873000418059771 13.23250021796305 4.140170965874746 1.9436080106954492 0.5494706551175746 
8.359661981523393 9.42059187321469 13.601013272735976 4.155532869578736 4.018074388638919 0.5908435385952444 
9.355139569585445 8.474447277024286 26.1817742628026 4.168914829805343 2.649175033938203 0.6306279223774581 
8.314628912515623 9.47047533019591 15.62847309691037 4.1715352114241675 4.098944300800699 0.5232178134488783 
8.563616074847685 9.292064779804086 5.286874517193368 4.172507386889085 3.793488009085884 0.2851980720519978 
8.181872610288188 9.560101907685606 11.541402922083755 4.175511187942438 4.26306637970448 0.6800670728510471 
8.735829661742706 9.15922380922419 7.372650989505864 4.179169656144655 3.5819537081975366 0.4511001844814985 
9.02993988915976 8.890619743707703 30.262725120104804 4.187626802215576 3.190431090814485 0.45039572774468506 
8.81221641581865 9.119337883224677 9.562923838694928 4.199860711871345 3.5158274537990692 0.0 
