431

6.863704628335041 9.381090362254895 33.00856744485002 2.384987996104054 3.8827000502427538 0.6425235195709694 
8.046623322819613 4.851674520739145 31.720408232062624 2.389711853908616 12.344603554507424 0.8369095171211764 
5.9995095200266775 4.825966136496605 33.064883014029846 2.3931996239713786 10.245491358687124 0.8895280555879471 
4.651335283709377 7.4596015496082835 16.123644254649953 2.393211134428147 7.05601994405321 0.6779358143330674 
5.957211108604852 9.154368682034633 31.230060281865896 2.393473018471017 4.8386215953771305 0.6482135959991028 
8.088943218680942 4.8667270517631245 38.76894275408484 2.3951306447019673 12.417235842968303 0.8108871931399686 
8.833434065663681 8.54122892730507 23.578165205219065 2.3951757930260564 1.6742893051304613 0.5876718839328373 
9.355174319456307 6.544721791222933 14.30365706202845 2.398775588172792 14.613894659001778 0.7228791005593466 
6.894073835818787 9.39793271831401 21.33735585644594 2.4002711667265775 3.876297708887746 0.6593481790646415 
6.043670584482648 4.797066091762545 17.721404364844098 2.401558609538003 10.33347968177046 0.8324257700284091 
6.091139616159493 4.77319262768513 2.3829573622072893 2.4051399690476587 10.401943667201932 0.7863817221665282 
8.885120106624505 8.499158307705333 31.764022460196944 2.4085583754523987 1.6181737061371297 0.6949221177015699 
4.667826192490786 6.3898839229434135 10.619300617654972 2.410658892484572 8.190133083587805 0.8257396664523704 
7.084041572315503 4.5897968505154925 14.828784930267194 2.4116679306368667 11.448775971981586 0.745785715311735 
8.891280213784647 5.502617070144179 18.383046326326024 2.41228034972656 13.541353943675249 0.8715940458396437 
5.092970068214001 8.478458152279167 35.37904431737991 2.4130067693167443 5.989361605357621 0.7011691618051821 
4.644073907332203 7.537373402142666 34.759261311557964 2.4164349623863925 7.049550133620507 0.763275072398827 
9.305554027950967 7.724355324495022 7.56430000052589 2.4166650599380164 0.735664822375611 0.584293929845264 
8.02523539916943 4.811212677249374 1.2024396397790795 2.4170017724329376 12.44862582607244 0.8594849371066923 
8.128641739655349 4.860758046719891 37.66757708124379 2.418716252718774 12.572157790689946 0.8861819070572479 
5.901698625412667 9.1567732348141 33.62553570652189 2.420317478313724 4.9418126775757045 0.6504986392203002 
6.949025259371668 9.421631922946684 36.47014329629478 2.4221683662405806 3.8557116766962523 0.6788775012082612 
8.997118688489989 5.62652456668884 6.715876219140526 2.4238229765858006 13.769114966467573 0.699403598841075 
4.61789139886084 7.448279999738986 10.042835048054215 2.4239216872224163 7.164099010392501 0.6867354873098687 
4.628050089477062 7.519316086798128 18.421367068023244 2.4281341758718953 7.1048494965081055 0.7551746282203042 
7.034642889454462 4.571785130875423 26.651322804100772 2.428461978377968 11.478501530728156 0.7884029370305721 
8.900032678078974 8.514109309704128 17.851480855330315 2.4295372356686937 1.634687970625201 0.6786489343848771 
6.044694323264009 4.765813994872374 3.5421056751085587 2.4298551482572264 10.468618752536061 0.7848736385378148 
5.110126383269641 5.472248847245311 31.434352060841363 2.430153466749943 9.286654906571249 0.8170334248944405 
9.366453008662118 6.443250501241362 37.72917384126421 2.431063521706904 14.71308780902625 0.8170811263342748 
8.967492950524905 5.57189438974094 32.42379536722514 2.431154899305801 13.748958700400145 0.7793482804980234 
5.874625330368014 9.15559359432974 16.122965533666722 2.4316767653133327 4.989667164267345 0.6413535418259437 
5.134564806569138 8.560699880467734 31.82224624062981 2.4322073467906553 5.946516840400394 0.747438476960826 
8.042707586395698 9.197612727968089 35.8715862114812 2.432435161079223 2.7432473008987355 0.6843600979913858 
4.59070913444639 7.341099003182926 1.6918143758112478 2.433316873079307 7.3022643122030555 0.6963062431039173 
8.071393943340203 4.814721213655515 28.361745430216125 2.4337888889288033 12.578377638844858 0.9066735968312375 
9.364466981464853 7.582040203430179 37.17940195628186 2.435051314622865 0.5877300574238884 0.5157081497084095 
6.9721146458273555 9.435970588718517 20.167476547102694 2.436130189887019 3.8545503170196938 0.7300362642981265 
8.868575245889167 8.563393355498741 36.501053508817904 2.436344030215636 1.697420776935889 0.6779220228956339 
7.175596505612576 4.5687059742002205 3.010759056594196 2.437626873143847 11.662794743101644 0.7038032083769757 
8.93638891384323 8.481210392234793 15.431576083447453 2.437947138827931 1.5919569997327692 0.7611489415958735 
6.025007249377021 4.765433868762756 9.521409273843929 2.4380107995330826 10.48580354701888 0.8085680701166336 
4.614594255678631 6.491323658687822 22.4789556102877 2.4390391930537154 8.174905586095337 0.8725206236705667 
5.219810446817958 5.332594461527632 37.10337825649803 2.439121988541534 9.498645092544903 0.6389394598835226 
4.651311415519208 7.659492852874989 26.65549231667555 2.4395222667283805 6.996183260596892 0.8382290439391114 
5.940465097292686 9.19745384050991 30.156471993302034 2.4395527440960882 4.928077673700866 0.6694842375928026 
7.965852270215008 9.242893880177892 39.36874785453486 2.4420162910224255 2.842918749740349 0.6551411668741653 
9.374606578982533 7.570036945103002 32.526742125007644 2.4420684928415692 0.5753447148388933 0.5470819956419581 
9.383576466831835 7.531633803910495 28.913614278531725 2.442144810344974 0.5359249374806456 0.6595728487634938 
8.872965325216775 8.568300760023815 16.570281850077855 2.4428602873180556 1.7029073846775145 0.6440444541813586 
7.243837097036646 4.568148785283302 4.231853384487863 2.444045183790663 11.761535021695204 0.6370084911820587 
8.872261543194313 8.571115100950987 22.457639782117724 2.4441288727398502 1.7064013174206387 0.6198924140769956 
5.039166051352577 8.459685360732703 27.185938519024116 2.444494043049726 6.1153219995487635 0.6827392444098226 
4.601430732551464 7.472234264638654 31.144070218960984 2.444614434107641 7.2047610635068615 0.7119445672659692 
7.072502819796998 4.556247607686224 19.598551716047197 2.4448276859152704 11.593492497204446 0.7909228588696469 
8.95811881771576 5.535431984762537 10.340257650605519 2.4452379793282235 13.793586872678835 0.7734670725572821 
6.865626580994791 9.441810857012054 1.2289165451060384 2.445505362324343 3.975831967665547 0.6051997104689929 
4.591914183067026 7.430210132091968 8.87029466879926 2.4462130036994623 7.252545525938082 0.6715661189040079 
9.006076019102226 5.599040598548072 34.8631771409254 2.4468404604578518 13.882301426653354 0.7790375091045296 
8.955587502038359 8.471550827844096 18.86149898401333 2.447403586876768 1.5787950845077 0.7713454342012604 
7.709830908898196 9.342351111559438 8.791603004139382 2.447543390637024 3.1244139444134422 0.8156606592504314 
5.187529163735501 5.354170906270689 27.55915203445099 2.448224650246619 9.49627667193284 0.6586053863679833 
6.905103055749363 9.446431440065128 10.60171601479626 2.4482712719319415 3.940656243462648 0.6979364081074222 
8.777542953118772 8.683621472670241 3.517324986605786 2.4483137489746953 1.8564804589437518 0.7189530502761076 
9.421839546809341 6.6374372379539945 12.034997232494291 2.4488279945541507 15.02253948310305 0.7113515858888079 
6.878380789725046 9.446382870889574 34.11557400729609 2.4494040873832574 3.969184181978978 0.6384040397933872 
9.384756445871677 6.436439513873896 36.50030792446442 2.4504415372844974 14.827927667890979 0.8550017724949258 
4.601531651323224 7.503589052524214 21.80027763334691 2.450765666771619 7.192105445956425 0.6982451686861718 
4.948415297955659 8.340962348267045 36.54563541560984 2.4509548770085967 6.2810006135515195 0.7121676234278433 
8.025539461909382 9.226414838428203 17.240653158947435 2.451255641647089 2.792330524599901 0.6755492514501916 
8.891767003376788 5.440373444316336 39.53238790996552 2.4517784133683227 13.714575269971437 0.8246356237835443 
8.91156610319987 5.463992268970742 19.534402159785742 2.4522244425591193 13.747889701928578 0.8376144852306565 
6.05061920101681 4.738585798214748 30.704265362076512 2.4526145423841044 10.58282647964094 0.6808337087760329 
5.868653591933709 9.176282177437056 2.933177563826554 2.4527838899655787 5.0286969220931805 0.6863895347172332 
4.585360401711814 7.431055904213043 25.38890908019414 2.4528134014185135 7.27243443020307 0.7490262779334449 
5.148930339787185 5.390687866990312 24.127591624946888 2.452823766276855 9.46112932356472 0.7537470572317917 
6.026048817103884 4.748658209026383 22.41003658927989 2.4529820151091686 10.557857721025478 0.7518017793264828 
6.962794079861926 9.452759140135806 31.81688837674018 2.4530413123331307 3.890435629685941 0.664841472657872 
7.024352869663629 9.453147300639207 38.70960718882421 2.453268175494534 3.82923136907511 0.6877812860886934 
5.882639435628366 4.815882939483782 14.075195530967953 2.453336904065749 10.400962853987242 0.8732813818452911 
9.0007006419533 5.580080937021227 32.49064748269396 2.4533595749752766 13.900665790195177 0.8109959238250553 
8.145359754505975 4.830314849879477 5.916214325908868 2.4534430129708533 12.75324340793453 0.8384858689125679 
5.1020078833743305 8.55478021685225 17.750035776492837 2.453510871687411 6.024033756233461 0.761540710342293 
5.079454157904458 5.473149496680868 30.00783207435228 2.453521711963513 9.355971784376912 0.8131584933702339 
4.630626760869994 6.362389476471973 31.83306301313766 2.453665976863824 8.353432810944067 0.7376740234265488 
8.13482423844339 4.824235945252102 25.980366154124994 2.4539305764612904 12.74362289039686 0.8278372949413682 
4.896012753787597 8.264229940810605 9.437149093101908 2.454595623614294 6.383252515222946 0.8202779341754718 
6.953585357386075 9.454487444722353 20.22152530643865 2.4549262586376477 3.9026065579449742 0.7136751441462544 
4.6460599099249915 6.301917900778253 5.998829790267294 2.455270364932585 8.421306234521861 0.7274569330304615 
7.072312495289452 9.454433971075506 22.473008908265314 2.455498974820488 3.7847658184882125 0.7786671150611469 
7.137967356067737 4.548229236729476 11.319238104619672 2.4556495814689128 11.71001607145028 0.7008595126909264 
9.3467295014217 7.724653591558958 10.144110507342248 2.4560664039480344 0.7356019518882846 0.6442935354416803 
9.418538532681731 6.5717844428842085 20.120088990521793 2.456154962013247 15.002061667279614 0.7498412872680841 
5.8283640086246855 9.158743583226338 35.94214905388192 2.45619721407034 5.079534670103703 0.7053647121449923 
7.007457338109035 9.456284788596017 30.817193006421164 2.456296108896456 3.850883555809915 0.7477012188851319 
6.9966474676906785 4.543567378041072 39.41665853355656 2.4564349097211795 11.572324266252249 0.8151941503702869 
7.0789801385499445 4.544425053164641 35.87495332828398 2.4568447614391205 11.656601928586614 0.7932200479359887 
5.086346305808496 5.458212914893776 1.7079569101447447 2.4574738812636716 9.387023610815955 0.8041091596271754 
7.115571646263268 4.545232428805585 6.55155797233094 2.4574866498127164 11.696247297788897 0.7367144427990895 
4.567937911915816 7.361543472699889 38.19286542521894 2.458788255004543 7.36165197351913 0.8040510542711259 
8.75199030878744 8.725263760824262 9.422631663529785 2.4588625594974998 1.9122874289040261 0.8096729055777133 
7.973854631312939 9.258101441826067 25.386310063947384 2.4591492359160756 2.8615293468490357 0.644101474168973 
4.570814502589947 7.3860849865898 33.71161751412391 2.45967554724142 7.339610391930108 0.7382642142709431 
9.44474009548727 6.728344263925534 9.497554796758315 2.4597867739755914 15.183085110035503 0.614289035026476 
8.868260920954206 5.399846377394326 37.04982984530389 2.459855785346517 13.713532181109464 0.8741828254368635 
8.929023308658092 5.473126337713159 20.72018841028344 2.4601776573921326 13.810532865341955 0.8171584592634582 
8.86467162735094 5.393915855869414 37.08041500534718 2.460997065393473 13.713055639445153 0.8837121614246525 
7.255766388916529 4.552164861392443 8.979675366574469 2.4611609682223725 11.854176827918431 0.7287789855123115 
6.184043192592426 4.677926896738667 34.235682071402 2.461261670047393 10.766727727574123 0.7211287596480854 
7.9615002324998585 9.26574400509374 12.419331956770208 2.4613164351044943 2.878422155010183 0.6992718469576168 
4.61847021249041 6.378309578594976 15.436636142284073 2.4613376665671516 8.361018483932654 0.7137151316299692 
4.952164493786489 8.365519853797235 3.546952064578903 2.461356278888362 6.285048464235336 0.7647803810488701 
5.2286680154186165 5.290714828278221 6.531547185550615 2.4615590177505373 9.622643612762559 0.7040247026628255 
9.41971643281421 6.547472791498894 33.0785004302577 2.461667826833046 15.011999625055445 0.7851730209339206 
4.580726187412791 7.455997827922648 39.5025599966307 2.461873229746087 7.27555654044253 0.7522085082442806 
4.5826347778939365 7.4665047724440115 35.77720115746643 2.4619669615494297 7.265154859343065 0.7518925491117949 
9.444856085001172 6.710089196958609 10.664571956384798 2.4619848801500273 15.178522212534439 0.5961385529942963 
5.11714609881308 5.41245757210476 14.626824905523492 2.4628093254619454 9.462361849270147 0.7499535603490212 
5.2412267620719355 5.274844607961798 10.078344311514947 2.463624246741057 9.650858017783717 0.7869605517893409 
8.92870461641774 5.466591729869052 1.6141836052146203 2.4639891274713612 13.826607480467958 0.8080939597491172 
8.019620666656923 9.243218102932858 28.946189872873816 2.4640725965765693 2.819336849949144 0.61349498655713 
8.189781240729012 4.842094275899248 17.73275674695992 2.464170553126846 12.85379161630449 0.7972845818121101 
8.090406215594562 4.789734919224815 19.98128162587362 2.464600868761796 12.743692586922258 0.8652633423226768 
8.75332303167307 8.732156059387187 1.229501504825464 2.4646513480545233 1.9207652405389926 0.8376963574395899 
7.014538649618991 9.464644249696303 27.289648375849254 2.464687130224402 3.856982756921287 0.6973071508954628 
8.836953052534925 8.643352873378443 13.094175453734355 2.4647525603310707 1.7988456526382075 0.7480438840979491 
4.574385838772393 7.437667223738639 32.49068125045585 2.4647832882188654 7.303344611390381 0.7304332996394867 
6.7954774622873355 9.456746559574693 3.4152495694119835 2.465245043888037 4.077155739948267 0.7856940062105346 
4.604238919192996 6.417560572217845 34.245949732246046 2.4655439244403565 8.333732053620169 0.7632765455533196 
8.849512696307194 8.630843193247728 34.26681751276763 2.465835909942902 1.7819387962681112 0.7277914820243424 
4.588084920651584 7.515102836903424 29.063086437297144 2.466305999379282 7.229205626382029 0.6840115227290299 
5.873510820123942 9.194201331264704 18.387155153988786 2.466474681504277 5.044190842428543 0.6767646265286565 
6.725849927940477 9.451264656225518 3.5213350195522892 2.466547521713429 4.149161482451486 0.7925334582368266 
8.007508276793597 9.251472619028267 20.675717018983505 2.466617498121995 2.8366911866367097 0.6122703222530207 
5.23213163529755 5.279685423658789 8.955734834676448 2.4667470069887094 9.653266196585395 0.7739492709408596 
7.821605742084246 9.325973881639388 5.213402615472095 2.466817888190046 3.037260015302273 0.8310009783865512 
9.441579066989782 6.6461657748213305 5.972282241482773 2.467084716678874 15.146091796211625 0.642920183804924 
5.98365265855897 4.751986242495562 21.30318184843469 2.46708892672791 10.578340873783969 0.7022272170061075 
5.203600744682962 5.308874212593333 8.821020542503696 2.4671758578049188 9.61412605549845 0.676002641935624 
4.59986836988743 7.571249858994872 37.15528898964922 2.4671761678624575 7.174381259630859 0.756746130437737 
8.871449760338265 8.608159270649725 28.45520430189535 2.467488692020045 1.7516094981562471 0.5999332760578187 
4.566758558159814 7.411779793485337 17.324660678407525 2.4678384291949382 7.3392281630279115 0.7670873407764897 
5.152947423337604 5.3633129643383235 35.9521553215717 2.46786297708325 9.54243412934138 0.7272648906194704 
6.0161901112766785 4.736230761723494 10.593291233120894 2.4683057066167455 10.61969827250871 0.6412920908069806 
4.612059127737226 6.375201371175439 25.946335826715398 2.46832634309245 8.386146703111987 0.7409317353015701 
5.142674741598345 8.625746632299057 16.613403585517354 2.4683413920948016 5.97976355601034 0.8597221620409055 
8.129115301626456 4.805042271847544 3.497570791430185 2.4683477860186542 12.804555565543746 0.8406735359266502 
6.979247270122649 9.468416404318964 0.09729768341003364 2.468503640043565 3.89826942480488 0.6981913519182817 
9.433373861826356 6.5849186072731225 24.84643178636056 2.4685220100310596 15.093118491047097 0.7492082880601292 
5.105677663078822 8.58325202556433 34.20859272015885 2.468834561612436 6.037306363922935 0.7762407974758659 
9.40544352166079 7.556111459685026 34.76416253559995 2.468890133540345 0.5609247047541519 0.5376111581975204 
9.389581032185838 7.621688374057433 31.284180520384083 2.4691281748464355 0.628451861544411 0.48370097576667725 
9.41700431355181 6.49514515291475 17.809377439812707 2.4691675253723684 15.005796793327953 0.8527257824879863 
6.076857605706035 4.709613967005481 8.169594423159573 2.4694250464995218 10.690771213987155 0.666790429543615 
8.160332918521913 4.820092365904806 21.345600557683987 2.4694877555865906 12.845114781109523 0.7744669684442252 
5.717053600034088 9.110117467956767 9.876326149815597 2.4695236775058005 5.228168537402777 0.8337346735248121 
6.028294656468335 9.270374115603483 14.974332175509943 2.469576866479416 4.877907617411044 0.8329260408901699 
4.548036351341144 7.295110552130806 5.379908342636298 2.469659080181593 7.462845409438447 0.8628982470962078 
4.9890867577612035 8.4343829862369 14.302977014983192 2.470066116325075 6.229498460262851 0.7116213453148115 
8.008864508033827 9.254740998527874 32.44860649389855 2.4701547655992755 2.8408562172426137 0.6239785966104338 
8.116308423027935 9.203556280732583 32.44809945332736 2.4701831465863258 2.7218637635953264 0.8544975232445363 
4.626966612589236 6.3133843188653085 12.90524065331185 2.4703701243632032 8.45667482455801 0.7404673807795823 
7.059045318684664 4.530303170289654 31.312695774983325 2.470402554309702 11.700548715899966 0.7748813036932942 
8.951195145025153 5.4843356881637355 35.89388401322951 2.4707085623650222 13.892199679177185 0.8776368621951425 
8.14479558068255 4.810436141308619 34.183579969056474 2.4707785843409322 12.833576370746794 0.7872400210877254 
9.394547670159893 7.609247251471109 19.60292698654503 2.4708380679626245 0.6155961723551595 0.48277845946104503 
6.082292014173843 4.7057504785054896 31.93824947430584 2.470985393345516 10.704011046007544 0.6409630284619517 
9.0411465225751 5.6073323143505664 21.95102603266882 2.4709921912609465 14.046206296710881 0.8786302732530555 
8.135362530601407 4.804926526807659 23.633045808061723 2.471314554767628 12.825448034924392 0.8117184425383983 
5.886362256033504 9.206321296225488 25.433333051788154 2.4714454651003104 5.037388260992126 0.7122136251179093 
9.113529030421883 5.718721384311468 5.281288069083679 2.471574367373311 14.182387093271627 0.8471737542268798 
4.547772034036221 7.308992835795706 7.761552505109478 2.47161861330342 7.455015448339328 0.8514321897303326 
8.938901580817454 5.466954137631813 0.5641513670087264 2.4717542265000034 13.876810657741665 0.843981591644033 
6.986164623710426 9.471827924511608 15.416174450706478 2.4718666440632378 3.8966344933509376 0.6832371765426268 
8.055082545844225 9.235633530911914 2.9628972936519915 2.472095561074207 2.7930934416511555 0.7263315610655643 
8.903805187175928 5.422773530413025 14.79657449747473 2.472269711638229 13.82327578381621 0.8099800198423325 
8.084914563369123 4.77838917335594 18.914077738181142 2.4723661288070815 12.773899726245581 0.8509673353387949 
4.573560846614946 7.475386371239985 32.50547615227872 2.4725693452440733 7.289440685074911 0.712596154764282 
5.9324637883082385 9.230282752706044 27.66444890632833 2.472608889471047 4.987802702360037 0.7044405997618105 
4.991973122723243 5.557203912866589 25.36896008055966 2.472616526862449 9.3085026078863 0.8416231240766745 
5.094368055288339 5.424208472934692 13.55294073880961 2.47276202766792 9.476934166903797 0.812041589106108 
7.08949014861107 4.528631827311335 12.49918228844379 2.4729878955783313 11.743190599146171 0.7363841832895962 
4.9032219557828824 8.311339567750421 8.255185400672126 2.4730729121194184 6.387207268421228 0.8131710632314116 
9.441322727034837 6.604925783365019 4.5984217474907325 2.473083155534111 15.14206555438287 0.7127843434716971 
9.120749356306753 5.727514799792061 9.124030029498591 2.4732158047820563 14.203068641702586 0.8752990289459932 
8.684836917264372 8.810589445039364 4.693027853390941 2.473238681620691 2.0314167512326797 0.9451677041337939 
9.413378094352806 7.541223884055155 26.5198050158979 2.4733210707414734 0.545639051740622 0.6422834518526405 
9.081073129647686 5.66338666653952 33.57086286629001 2.4733379417552195 14.128355675863546 0.7954040364645663 
9.416975302175997 6.473910078077466 34.201184408868 2.473568316678807 15.011748945741289 0.8146793672874226 
8.923780457108725 5.4450579636250325 17.137797888142806 2.4736159733554803 13.86070790196429 0.827376168476214 
5.060696837841718 8.535601820467422 29.579547469828654 2.47365513072861 6.114509959898289 0.7204691905431023 
7.913208451507325 9.298922464647022 11.133219079151345 2.473660076559253 2.950278341556338 0.892028199329343 
5.0067165960673385 8.46508498286657 23.615322356028074 2.4737931876805117 6.203664273703204 0.7022880180523295 
9.395735404918444 7.617328108770591 39.40837229952887 2.4739931536400857 0.6239207411074172 0.526567185422961 
5.924200456712713 9.227888814801814 32.490236599475224 2.4740317759592685 4.999160058425801 0.721895718275704 
5.796680350751895 9.16174829540009 34.69192625746141 2.4740925348361085 5.142956938492162 0.7785806264136419 
5.170946426638398 5.333812872492816 7.758941487154026 2.4741900731547446 9.600916103276623 0.6623682212992256 
9.429581800025558 6.531251372303039 22.45338311272041 2.474387398727858 15.075435938517327 0.7315694586422725 
7.8910251245667595 9.308445782981044 7.687767593849337 2.474438866808426 2.9753396336651257 0.8233715880815887 
9.074705895429517 5.6510533621843795 11.337981981369687 2.474684138269783 14.122227248111393 0.8379885864065761 
9.441895692875452 6.596157564739174 3.585254231345523 2.4750642996498238 15.145631501776887 0.6765017267961936 
5.965961291430627 9.24920806251759 17.2631734484888 2.475514685739907 4.955277290551788 0.7636894700641862 
8.054804326104364 9.239584062283269 18.290929174931215 2.4755502294240976 2.7989343752719122 0.6541721897597098 
8.678147823085677 8.820380966274525 5.933399373058371 2.4758770119902493 2.0451509583692005 0.9449650451426691 
5.193639925633056 5.306578711963899 5.274021125176461 2.476007345918182 9.643384475897474 0.7701503692703378 
5.042958834049937 8.517484734860451 21.292705092946726 2.476443022917683 6.146616579635911 0.7617791389444324 
5.94038000856386 9.238485592870477 19.593878570146884 2.4766130654060223 4.9851980523536845 0.6796375751991722 
8.988662984281923 5.523552380138959 26.629194430380878 2.476828221586314 13.98056872549206 0.8753161167197425 
7.225937589069069 4.533488354324998 20.7563395307959 2.476838204728914 11.898077172625385 0.8476334866805835 
4.619879897362491 6.314119015134396 28.3355390909069 2.4769748542081316 8.476608980275506 0.7494221504059283 
7.0541253625424325 9.476502843634421 28.340667087239865 2.4770942431404848 3.8368808678683806 0.7199670884744122 
8.138433996655255 4.799995506528084 13.235568567844524 2.477105515725376 12.855964290612114 0.8373037504295902 
9.376736187590232 6.30190282473202 16.616224941482294 2.4771383836027594 14.856635056214248 0.8792657522754972 
9.00500630634494 5.545233215928889 21.852092301175574 2.477175142076067 14.009677496967353 0.8720678275446995 
7.620135997492781 9.398384459367094 6.430637578911977 2.4772599117411875 3.264468120484203 0.8960402105593708 
9.390021738011782 7.652199810449744 24.30794293301038 2.4774116535044257 0.6599783911848398 0.5354197773364323 
5.67024684166295 9.090372742407967 4.137841907976792 2.4774788928080826 5.295266051816764 0.8321942236918297 
8.893587160234686 8.597574745682984 29.544489437222964 2.4774820688452492 1.7362476703015073 0.6785433325944152 
8.051640470500596 9.243496098763792 16.019749556749467 2.4777454317106664 2.805945498200188 0.6742551470429513 
5.0217752138147596 8.492139007847285 2.3786213446853495 2.477872499427105 6.183175996889457 0.6620861743211446 
8.185034018648548 9.176230979607729 34.786752972884855 2.4779602301002996 2.656766232891945 0.880548446631809 
8.91831271739437 8.568679629594998 30.72974413790518 2.4780394391581577 1.698607715864103 0.7094517552941285 
8.976281852609597 5.504879713452848 31.189505361728003 2.4781191723157416 13.96548239026394 0.8555195304660943 
4.569502866269017 6.516430564536332 17.78162308956204 2.478135532207464 8.271984472371077 0.830288492216549 
5.986317298340827 4.738521317269113 36.48638124649706 2.4782732803484917 10.634272026228178 0.6934151159429963 
8.83145081205231 8.67000091142458 7.160056042087284 2.478530839252559 1.8324308437461774 0.7943063230329795 
8.965501613825442 5.4899781368368 7.923243981382605 2.478580767532355 13.949695624354096 0.8413181155773504 
8.914317708549145 8.574486367608932 27.279697050794177 2.47863260913174 1.7060384348731361 0.7260640575231716 
9.392843675242549 7.647719662685711 3.997771585179173 2.478959784986023 0.6553257962628773 0.5615306765815904 
9.404818101403954 7.602072277536465 28.78420148675751 2.479040364378537 0.6081538375938962 0.5199518735085562 
7.238783809444925 4.532485926278252 5.336742441130561 2.4790408249296605 11.921359254045376 0.8521105752758411 
6.041331595642092 4.713798379795416 25.952040993490044 2.479064936168514 10.697989094613328 0.6335440165089254 
9.446976178176168 6.601033100189547 2.4270106742109334 2.47928760003877 15.177114250742461 0.7183386785922047 
7.231825795061571 4.531460240081142 25.382600611210197 2.4794014893833123 11.916069172367278 0.840785471146604 
9.40880801396563 7.587557384085983 17.205682322706142 2.479431331523221 0.5932003274792947 0.5202595141110727 
5.107021310070264 8.601407649953607 17.752391079459215 2.47949083117039 6.048572817807349 0.7921602968045616 
9.41679805783414 7.554966447477412 23.00570090330332 2.4796976852383765 0.5597069792617386 0.7188964179034039 
5.021892351043119 8.495673359809208 24.70628835928957 2.4799090044000995 6.185365592746924 0.6431135734113458 
9.383159148864014 7.686072741988912 0.6555782001008552 2.479948252709003 0.6951399583195741 0.6705878143759385 
9.405614902757396 7.602740318387813 27.7761233599498 2.479975594996596 0.6088377912907621 0.5206615624023585 
9.410914026218038 7.581762893892751 19.510494642839966 2.4801117931507304 0.5872346115992357 0.5970890895827562 
7.0136422228266575 9.480083882858047 33.02559237032777 2.4801214035316677 3.882123299050127 0.6144200338645288 
5.08014242650861 8.570200104169768 15.532408339763101 2.480197869047345 6.091485068772512 0.7415478265672406 
7.983613502126428 9.276998611608684 23.119432191223932 2.480366545257637 2.8847408414384983 0.761406635099382 
8.145022163371582 4.799655143241251 29.561718560437477 2.4804421467304603 12.878975880681958 0.841091963432938 
7.015897140365418 9.480472974374026 23.790646547200392 2.480523915561332 3.8805006059006413 0.6142046280887336 
4.644653183563346 6.221837767390536 7.065725805476902 2.480563461384938 8.58444605948552 0.8281299397033456 
8.026102077375445 9.258541251798587 26.67207740021724 2.4807043474122694 2.838806685979149 0.6826918760993931 
7.128057731828497 4.522521028459314 30.131148802781823 2.4807863344325645 11.818544855749707 0.7447170498193271 
9.025034480488296 5.566787294496491 27.735343523385538 2.480899696961406 14.059950030418172 0.8555079895243713 
8.803092732513228 8.704055992548938 39.909950683629404 2.4809172150202747 1.8784689707821034 0.8316783221371068 
4.679334206786532 6.122646252602513 4.705506447133217 2.480975477884357 8.69096733080076 0.9187573576566032 
6.11696172832923 9.318524281374884 38.30049132937574 2.4809900105724374 4.799962773852002 0.8686472130647283 
6.199896592320851 4.651487339793643 24.770811864134203 2.4810637190788403 10.87707375574347 0.8366752482419795 
6.024918994893152 4.718505713253678 38.84547214107505 2.481128603473888 10.68993826751741 0.655791951411502 
7.856859419625181 9.328867045344708 37.028608103429605 2.4814974873839772 3.0230560567907485 0.8503103908853902 
9.435634883665644 6.525100801642739 29.552652788995402 2.4815008634149858 15.11388288239978 0.7521986671091325 
8.15247870084276 4.802353706649495 10.756417158004787 2.4815028483911585 12.892343518599684 0.8312429473977063 
7.067804538305346 4.51923322457449 34.782519125827925 2.4816932222718187 11.762516770319467 0.7623810708029164 
6.879743952828967 4.521201574711927 0.5400220618227571 2.481713752649938 11.574497381947937 0.8388125568237064 
6.993465171335194 4.51812076434917 37.13647350118829 2.481887838791355 11.689086065855623 0.8223409527515497 
9.408868825855194 7.59774394440735 2.8994951571276992 2.481924020443139 0.6036787246640447 0.4924265292220959 
8.77934508637064 8.73028718396148 8.244054718495327 2.481927209926328 1.9146107673861668 0.8162527632977542 
5.024848443195591 8.502968892628182 13.238457308146828 2.4819627645383497 6.182885876867449 0.6641750389010823 
8.171593240133063 4.811791066661879 27.223612947241193 2.4821138282250965 12.916829069571206 0.8383825475668216 
6.255164616681856 4.632176744590138 5.954451558784825 2.482210046934475 10.940647411023228 0.8648340361067284 
8.817943490592054 8.690139080138069 24.795004901721583 2.4822346072029444 1.8591511600328605 0.763646224510274 
8.235238573113222 4.846909510292873 30.703710178746647 2.4822596538988537 12.99028388568701 0.8393550920426844 
4.551126610676544 7.408765215099981 6.503723518719731 2.482754494107763 7.389168439097951 0.8240507481211407 
5.100909511164128 5.4007730047542495 34.7086725541157 2.4827548544126596 9.537461399810745 0.7352465810194744 
4.972331237969502 5.566737041091766 0.6170607384052644 2.4830794022529084 9.328688195433145 0.792138546991602 
5.13375576697938 8.637963307723645 33.05048836714782 2.483101152738586 6.012202152114822 0.810383837373052 
4.610123581491486 6.32577366162039 2.344813872051084 2.483161382413128 8.483879732642082 0.7716203962907973 
5.1722683903530005 5.318965826848993 20.695706445954237 2.4832395631924653 9.647898018058017 0.7133506025212347 
4.9814297846954965 8.446382963638001 37.73843033135839 2.48327392601314 6.25748562142395 0.7596843427417386 
8.082658666321471 9.234925246999852 33.64528918088579 2.483352702988107 2.780571181909961 0.7451742566321853 
7.23970984642801 4.528196392488356 24.380171365461322 2.4833996626765726 11.942828851582489 0.8866955424759138 
8.875934270813527 8.62745530180341 10.761088355382384 2.4834935368912667 1.7746831970902903 0.6420053078377574 
5.951225160076056 4.748675218367492 7.062105649838728 2.4836247577382067 10.621058366190077 0.7028487019652396 
8.785851417183089 8.726109401506823 2.3836799059574716 2.483690590678535 1.9084400068948035 0.8186137506010749 
7.048255948537879 4.516770437503041 18.48151022227708 2.4836983908333408 11.752411912628805 0.7641251104574517 
8.154330606902814 4.800582323934211 11.875580154643508 2.483931815453726 12.905780308109042 0.8375872696023232 
8.25807658452301 4.858025869252884 9.599139075247713 2.48411148488045 13.025316708164741 0.8400983477963427 
8.182804443818153 4.815470753912786 36.520334768056834 2.4841888775466217 12.939248152339855 0.8483600018807509 
7.935594510667499 9.30127326778579 24.30225546030438 2.4841891516985264 2.942899046292492 0.7920805321094476 
4.578221115708018 7.5535448841426724 27.794598581467064 2.484235275323785 7.2462243395095545 0.6788025370192415 
4.568022224377845 7.507812492594471 11.243582958398306 2.4844293970155586 7.29364852516936 0.7233493355631103 
5.878245649298887 9.216866071597227 39.336274029513255 2.4845176599726146 5.066526878648791 0.7244255619452196 
9.0537201533027 5.601395536194758 28.89669977318622 2.4847255209092234 14.12645512869539 0.8622641724157676 
7.980619184772051 9.283209262179529 19.532470326765825 2.484886017596259 2.89520883141409 0.7343313210225387 
4.536986657565803 7.329158930713955 4.108341428527737 2.4849105268958125 7.476447448239618 0.8919497423765188 
6.798429970810524 9.476834740085657 5.804222034790413 2.485023300969757 4.105257196731323 0.7257226556972838 
8.108234504413325 4.77571958186005 35.50075040239904 2.485076879151442 12.859355484328317 0.7954083467354881 
4.534891693209186 7.314819189033525 4.17906302775549 2.485129792584845 7.49159812805879 0.9049321362276396 
5.6944627197395405 9.114600611093147 8.857313292874323 2.4851485538263907 5.278221749126409 0.8353307062620139 
4.614623305050255 6.302417000021174 8.312404231916183 2.485285500434271 8.5148382605061 0.85186219023577 
9.460090889078167 6.646519671037479 8.387182267685898 2.485356217021788 15.261270656164214 0.8086070702073487 
9.440651234884749 7.469409927536963 11.324341722485869 2.4853820894210035 0.4722464385940146 0.8920538926702569 
4.931148357744236 8.37737957970893 10.638690987079737 2.4854218201873732 6.348291757495904 0.8175194423385387 
6.0068200580101765 4.721619188071731 35.436268826675494 2.485442721394687 10.69065921411792 0.6724289561042022 
8.204993203512252 4.826067513617353 22.390134766704023 2.4855564921885316 12.970929634966662 0.8676391729794849 
4.57577901251771 6.451153273087273 0.13442570652949826 2.4855744056037463 8.36206995802301 0.7965580021264206 
4.560193146708118 7.475159915913107 20.757775063728815 2.48564567608913 7.330783688111195 0.796712050500627 
5.134785748211087 5.356893274277368 16.102894498370595 2.485724022732898 9.604256991708251 0.7196858475555881 
7.182322178597145 4.520913448196117 10.167162974685638 2.4857818705878594 11.896457141393551 0.8348123959134984 
9.44066210831836 6.528227123738871 1.1963511985800466 2.4858401343925416 15.144342368817535 0.7560961372876636 
8.293741797950617 4.877184079560417 15.419112796458634 2.485983763389505 13.07559139102635 0.8996808449570644 
9.004174817495482 8.47148839861146 37.685781553359774 2.4863617609533724 1.5746619410741793 0.8851839874403465 
5.094962552714964 5.402176452204804 21.772708089378654 2.486404586033238 9.546577626618094 0.7104538354494149 
4.605649822288083 6.3294428091398025 11.748897883247864 2.4864753607714305 8.490456128106683 0.7837744392160372 
6.7864001643983 9.477286730639774 12.034564298088881 2.48647831994831 4.119614436853686 0.7235234585034837 
9.019058735762027 8.45125683165957 20.166179145968 2.486512531618435 1.5496403371228826 0.835590679928048 
5.954969992017528 4.743542407898778 0.00032477471001968183 2.4867023510133035 10.639781526605585 0.7004569380930531 
8.10057721162367 9.229894168281408 0.6346893043220128 2.4867042848880874 2.7660043224841484 0.7655488324731672 
4.620623044830744 6.2773001583989725 35.39511441857643 2.486710629695516 8.545512538979901 0.8149461317097764 
5.181407629500022 5.303915814635401 33.63481791892758 2.486760900023286 9.678843320524935 0.6992706013348501 
5.092845370875043 8.595945062510712 26.043180276037766 2.486821147960799 6.079780891313716 0.723809713598679 
9.404580424589293 7.6351324375356775 30.221653512674315 2.4870464876089526 0.6422468443061842 0.4954627462190177 
5.935723583420701 9.24786534294654 20.647577026566687 2.4870832094859696 5.006469082743346 0.6993612798518645 
6.8663417108636775 9.483554252850254 16.742352803737113 2.4871482193680063 4.040525992960289 0.7058386587782063 
6.138871276874189 4.666547881334573 23.7238741553098 2.4872759131018127 10.841679806764096 0.8239207322079053 
4.538588042767266 7.3587407496965405 3.0888094634020504 2.487417083784124 7.454455063406982 0.8920182473745412 
7.838731247147402 9.341940898307627 13.860210512708882 2.4876007067267385 3.05201905147824 0.8722385229352397 
7.108518257961757 4.514493261012195 38.33426920506415 2.4878745872460786 11.832385488206667 0.8338506224827239 
8.910673631914944 8.593454794482525 25.96420858268216 2.487925221897633 1.729399309185716 0.6345621334653311 
4.67060317698671 6.125896677120357 3.674506705071842 2.488000437727782 8.709448098075937 0.9226309181541017 
9.460885859509341 6.6335865536708365 27.134916355504934 2.4880148768011474 15.264907459580906 0.8339506501876848 
9.457761564177185 6.611081294380696 18.86075512040027 2.4883427549128494 15.244198815482902 0.8021404748477711 
4.588632184488869 6.385607254089894 1.172867976862058 2.4884077615836757 8.438376301810171 0.7970798104387448 
9.058045528372709 5.600995939939969 24.204243653957462 2.488526422789067 14.150168854811389 0.833704028116087 
5.03782715076715 5.469383336324334 19.582298686006368 2.4885557380513257 9.466609251390912 0.7896285473670563 
8.225452979459462 4.834023568284449 7.371168895325809 2.488611843500972 13.008626061902218 0.8487683535650316 
4.5782551267851535 6.4268578537521694 34.264378181043426 2.4886422303633706 8.396633715496408 0.7519020320185589 
7.145839741980277 4.5156330139190946 21.775965488459327 2.488643918255401 11.873381521668199 0.8566401235108592 
5.154270893844661 8.669682400936253 30.63176960901488 2.48888634800893 5.988836078664287 0.8193229494235772 
5.964605074409242 9.26351713942146 30.115667546591503 2.4890866783609207 4.977699801266551 0.7008818557871641 
6.9119838621030425 9.48780851541431 4.654947132694673 2.489364989289085 3.998319867724529 0.6829140879727242 
7.2541948490654065 4.523645111390042 32.574653669054825 2.489367099411781 11.985504766579664 0.91336829260725 
4.603263252217424 7.672915738986935 14.922834804779974 2.489410096779504 7.139320155546757 0.7784852494852412 
8.95088830524227 5.453574203080276 16.05556611567313 2.48945735551141 13.9731377063257 0.7586862319851428 
8.25298550519391 4.848845618975769 16.554003820869482 2.489465373775217 13.044350326940657 0.8679230805971504 
5.755946149150091 9.156380173038011 11.331993699856504 2.4895070665667793 5.213203559569408 0.8631121200634871 
9.435196114125805 6.482829077626857 35.47031127990913 2.4895071554831305 15.121069866742774 0.7730439324612747 
4.923215908023035 8.372970838481118 4.730622524786892 2.489594562977701 6.367015681598881 0.7976967131348663 
8.245105504493534 4.844042300799952 14.239068748818838 2.4896669090583314 13.036179599989483 0.8456510054075421 
6.7752427227802325 9.479530603744198 9.402001995792617 2.4896963366176417 4.135869541870223 0.8049109835372589 
9.450263181795691 6.5584947026585905 21.36324301216353 2.489722190856657 15.19953326642512 0.8548624474335593 
8.919670651173103 8.585615603739686 21.453939988232065 2.4898418126053956 1.7189488193308833 0.6948186566792247 
5.660756424347264 9.09929049673459 5.265847851303889 2.49009918368873 5.325461222397896 0.8747185658125798 
4.595940222439721 6.350738368937195 20.213682306824843 2.49018956701162 8.480013478586821 0.8020784429784582 
8.16996365793494 4.801735507526878 24.78006681898394 2.490217207344897 12.952815757514434 0.7946481391613107 
9.441915199390479 7.488331264351384 20.75070758886922 2.4902644969475176 0.49151638446826595 0.8455033668384686 
7.065446478057492 4.510540826981861 28.806785865694685 2.4903192999320956 11.800807240551814 0.7261481190089092 
5.952765223026358 4.740541495395593 20.27396756197046 2.4903520658999634 10.654657953160843 0.6859903224700622 
8.84025310075959 8.677897536374712 11.788837355927988 2.4903557210622758 1.8410773886371814 0.7320923637189101 
7.041065700705651 9.490099541782222 2.226162867381129 2.490438138111139 3.8709035175704827 0.6528464918096352 
5.776076620734534 9.169079781322928 24.274856172491425 2.4905612893595923 5.191627815127221 0.8070709127962696 
5.908653013357654 4.761028741274469 15.412795933938249 2.49078914054408 10.607887264281555 0.7019955520121308 
5.794847626541644 9.179895876828503 0.544057330138564 2.490850914259265 5.170567929116853 0.7752746205056341 
8.98824019881106 5.499444187033134 3.988539961621129 2.4909369393858407 14.040597153809731 0.8171156653653057 
9.457761035888097 6.594509323244186 15.437530726232914 2.490986149794019 15.244024396117151 0.7866373402862266 
6.907542803478274 4.510341086792559 17.213255122285336 2.4913750896446536 11.647850086450294 0.7782464125116241 
4.966027169051023 8.43933036587812 38.86536456292977 2.491729796582573 6.293497333277321 0.7683388632427204 
5.986266133987502 4.72373952587113 0.05080903723101926 2.4917901390731196 10.698272355564798 0.6938391719008781 
4.598221466615552 6.3362453308394535 38.77189765322365 2.4918086572324887 8.500113702790621 0.7917609276344117 
4.579281210168247 6.408951919237161 14.193502916541107 2.491830109220519 8.425050622898308 0.8003917169734039 
5.789445701662573 9.178314856477712 1.8790273649264009 2.492086941335462 5.178626210373206 0.7739723954172623 
5.992823484864289 9.279526571860812 21.83892413249982 2.4921167557842114 4.951437806851633 0.7334992867415157 
4.624609064718545 6.245859717668482 24.653088264265755 2.49222985714648 8.595721846345967 0.8668592571971406 
9.42465897639427 7.5765422988266575 13.63746067159876 2.4922624609269457 0.5818124958442823 0.5890856279600318 
9.453271325938868 6.560741742379351 13.1319510010524 2.4922857010306387 15.217928133928087 0.725215030077246 
4.580772557141524 7.599986138768648 19.672604291835704 2.492517760617579 7.224538606867581 0.7277353408367103 
5.144354887255684 5.335823554735551 18.332508051734884 2.4925693622093834 9.65284154074405 0.7040662224257086 
6.191802269745185 4.642084761621831 11.878657991708469 2.4925785529377023 10.922925502911438 0.8408011439718627 
7.068288995853651 9.49170742161525 26.078246205744122 2.4926430273681777 3.8471369702439677 0.7766242734218822 
6.734619476166133 9.478507381918096 6.9351190964079805 2.4926744000476337 4.181368221048448 0.8143125622460552 
4.5394056358597314 6.601274891091908 29.590537697015186 2.4926905819440606 8.231463737912968 0.8922383789587731 
9.423345259365929 7.583955183366408 38.302762503927646 2.492710553247573 0.5894328267142903 0.5899090888072256 
7.025146094593611 9.49268359403617 35.4012430457427 2.4928104272187226 3.890550941394533 0.6750768747563357 
9.404385066540957 7.658663777922802 34.70241991222973 2.492971223370356 0.6665781193638143 0.6425043407583284 
9.386641084204646 7.720466557489228 15.949064141468881 2.4930157892147222 0.7308919298518788 0.727656341892634 
8.995165391733376 5.505059145189588 23.12861284304899 2.4930970899168523 14.06142681427906 0.8458266897037641 
7.948115060356736 9.305795782927792 14.962612166644192 2.4931137880656085 2.9435762384268447 0.7550998910076878 
5.113682740867542 8.63018510569017 22.505280097007912 2.4931298162981923 6.055571195074194 0.7734242930351316 
8.084208736097866 4.754944923959428 0.11844911044412498 2.493146782258611 12.870344509718658 0.7481474805076916 
9.452878907694057 6.553459137562111 30.61970267590997 2.4931934697566387 15.216233206002613 0.7068161616744225 
5.906194666244179 9.240477868043653 23.132333260372008 2.4932210462263713 5.048675152896257 0.733373651731878 
6.815847196240945 9.48641528694519 13.204565352806156 2.4932254680006505 4.100670063719164 0.7031091961572974 
5.820731062421238 4.803204954391948 29.433709511497227 2.4933077827549144 10.52107618547139 0.8697623612674115 
4.620362471974952 6.254702871870808 23.580212394337323 2.4936203748732044 8.590804148819402 0.8358614610747036 
9.094817475612025 5.6469417650145886 12.440541549166575 2.4937976749109714 14.238817816271649 0.8654076529021699 
9.390296332249996 7.710996108141472 35.929296864794885 2.493798713160328 0.7209987378031251 0.7794495880455733 
7.039754124593253 9.49352956091735 29.54630590052804 2.4938464390557127 3.877569017607531 0.6459860187832922 
5.195706315500647 5.278407895432688 11.090533753710535 2.493863483519649 9.73489479009194 0.8755243629169883 
4.620043179809704 6.254857653826109 21.213371011153367 2.493878822643923 8.591451393168601 0.8366366518384878 
5.95328561107619 4.736135541723556 37.61609908471826 2.4941317722661425 10.673153869091845 0.6738523405106689 
6.146773010822439 4.656266611597008 12.984221581854456 2.4942097928955325 10.882876204211318 0.8611005649285965 
9.026540318312739 5.54586412993573 13.62737550768712 2.4942687887143764 14.119507672101816 0.8265265127603583 
5.02693158307445 5.473727662701304 23.09417928742667 2.4944951844957175 9.479076359209387 0.7580830313687613 
9.47140357395425 6.661163865750309 28.404196236192405 2.4945231109827604 15.333664137700744 0.9055593845383711 
5.165473869106506 5.309626742258356 3.1813354321970024 2.4945636643347364 9.694168741655599 0.7729900677418235 
8.91113326464126 8.603268953673618 14.332287153133997 2.494574451290652 1.741263994261205 0.633336267571171 
6.041552573766133 4.696819900527874 18.93964372564737 2.4946462754183707 10.771997220607403 0.7750927374999715 
4.608365642704127 6.290451367294297 37.63071884152062 2.4946691486392694 8.556715787491434 0.7848929236721843 
9.441697979123425 6.488624910228287 23.597758814143376 2.4946730254072267 15.159467052084018 0.8081436796027001 
9.069625820023154 8.39308781458143 38.84855603122213 2.4948035381652356 1.4780482900577745 0.8640774876786581 
5.099663837946288 5.3835418695097115 26.513728708549948 2.4948375531158713 9.596254868334547 0.6912386303771912 
8.914612005586108 5.400418628255473 38.34467604229137 2.494874685583738 13.93934731767036 0.7294780826911209 
5.6990946562315585 9.128906657324507 6.3540563854486365 2.494914481309107 5.2875068513448795 0.8429176416171772 
5.66755585909746 9.10933782131703 37.11789494506116 2.4949375609549787 5.324672777812792 0.8361645282198901 
5.059630176326655 8.568670698204098 11.866861739237308 2.495147853740588 6.1423730959034515 0.7474683687826602 
4.612634789928797 7.725734469918073 22.991633770891127 2.495236094457913 7.102638643248062 0.8199524105966136 
9.357022311103421 7.819357766977209 12.351112375768409 2.4953759887730738 0.8348446100178499 0.8119679052810951 
4.5243329640079715 7.313174324468431 24.020412098410674 2.495396848319685 7.525518093681427 0.9409071096275727 
8.860829684425687 8.662733116607974 35.348001320285476 2.495469601398633 1.8197881528064457 0.736006716715462 
4.524873058559262 7.319069275426907 0.6896630785079765 2.4956078575704237 7.520238316472803 0.9312081550742153 
9.027048232028205 5.543989517368782 7.881172156339517 2.4957746413690205 14.126804999348096 0.7790681525462456 
8.13660195542746 9.222088114575968 30.163416811117273 2.495904564285523 2.7404775394349556 0.7337257784337463 
6.991954698508396 4.504029172893855 33.651987489975156 2.4959837933450255 11.754001207554886 0.7065221552750047 
5.8299431310558685 9.204767471803871 7.476485427722576 2.496003341601884 5.138513486472949 0.7431463736014211 
7.155263643874539 4.5088156682799525 7.823732199027603 2.496018063579801 11.917571965913751 0.7462415160694882 
9.426996425352884 7.582931243162678 21.813427889077893 2.496020929986537 0.5883648191822672 0.5841308108616519 
4.942567293222794 5.586714260135528 17.285196647063373 2.496078108838112 9.344028680385595 0.7964379288370439 
7.050453753042703 9.495577192239727 24.811865739206326 2.496087158659171 3.870387350851084 0.65182153172265 
5.056517994408406 8.566470570308454 1.0877349717798381 2.4961875638062168 6.14860011798687 0.7249608497168972 
7.2402180408649714 4.515395429881945 27.70073702973231 2.496190012200297 12.003608675957336 0.8955103559584006 
9.41373177608821 7.636376061293417 9.006764332116425 2.496212246241346 0.6434791303268028 0.5490281458013226 
5.82166922772362 9.200639187394055 34.69944857659493 2.4962524395557084 5.148270046483114 0.7361547897458778 
4.605563776530568 6.293871539013914 36.545778406937345 2.4963858338961007 8.558528181258916 0.7983010535980319 
5.089772949766366 8.607208080319534 0.022677744876755668 2.4964144681700366 6.0965687346912905 0.7443717114754398 
8.939953210187939 8.571287583120961 35.41899373889342 2.4964701333259747 1.6995610033219553 0.7375733271009914 
