113

7.521012337573542 7.540362885641283 5.7560120929191285 0.045504734562415994 0.049637300622910274 0.0 
7.456349932836864 7.565328961921772 32.66896822622333 0.07856972463438083 0.16969730074614198 0.0 
7.518346462240207 7.423266235782499 19.56311485408004 0.07889653508056282 0.3903071271390175 0.0 
7.583168393182931 7.5037935361442685 12.60426425950584 0.08325486496961298 0.003794850062249111 0.0 
7.574649627342736 7.454375083236631 2.6649515934001613 0.0874882843132383 0.501708592713376 0.0 
7.459254509048001 7.419607531957549 15.999152346747188 0.09012848579043187 0.38244135355154185 0.0 
7.523467912187944 7.588363061605293 22.66566203548153 0.0914263285860355 0.11987856518214812 0.0 
7.561988315268109 7.36660992926879 36.38437504257648 0.14708997994239992 0.7571327247246042 0.0 
7.3728100108771555 7.409676330020925 39.434211990547425 0.15599890605885092 0.5864149719686722 0.0 
7.375295656689482 7.604637352480999 25.936554931466745 0.16278866291833705 0.39776928574153203 0.0 
7.672387068391745 7.503191023575674 9.424114797407057 0.17241660007134207 0.003191205775342709 0.0 
7.581488105001999 7.254762225867367 29.66489271411703 0.2584218975209813 1.3006873016753424 0.0 
9.910073957536964 7.72400548552082 34.48714360584265 2.4204617200735288 0.22432648731576066 0.0 
6.209920489196781 5.227361753359007 24.233478064276667 2.6132718466110103 10.965525177046189 0.0 
4.870749263238889 7.3895801306293585 31.127644173414282 2.631568350681903 8.37776809419245 0.0 
6.324754603316015 5.130186190534971 1.185255674603983 2.64522574347787 11.247521583839536 0.0 
8.252440791637287 10.039582532084406 27.644310787183052 2.6487065866546975 3.397631165856504 0.0 
5.23418746362109 8.931025894118491 34.55893708989437 2.6798771538354993 6.909475500254583 0.5158424196880447 
9.145490362665772 5.366604456031745 17.90633812437295 2.6942559419345327 14.466494764178282 0.41471807171503267 
5.980604321090015 5.270735879473964 7.688040807849859 2.6978105471205827 11.099172207481551 0.4355663878576982 
5.373407226207345 9.215492536352496 20.9930961492773 2.7322722170069826 6.729007723370383 0.5392472191514271 
4.753777180220547 7.602789568652538 10.333028828934076 2.7481458242424446 8.530741181533255 0.10601164501149825 
9.33301565980274 9.552399009550115 24.716451562455546 2.75177907970178 2.3164519724285313 0.5520253344842965 
9.814458320606695 6.009010270873011 17.53119720099911 2.75313778990223 15.72287654273584 0.2865529549890875 
4.737463870967469 7.588001441497273 4.408663719192042 2.76393743017378 8.59514920901887 0.2680952982553116 
6.70783665693307 10.156951719356982 30.548535308128955 2.772528665513304 5.158435572467329 0.25753565414388957 
9.559217817018567 5.641635428486186 37.95103566659212 2.773787464566174 15.391779884977225 0.6359214632512841 
5.379829186039563 9.304157896267952 7.795782262809354 2.7839019370365166 6.7831099249375235 0.29861221753193934 
8.337609295233728 4.841342288617351 34.797352242588694 2.7874809699361838 13.986450609349308 0.5569787136158738 
7.345877704849528 4.716674194313571 4.146039668966715 2.7875896797165916 12.982005963875213 0.45368958999738496 
8.516089073094989 10.106257789139676 7.677570894654849 2.797323125402976 3.354150739204254 0.01506889323194362 
5.131657414210977 9.000732526801336 14.94643274065038 2.8037911335656527 7.224774130692239 0.585704866578048 
4.947464782163195 6.333369402129463 27.568785317136346 2.806503695024285 10.020037829890864 0.780215899727164 
7.068857233252867 4.725202890163374 10.512194781511816 2.808092428335661 12.799968917463882 0.46353956970202326 
10.306570006993645 7.649390017343041 14.776292912003456 2.810543111471173 0.1494604518877054 0.2840938681551078 
4.693268669373545 7.79135320480194 0.8311369143538556 2.821812795397404 8.573112975230952 0.30310379295653095 
10.262107543704587 6.9004070750127084 20.70725232596166 2.826437644577464 17.154847794672584 0.698464969166427 
5.107952074166118 5.991718665193371 14.255760901472797 2.827862419640008 10.474870992723755 0.6267116431525014 
4.690521647941104 7.842052062492385 23.942184662651734 2.830224059000076 8.548520837265933 0.15432116573981383 
10.051930750442484 6.261016107483929 31.692916714037317 2.8367995419077876 16.54193986956291 0.4662993455896626 
10.067739448958246 8.706635002916066 24.373862455169842 2.8371207073366915 1.24633656953295 0.8664721113314665 
4.684079547244199 7.116671508181671 37.48662476767021 2.8418917517893187 9.312566739545819 0.8218179871024709 
4.65896898582119 7.5714849217550295 11.532247168432548 2.841930209833484 8.856694607167082 0.6391752436238327 
8.616435300901756 4.881354969765578 14.838424215435708 2.8467050383682238 14.562020082663643 0.5032213429621915 
7.065394939287794 10.31455363369975 18.7227040137834 2.847910412174008 4.90979706750449 0.4402603203648228 
9.723222243048536 5.7190659044704955 24.28475307657704 2.8485862097899095 15.974297314232373 0.7279547786327347 
6.38264059053029 10.125603342004506 4.611808044923642 2.8534689343807043 5.630304167993128 0.8073833009747203 
10.33573834865879 7.170642839938132 4.736184451892868 2.854800889893738 17.60715080352597 0.7039644101488959 
6.9187965061865615 10.297416141427338 17.57372848399305 2.857154978215067 5.0732969212734815 0.13540164985902 
4.772605270749306 8.353542307607523 7.345916431730274 2.857834228925891 8.111380875601256 0.703439674047022 
8.944685181432062 5.024709613568509 6.965765809767099 2.86603868965678 15.020032411390257 0.5440095990456529 
6.40031503522933 10.156441043348078 11.20642753948858 2.87506278862339 5.644573039406623 0.8372407954194869 
10.371204016382832 7.702805257344018 7.846162114111721 2.8783576004553817 0.20297343522558364 0.914722685336153 
7.377892785527575 4.623514092173599 1.1471997951026687 2.879076475147905 13.445184403852155 0.6225896769761277 
5.7773804400129425 9.8072595449148 38.5289688535743 2.8793861769568987 6.369557343812865 0.2748720852210295 
8.28861818022276 4.725437231706289 28.192550116834312 2.884461334353353 14.391492663577864 0.633080672955847 
9.839260085700115 9.19236952140945 10.791630392243611 2.8872568894272894 1.8082901265463853 0.8214466908914536 
9.848732220908124 9.193059180840216 17.31654276707765 2.895339778913581 1.8083590992645426 0.6791105425375789 
10.389073645734022 7.2900218134342065 21.686883786895464 2.89669421398054 17.99030400857728 0.26528443142045305 
8.363070744642203 10.269685352070649 14.779699775175956 2.9010425815096124 3.680609264704085 0.6172064243782176 
10.376436180294906 7.903538309997128 13.687306323548846 2.904604666205864 0.4048478791242758 0.6139598946787326 
8.515098863488863 4.778444192678357 3.9678419358702683 2.904701656801013 14.725070478945714 0.3947082822829369 
5.384336017520603 5.504860520545144 28.319139538596033 2.9080260709353984 11.334555778765441 0.43684131723903036 
6.938266660819428 10.35367740442259 10.331026774619666 2.908439284712509 5.133851406280417 0.3239090675473972 
5.87518116374838 9.916544180350852 37.537973245094236 2.911996227028059 6.297887829676856 0.2258310439737087 
9.84316863542406 5.7681602483697 25.461012293915317 2.913710380144524 16.452835936916046 0.2966295101844776 
4.673266119943779 8.216765247679366 18.1819887146802 2.916192183128292 8.437302297200556 0.08950322509897526 
7.176149248332571 10.404559430809865 1.1281020666034536 2.9225579201210183 4.915260447983499 0.48453625740061684 
6.51659353402821 4.743770278571697 38.10630260787944 2.9264125742280203 12.787470083022793 0.5464663645503963 
8.03736467863728 10.377310683808798 34.912691440378836 2.9270595431263793 4.057384466927701 0.6793699903635113 
9.635800115225708 5.4936049328683225 30.963929664479565 2.930403265355894 16.20225146164055 0.16486060758832052 
4.58143324512929 7.773486007110154 30.18522501698225 2.9313523327504667 8.93523063338544 0.10383461824464187 
8.59964577589184 10.218003058987511 6.638574009503614 2.9320234414312307 3.478403527926419 0.4890185851277131 
6.956659485939719 4.6156419363734145 24.70349118377922 2.9350877931378796 13.284782709835405 0.4160300104510553 
5.333592494890253 5.517076519422723 35.01036732579944 2.93688729916906 11.403344418153058 0.30151890784127133 
6.6809671934078985 4.6789891609666405 31.075619781391723 2.9375018114407765 13.01261699772867 0.4359253806819915 
10.430600112381418 7.287737757737737 1.5373950614519245 2.9382770934988733 18.249292163948 0.9113681231426065 
6.232085297418243 4.849039693434879 11.326752419258987 2.938570781860943 12.536717992859042 0.6007177900889499 
4.789188974516129 6.363275104068245 3.7745246613404078 2.9394965393611145 10.401852763283586 0.49303390576075784 
5.337339302623061 5.506981213684732 33.636352461399284 2.940956506748186 11.429120964260058 0.28925033716976567 
10.409383261674348 7.042061455671426 28.162549101136165 2.9452026540957488 18.045449945437518 0.1622365209293936 
9.232631087864796 9.888630237226566 38.25341248522963 2.9508583322193878 2.783392089267034 0.0 
9.445136295671034 9.719298353410801 3.413336273215517 2.951074446737784 2.511770005127543 0.0 
8.29916326894287 10.341864009725603 13.64653889732486 2.952092982987006 3.827875844071375 0.0 
9.848182298946687 5.7041335942888605 11.638581868994322 2.9561962479254307 16.644229112507308 0.0 
8.262139601234562 4.642050630309239 20.734661595598027 2.957825446419345 14.70925952712082 0.0 
5.234824751378369 9.4069089860159 27.54390403898843 2.960966191619934 7.230254821034297 0.0 
10.432247125626205 7.917426547925382 27.56228470667307 2.9618099413460084 0.4188209413467199 0.0 
4.7599259277683 8.628373145358557 1.3851813074271782 2.9633143398031137 8.15193584134975 0.0 
10.145978956374158 6.165580014373781 10.757570325541408 2.963423921009878 17.23553344706 0.0 
4.804889889903798 6.262975747290669 20.65754565769278 2.9654422110932885 10.592251578798745 0.0 
5.585228311917513 5.234505898930564 6.609654733678063 2.966279511351327 11.89684042585909 0.0 
8.433315768426638 4.683774430079037 33.751995887620645 2.966850987877629 14.930394210035004 0.0 
6.070512780384245 4.899565650012702 18.281535788443882 2.967438713712323 12.492227711168706 0.0 
9.86875211785187 9.289128969478686 30.35481910499282 2.968496094869519 1.9202824525787108 0.0 
5.265013153689338 5.546092091118894 21.340634575011272 2.9686566523547007 11.458985809323138 0.0 
4.531146291620729 7.4512414662974535 17.50846566523589 2.9692540706996042 9.376947500440647 0.0 
9.036152947573811 4.958947047651561 8.066209845392798 2.969295536819874 15.607020122663911 0.0 
6.235682947676663 10.188729255947578 31.43333607886099 2.971155098708914 5.973044813717371 0.0 
9.060758476973362 10.029293596818974 21.11499277448037 2.9720856519208323 3.025338691226473 0.0 
6.27279943194603 4.788774332806355 16.978023250975955 2.9760318971209987 12.75927379696963 0.0 
8.220745250139725 4.612402231000974 21.74270965473969 2.976187929403505 14.752938011388894 0.0 
9.622818637771115 9.58710026311136 31.336061286249098 2.976969344341309 2.3128492476002247 0.0 
5.4157293326871265 9.626398660877935 14.107642562148847 2.977541851864441 6.98587821879423 0.0 
8.111264071999376 10.42100300620411 33.843127562145284 2.9842758464945423 4.072068470134756 0.0 
10.27662630040201 6.401829357358697 38.0649718444657 2.9859056201500014 17.63642949569396 0.0 
6.475184168724308 10.30506520483147 24.18424716285832 2.986408929029899 5.737116620287026 0.0 
10.185611972613682 6.188398088048647 1.779711078162805 2.9887808957634228 17.42123327271069 0.0 
4.541331948976486 7.935087779257968 24.991279918688527 2.990487922029933 8.958257345542851 0.0 
10.145049671434148 8.899073157880196 18.464950871761346 2.9922722913289066 1.4558327698508648 0.0 
7.9674803160286665 4.541058673422821 13.945763617139058 2.995642104791656 14.586029659318537 0.0 
10.447365635617306 8.04365208538104 35.471964087175614 2.9970855476540796 0.546678468310791 0.0 
9.668065262196478 9.57078290961411 39.55309274916237 2.9981075430832984 2.2859131098985443 0.0 
