141

6.571185716544857 5.989591881661738 5.692945604439082 0.5712805367874942 3.5790527808033286 0.0 
5.347187673860757 6.558517515249214 12.297717786721169 0.8591308095974008 2.0910228964861943 0.0 
5.24958800398538 5.561096618119782 26.760595424030953 0.869341326746023 3.191197886210194 0.0 
5.53980850773798 5.250978441901516 18.50836826398494 0.8790958446305082 3.65831832688815 0.0 
6.241019618985735 5.018293905030038 25.041313628939896 1.0108596903810145 5.006927782880204 0.0 
5.000582491157642 5.709975518777277 31.02589065053288 1.040648623066006 3.563210617237793 0.0 
5.022609788433847 6.476791666243004 9.2695084802194 1.0874842153631978 2.9228698956797903 0.0 
4.883488492907841 6.018137360627694 22.65274335243955 1.1166588150906902 3.489948971834046 0.0 
4.893989463613618 6.2326185840303125 2.550072736128822 1.1302082605581867 3.3163609165061523 0.0 
4.892521009725902 6.326466506358043 33.072446110537506 1.1545952077122803 3.2962867705737224 0.0 
6.534433486697232 7.025437681413596 17.466079247995573 1.1563483861562882 1.2608265499262217 0.0 
7.190711001522871 6.16688174381262 26.88809939899111 1.202348620644421 0.167422257209779 0.0 
4.97854507116908 6.659184701565438 28.83445911377634 1.2156869014721257 3.1224930717782815 0.0 
4.885743153248235 6.507914739864244 26.763538954434374 1.224559391579088 3.323330296119517 0.0 
5.483510635204233 7.1399595199678405 32.86932526822924 1.2515066804106336 2.4982652517959387 0.0 
7.121545474410048 6.599448263011395 29.301641122214725 1.2716927581759037 0.6242140161108143 0.0 
7.189316474037527 6.5313937028974465 31.66724136525132 1.3026330806854678 0.5473593826720098 0.0 
4.743173348492391 6.43104859186707 20.35536232396722 1.3286896253416036 3.735209683795193 0.0 
5.155330377736465 7.08134175786498 34.91562163953949 1.3721394856490887 3.0652573167233506 0.0 
7.415561439923332 5.374321302799462 16.07161517462699 1.5476718070470805 9.080196289249496 0.0 
7.37025764556074 5.148565562563977 24.854506668019162 1.6132410286344867 9.23935713955047 0.0 
7.504091683679439 5.234618563545041 38.45843028745673 1.6876316352164964 9.809308104043517 0.0 
7.645435015665152 5.577679014524707 20.463220892235505 1.6987676137570444 10.246874895888402 0.0 
5.261025510187994 7.626861456551591 26.253221544420505 1.786830013013573 3.568594372672999 0.0 
5.013760692203677 7.499063311292748 12.191108113425543 1.7943964956236798 3.8628111611843288 0.0 
4.356433347934923 5.279543458430126 11.08970001588267 1.7945386504812944 6.379074994274957 0.0 
5.410175027147517 7.726461908000344 30.751677193556347 1.8244353149335328 3.4664313994604754 0.0 
5.940810263838976 7.8758785430007325 6.020794628371583 1.8768121197811345 3.007289136138949 0.0 
5.567928044158929 7.865465347065427 39.0514360750095 1.914849115759845 3.4436630231925403 0.0 
4.1350545073958695 6.691246896343534 7.468187132993542 1.988930356269175 5.542430578936752 0.0 
5.702964576865972 8.018971207424883 8.016845557186038 2.0407044810572423 3.503625503261567 0.0 
8.095667063749017 5.849455296741713 13.892771519449056 2.1010673834414626 13.050721896624559 0.0 
8.105999084662217 6.0550182235277905 22.512642738077773 2.1067176245330677 0.055024479417831174 0.0 
6.084415108818325 8.148287622406023 3.647301736188396 2.1499454921415397 3.292689668243007 0.0 
7.027901051142594 4.076460822745661 26.66672085483622 2.18095931584529 11.347882250683718 0.0 
7.797285847128084 7.354803129709852 6.640011149988627 2.2507172049279145 1.453810017830012 0.0 
6.928950126578888 8.085668013826401 34.44047697505423 2.283190618754704 2.6297262253630738 0.0 
8.285177063295322 6.270886394304107 4.603200739874417 2.301176579324177 0.2715159477119986 0.0 
7.2110337765884225 8.063455351045253 25.551400786426193 2.3925824528728983 2.4884480013180994 0.0 
4.370562814819511 4.183897063093674 0.05484173730153685 2.4399375848346385 9.713669571867474 0.0 
4.990519095530329 8.2828533836384 21.556212435458498 2.496091197788697 4.960097687014837 0.0 
3.7847096744140796 4.727791681712064 7.200342869093539 2.5546086259455865 9.357249195302852 0.0 
5.154260565292397 3.4664797328026538 35.60635726932451 2.670954910836056 11.72602784360532 0.0 
4.965054320623842 3.5356827679113074 33.50695267815895 2.672820977848807 11.532645972795818 0.0 
3.9585639477679972 4.259606965895502 12.878339608362339 2.682616086679576 10.321515148523206 0.0 
7.791638674300195 8.007565604585412 15.510478614317897 2.690778473966698 2.2660979219334187 0.0 
3.584616209637172 4.761227237495898 27.635385089050658 2.7145233120880627 9.8143087972894 0.0 
4.4472879146755755 3.772128994489922 31.331371537910123 2.7155706650914118 11.143924594316315 0.0 
4.048923905756068 4.089723822200785 3.165139518632664 2.7305407891107096 10.693958169864917 0.0 
3.3309192872236126 5.210803739264383 14.866695600805265 2.78331144309687 9.54420400806962 0.0 
4.498892317002435 3.65494988323287 17.81526703497314 2.784346301397125 11.535525613339942 0.0 
3.5438396027987284 4.68826042083043 35.32353885971194 2.784490010817039 10.113591731561034 0.0 
3.5361385987768177 4.656655332310178 29.70460494237195 2.806276518921138 10.216973730618289 0.9780099805787036 
3.2830933312010444 5.153892435938454 12.802380045950478 2.8456071157006897 9.798837157099477 0.9519102748674352 
3.1576599726895918 5.608329182400528 29.690736533136437 2.869198992787006 9.406752051213815 0.5138998264927929 
3.1385194447558984 5.713101769278122 27.68798190910136 2.8758271093428815 9.322053584720761 0.7414871304773313 
5.609375510611468 3.1416561849359432 2.327570921773173 2.8849119322476726 13.202999144285132 1.0 
3.1195217353972815 5.651283870051303 25.678081533460094 2.9015096022820743 9.464922377346738 0.5622865385989115 
8.899186189199291 6.168246229845856 37.15308273639079 2.904063937571148 0.16834049022854458 0.0 
3.0877215022288116 5.7480300214343405 39.42780157716705 2.923158380703786 9.435655946332234 0.5924560680350959 
6.0246930079792715 3.061224589942004 39.83424178745676 2.9388791495065947 13.873835017346615 0.9999999999999999 
3.0615962756083803 6.129488234990976 12.568146940830232 2.941255454821907 9.110696429000903 0.5549291205108138 
7.867816297771762 3.7255434384565316 34.17662128533916 2.9431089637609316 15.892589132252574 0.3716020768541487 
6.338427629209962 3.0255336760935947 31.322028687033047 2.9936571567676156 14.446429648454995 0.9309215923038262 
3.105417328693399 6.842490914593979 1.1794307177679144 3.014697295285525 8.617089412262148 0.6068712225031243 
3.00685106063991 6.442193161401374 23.73329888774213 3.025636357063184 9.061534295634095 0.47888432467299097 
3.0006235876650607 6.43515671247787 21.441533728748034 3.03077881530239 9.084806581445608 0.5136503478433699 
7.194590145575969 3.212706151306268 29.086512289692408 3.032499400638545 15.518183615228478 0.09377064130955493 
3.213704818694506 7.222126647571301 34.14481554053256 3.0425374903310702 8.300778490963795 0.6821661784004899 
7.110637782743726 3.118191072954401 37.20784527920921 3.088420142476992 15.689923889755207 0.264946791884984 
3.012365114843904 6.788434186151035 27.50065604794147 3.0899175835114643 8.910011742074701 0.4903180552380146 
3.0958859998906636 7.057334820913145 3.440239592988462 3.090604317790695 8.63029115312704 0.37037517933467884 
7.04682597794498 3.0687034984416517 26.841850830152815 3.112610449148539 15.735469275769008 0.3125773897420015 
3.8620407731527564 8.290628040004037 37.88500282882902 3.1333442953678103 7.274794043231978 0.9584893449261273 
3.168244050406031 7.444805525094965 38.2275659047524 3.179041485008615 8.487424518112789 0.1207325014768662 
7.800164544277132 3.3630276912988197 23.922469916370716 3.192838132967176 16.95839145761809 0.9320116325281017 
3.1122180449485235 7.369337181369362 36.17678760682005 3.1959926370693514 8.625380426579241 0.5813727906456736 
7.418701032542728 3.1266774865014124 4.649830058516152 3.2044804393716686 16.570443823987546 0.0 
7.697721661296022 3.2801307501696826 2.396056362464698 3.2062357329750806 16.898168291846968 0.0 
8.180935404357523 8.374094990419952 32.65455382614505 3.223787564576367 2.668582180609466 0.0 
8.414249475972987 3.8232808319303544 11.17569251625428 3.2506471461660746 18.039400205057323 0.0 
3.654622407896966 8.261471391245912 35.883080052683866 3.2580744164249436 7.735990911886178 0.0 
3.511511293226949 8.309040508279725 17.62345079198115 3.394737708956865 8.125580888785358 0.0 
3.59418137710815 8.422434370236685 9.005426012709307 3.4141106491086726 8.032559569524324 0.0 
3.5799060074139106 8.41065908393223 15.22583501640245 3.415864773654874 8.055113251058222 0.0 
8.75708258697306 3.9484356728257453 39.733308185545006 3.4366292467946 19.39450178029439 0.0 
3.6842205251152134 8.55546155646006 23.7689859407808 3.448654569950856 7.956151776936872 0.0 
3.909737058218778 8.78074291305054 11.031479282822465 3.478754132482589 7.706760960927422 0.0 
4.738491791056823 9.247538654779488 4.765915466985604 3.4839503836188563 6.7634166137736145 0.0 
4.289778363979128 9.069529933129347 21.332527770363903 3.513811613432194 7.305638163237688 0.0 
4.189814675801962 9.037477428615082 13.190304606632239 3.535963805992371 7.454634600996393 0.0 
4.185730909990477 9.050160463767222 31.789306261085834 3.5489507161543776 7.479029186382334 0.0 
4.900248966327586 9.42165692896985 29.58543583996756 3.5940490363420126 6.763198057191325 0.0 
4.210053676789391 9.14661693059565 2.1640019387475533 3.6200975053009805 7.558744849116433 0.0 
9.45470597366398 4.850531310072844 21.531632450381096 3.6409163178508264 21.707077273840728 0.0 
4.499873507534073 9.31828944587833 0.06792518438888351 3.6416238603163866 7.2664131645348355 0.0 
4.680977920204983 9.452406280581377 27.43751948909265 3.695798746304312 7.1541095178051535 0.0 
9.502004307673065 4.794011616617025 17.12782997245185 3.7038415397820903 22.043539036799405 0.0 
4.945753122086522 9.572273916488923 14.107805661284054 3.724590905591839 6.919430997657882 0.0 
9.693350482242613 5.351324787412443 8.068921263145043 3.7498823069674097 22.909250688975746 0.0 
6.28576014656208 9.747084486791257 38.654782937932616 3.7579650094851704 5.616961377451926 0.0 
9.700149903578684 5.176165618544383 32.48853070489918 3.790753539472294 22.987545611433905 0.0 
9.788106227379473 6.316811381252792 9.93476716492274 3.80133111438644 0.3171792904441766 0.2951941927399719 
6.494602528622309 9.787158362924915 1.1933932838882484 3.819319327732585 5.503377265681351 0.24614871897433901 
5.769420841914405 9.821136298672053 29.25428726589749 3.828086906167705 6.243863663568925 0.8727745974329909 
9.831909085721374 5.774275913378286 17.150231131125523 3.8385516284811416 23.892476812319412 0.9198919976137211 
7.664073176319249 9.497768366884001 9.56946664288047 3.8734381477596367 4.364334199394232 0.3078202996296326 
7.326975954564087 9.641570712042645 39.11741055445663 3.875809906948227 4.733736108401029 0.09426813915905331 
9.878380959538942 6.011518859720534 36.65464080539668 3.8783980651092866 0.011518876655102872 0.665886862264937 
9.863538537696304 5.650916845534216 25.855480631639644 3.8792768760422676 24.024659467985774 0.7591679977253885 
9.87759919745761 5.615318331632238 38.90486859977369 3.8966338706763435 24.097963411467546 0.8266410441389913 
9.927526469349033 5.829492963176525 19.507602040488017 3.9312258669584996 24.53006006549134 0.9746039027933906 
7.585864282050956 9.612323200555435 7.436974383282013 3.945103854951865 4.564938599053246 0.20588110015974687 
9.602222547115305 7.626164496761971 1.212351369607667 3.952267482025353 1.675941305352465 0.5927797945794087 
9.936521010627878 6.365710189377497 7.849052796368007 3.953472095478766 0.36623376593974033 0.5025351131657554 
9.957389793489911 5.968573486248568 3.2766252417267907 3.957514573995237 24.834370580227507 0.9965847935965872 
6.696994295311633 9.895908703740103 12.079619280021163 3.9577652375519765 5.516194803947133 0.2863605873593167 
9.897896529207575 6.73050966567895 34.77563733170938 3.9657586568094176 0.7347052287545548 0.5007092611376207 
9.813615848291747 7.109994071814649 3.4319576030009458 3.9718701738356987 1.124975229179908 0.6041162373481476 
9.966993658255618 6.394707339237373 12.717166472560123 3.986581564233716 0.3953550719324781 0.7519770076311992 
9.966513280239909 6.489866402952085 28.257685930139353 3.996648182547566 0.49110133303660675 0.32016076495885715 
9.749812208863002 7.392498785817859 12.001099996076789 4.0000180587395135 1.4222794129378835 0.6432107700626266 
9.762479316971447 7.363889334998504 7.838267837150845 4.002055063184487 1.3917737809207802 0.6624917447591856 
6.599221698863966 9.961602899536855 26.81759931968125 4.006664969523683 5.692176325196293 0.4341656568411975 
9.919592166822166 6.9249612854309746 21.355450062510478 4.027251684928544 0.9332926959409704 0.35975930667265427 
6.642160356410095 9.982018872771475 24.674793041600523 4.033465535547927 5.69084824316953 0.4158932735696603 
8.31720235906192 9.329893079869251 22.319790229448834 4.056798577228506 3.9060542478511877 0.7583903192446869 
7.519681456833297 9.765137876764689 1.2536742870400275 4.060257991961974 4.820232552854897 0.4694610441167052 
9.144646434262066 8.573194781672242 39.47973155025338 4.063266245392048 2.7865354995094798 0.7960699543881021 
7.1262233781734 9.910338798810903 33.59200487165119 4.0692909233710735 5.250906889000612 0.5104805969801546 
7.6737946870900355 9.711952348557128 11.748304134121305 4.071876581195654 4.67116453488331 0.6460665576076223 
7.0015835839819065 9.950968057678963 3.3699489219191534 4.075943850018242 5.390530033280644 0.5330175349105952 
9.515421228796548 8.084409599110822 13.973550141097839 4.0869242460239885 2.187350646983756 0.5890018862956787 
8.99696465651968 8.786370480633378 30.74381059404766 4.092145843903074 3.065018375180056 0.6591368187118603 
9.926128881406472 7.21183243284203 19.202470139679185 4.108895939142517 1.2301261049680239 0.09021144045973437 
9.677952631142825 7.842340593123556 21.674289976496475 4.113581701875056 1.9102614220929048 0.6184816070739031 
7.896165712958025 9.662446093345512 29.313639188643386 4.124191532610894 4.508004960093473 0.3251181193096467 
9.24370866923367 8.5591290941594 5.528282704990858 4.13168097164275 2.75982944538557 0.7738188314383031 
9.521209582907794 8.209659768483908 3.5233322844765453 4.157103946164687 2.329705811923297 0.3821736273475189 
8.703293984814138 9.164672300323092 15.743159413764722 4.162084710426319 3.5954724324465612 0.5653197475677717 
9.265141118876528 8.586009827515054 1.5032834381374158 4.165164264969954 2.7900237079952968 0.0 
