226

6.21972821012811 5.480165126110947 4.643376774410541 0.5643658232364448 2.8852074643866388 0.0 
5.886434846430209 6.592291940193494 13.09688951285979 0.6030810779020559 1.0615648071505763 0.0 
5.5274921594011825 5.474025961149437 32.287276064534545 0.7070447998338798 2.814382786274421 0.0 
5.908296726495175 6.830521929050754 36.140590799892685 0.835569365765453 1.404397662484417 0.0 
5.282882799921362 5.484954027733496 14.87977947892611 0.8829096398820067 3.3236609321097497 0.0 
5.3425131130929735 5.407098528487952 4.004188396773223 0.8853367502684182 3.431020225728263 0.0 
5.343023958164434 5.355081977599626 29.93449770928757 0.9206176052861106 3.6067304527089146 0.0 
5.149390191560165 5.645453976884003 6.529758321281541 0.9215421470130494 3.2590423285760393 0.0 
5.056709677202289 5.941846513695911 12.742950345212641 0.94508119283643 3.0272503790421412 0.0 
6.089943071468168 5.043272800152522 17.26795182249196 0.9609457274129083 4.618424975568697 0.0 
5.645673809522266 5.085164255318382 39.57357999628431 0.9810563128616181 4.260598848468415 0.0 
6.341199422913083 5.064874734655874 37.61193003198204 0.9954277010818728 5.039103249067214 0.0 
5.017737750002442 6.229246125787352 21.172707904647396 1.0086589681149807 2.9375285079555553 0.0 
6.38916104609464 4.991708574082798 8.796663927709268 1.080785787922668 5.491185523467681 0.0 
6.931564846180422 5.415995259145202 2.6596455797833727 1.099488335536139 6.292608874569808 0.0 
4.9002142159379005 6.039222565824804 25.75946835611083 1.100484975133679 3.418044638668192 0.0 
4.9244736034553735 6.2345930974617225 23.203564847929222 1.1008137676468968 3.2219023576770134 0.0 
6.2403008948987875 4.922900843644888 30.05353295440765 1.1035792281073693 5.442736111167459 0.0 
5.079790674265965 5.374294233390188 17.086179282232393 1.1127861023290397 4.160420285109264 0.0 
5.015649738284033 6.591154445455267 37.94049214470541 1.1482199336894547 2.9862521421315478 0.0 
6.234926424191762 4.875147575377403 15.142081983463733 1.1491228837521525 5.651708488572756 0.0 
5.689265959915417 4.892726738702663 27.51511173699258 1.1500477028590286 5.104827396658006 0.0 
7.0469520027316435 6.601606321980579 20.687059715995716 1.207492717440069 0.6297720632203596 0.0 
6.3467263041467685 4.840989318104233 19.262892034444548 1.2097623282016041 6.052528413563994 0.0 
4.849470263390126 6.3771278215678535 31.801812671318707 1.2107617720361432 3.4202116249078625 0.0 
4.946894643650078 6.609701092581494 14.94935382427959 1.2168674183607542 3.184287494526888 0.0 
4.8224439621097694 6.420914005548855 29.692930261218287 1.2505226197230188 3.4993360735078003 0.0 
7.086962020663119 6.794412349900268 16.266379027599314 1.3463199530713776 0.8497106258699887 0.0 
4.845803322488836 6.731922341905106 17.17583807142328 1.3667041687789148 3.5212418104644243 0.0 
6.523470279096358 7.2734335644103165 30.670431428499136 1.376827576737183 1.6257352301567263 0.0 
5.057284732684916 7.009198506065239 33.79040482942737 1.381011839150288 3.206912653447688 0.0 
4.927314495211423 6.879646686200603 25.124067061962947 1.3872391591673132 3.405325545955847 0.0 
4.921333847159364 6.9446753007114665 0.020925954841850114 1.4338521866141978 3.4732495456355252 0.0 
7.082380128051682 5.04035957634926 17.410892871797003 1.4465325728464409 8.03957041568782 0.0 
6.962796495141182 4.877011033027365 13.034174250095532 1.4792164517062432 8.019033009945282 0.0 
5.122762668737148 7.2140107452560205 5.079498222653058 1.4977875099486746 3.289929059099155 0.0 
7.393758339070801 5.394186717481386 35.934118246610645 1.5197276206627865 8.925603031364663 0.0 
5.18484875032377 7.282746013141626 21.456149808745153 1.5198384434141206 3.247730314834641 0.0 
4.928780990024043 7.142841776899212 3.04480795658041 1.5663963401259657 3.640080653969381 0.0 
5.006690562224467 7.212572754226175 11.009770867748529 1.567480884561466 3.537993314492182 0.0 
7.35105383835276 4.931423994789487 19.40790381292299 1.7225565746991842 9.670441732869957 0.0 
7.6072025077801495 5.312416447853494 33.77070120066715 1.7481049860340803 10.276993293185757 0.0 
7.584138161677394 5.176060669836824 0.3214823919869474 1.7856006650627072 10.362863555709598 0.0 
7.582728107506032 5.158962602441408 10.796411324020838 1.7923091715387045 10.385977049760193 0.0 
7.100845634031934 7.422417641664108 32.597609387208045 1.7986475633887977 1.640650322375107 0.0 
7.833135838370168 6.043956030583065 11.323986210291658 1.8336627646712227 0.04396024150844724 0.0 
7.9151629121681495 5.839607383323603 6.772090346065731 1.9218675218725902 11.914870383694556 0.0 
7.045992588498294 7.64890929277453 9.639965556095092 1.952691053646622 1.9634281872607673 0.0 
5.872253861442211 7.980605922390108 23.469490699833102 1.9847213647570756 3.2454275378335105 0.0 
6.3616532241502775 7.963013509308185 14.500552248267475 1.9960498721887516 2.7717260544857147 0.0 
7.944684955209588 5.511675994503296 2.5550996267833312 2.0050585800327267 12.104869548827839 0.0 
5.849962896373407 8.004341358468377 30.47578087886209 2.009949107249113 3.3073974685213514 0.0 
5.665044284948159 8.025069635117354 19.41771854672067 2.052584312061315 3.560652366451638 0.0 
8.090115768390245 6.218167727947087 4.59547420759867 2.1014711710587735 0.21856153928070654 0.0 
6.961107290241035 7.893945528541682 11.854718380396353 2.1238542531062476 2.3387801340889887 0.0 
7.881972949565032 7.003666126591078 37.01695770002652 2.132877839108666 1.044972552825266 0.0 
6.632907813553814 8.04002156244531 3.6436594460412763 2.1359448203779197 2.7125784969562297 0.0 
6.688997946193451 8.04134763771823 7.578492286695322 2.1544879549156453 2.68294401181209 0.0 
7.936494929638389 6.987843759307687 28.214590571321907 2.1739015399319093 1.0254518997318982 0.0 
8.126202582626917 6.464800424025688 22.537253938094793 2.1764137604196128 0.46840814773459094 0.0 
6.367978317354346 8.146047234452718 32.61052342631578 2.1773669361283825 3.050447094411524 0.0 
8.06487318896139 6.738294453208908 18.175817883682548 2.1928930630859815 0.753005640489576 0.0 
8.21842545067718 6.166392181414485 30.088042000477287 2.224656791113656 0.16654771243478272 0.0 
7.544615866182967 7.610064786326374 13.853395095738144 2.2311761002288355 1.7986443057463255 0.0 
7.599010670925203 7.558575030135138 3.181743257597894 2.2329333286718196 1.7251486381165524 0.0 
7.946410738556892 7.0955549871079935 20.435399301991236 2.2335522140632342 1.1450577983663681 0.0 
7.660737354533586 7.52485034343141 22.431650883106784 2.2545991064058604 1.6746422595434414 0.0 
6.234909955682168 8.244298331245492 28.500719561320242 2.256558815300388 3.3092579730623406 0.0 
7.802478728003386 7.379440000480717 30.212523262540653 2.2697542333545604 1.4826544769765242 0.0 
8.062874716271958 7.023771517602865 32.60019252300194 2.3029459861857355 1.0608988538086166 0.0 
8.21084067065975 6.713686863502543 7.241032223950526 2.323180021044289 0.7254177290609629 0.0 
7.709832006407131 7.659076209048738 24.477896152257117 2.3824481857043116 1.835279303387873 0.0 
8.064170922397697 7.296366952966476 5.260000452468667 2.4374923330373237 1.366890129214081 0.0 
4.384544799912781 4.114107922293995 21.0974185816044 2.4832004414148905 9.94292259342545 0.0 
4.890711597903753 3.662144336020612 0.8908232021856435 2.5876804023344437 11.04773168780101 0.0 
4.493266397948357 3.874490318130608 5.446859629680247 2.605386258364014 10.67095187012007 0.6787406820218185 
4.285742822521714 3.979402093219452 28.61324466131527 2.6498101010113455 10.622637530649843 0.37027314621484986 
4.56873177490192 3.763693855166972 34.894808921228304 2.655107136368205 11.000282895673212 0.5478598680511394 
4.32800126673283 3.8977751220503034 9.579786354015397 2.686062024882827 10.853010885304162 0.4103147839994052 
3.6178764622109103 4.704654115090115 20.40935032082205 2.711537112200714 9.869035724480543 0.17976712535920797 
5.429375983581846 3.3236502076202097 3.379827664851071 2.7365050665556128 12.320633937358343 0.45219247959826303 
5.418703932013193 3.3232064723987467 13.818861707778794 2.73918394929309 12.322350188245483 0.4768611029603169 
3.2534806228619253 5.922557680410549 24.379029902293098 2.7476109626106666 8.709326991845245 0.4991296642044165 
3.724803906439167 4.439001750944577 36.780709233305416 2.7592087267382617 10.327510202801552 0.36333468178983647 
5.63470963444761 3.25745330853519 36.67783867852471 2.7667669591112958 12.671722100552923 0.7017202536502807 
3.632657747481904 4.5559300988630085 18.232321406397155 2.7730213161689283 10.230590554051116 0.6520878582949033 
3.23329169827435 5.6818472264835975 11.718506099308108 2.784940935483876 9.067998881568858 0.591808717239464 
5.3209458263739435 3.2927878193430438 11.764016528698974 2.79107727621726 12.466703504419911 0.3145768684518417 
5.292305959418201 3.299967883067147 23.007562769326206 2.791237053269374 12.437890438779398 0.27421707271547446 
3.2802626642421586 5.335962432053893 13.694571888531087 2.7996280229985806 9.465717753859511 0.6990474606545789 
3.5662489787342455 4.614314379992042 7.767114188362783 2.8005836304258 10.247838455495001 0.5556276081613566 
5.488438095989813 3.2442189636264027 5.451934383535921 2.802860093203167 12.69372152988295 0.8853120114658805 
3.632749034373851 4.497402232050252 11.88208475989422 2.8038682541277673 10.394410810840593 0.45218966527586646 
5.135591687764715 3.3302097070432044 25.027337474906915 2.8062398220087665 12.34539678701848 0.8251659911141859 
4.544699299239265 3.6004549685468135 2.876902956064704 2.8063706967552164 11.69473852430258 0.8902007505069528 
3.3841287499792356 4.976997960363768 24.70160575142925 2.808792546590988 9.871168646343737 0.6909485835424645 
3.2203861141009593 5.566858163215617 8.089759707929488 2.813159292584711 9.272672318786633 0.5952883360279622 
5.2518199590437415 3.286790304022322 9.753701930193841 2.8144769013144515 12.505625343857492 0.3615318848619883 
5.718806965761876 8.80857550816374 37.9494513527936 2.8226168545449557 4.715416423942038 0.0 
3.294497021843421 5.157791916795414 0.37682466441942 2.833559743543315 9.757019713672005 0.5916457840798225 
5.549470951070253 3.1934505377131757 32.9410503436051 2.8424806610058058 12.942437496439503 0.9256381580134272 
5.704403275971277 3.1273211074918343 30.76421113937861 2.8878471986444265 13.312543965306833 0.963106022300331 
6.563302027216144 3.1520354874837846 28.884442080199136 2.9031381362962296 14.247614024371003 0.7176908570127004 
6.210556635418007 3.077377178777338 20.62366124304225 2.9301976472330438 14.018969362391413 0.7592297603131465 
3.066276321415799 6.268574255195714 32.85949853651259 2.9459916416784937 8.98615801472241 0.6274589949706142 
6.2346756849730145 3.0632038940934 26.81606898090569 2.9461575050878928 14.118364723007623 0.4910209905685839 
8.946855671984364 6.105290285191851 38.50489897628634 2.9487360674808096 0.10531267194667748 0.0 
3.0447837022100117 6.2410526893064695 2.1852682664587633 2.9650311576348494 9.073601082598305 0.3774381630948325 
6.244746232482552 3.041512102986278 9.862148352210696 2.9685941715046007 14.234194810098003 0.21689936159652717 
6.711360772462964 8.9046942854421 21.174152036649943 2.990532233646564 3.9792710402001177 1.0 
7.598484619425413 8.534118047518964 17.419260529946108 2.996148754201123 3.0202604119661487 0.0 
3.030440934898973 6.614470748203727 6.095496208020776 3.0324668739364227 8.908020314055626 0.0 
3.0220296350309077 6.5888534540492945 28.642476491751076 3.035631052183372 8.944105847406888 0.0 
6.717182813312538 3.033851899509825 31.15118971916997 3.0516201830752725 15.104375863866505 0.0 
7.4432777911364365 3.280173083617118 14.210417167417589 3.0790435588780616 16.01181273687457 0.0 
7.642523841257301 3.372356970380654 37.026510072289085 3.098772734520195 16.333804226047068 0.0 
3.108918535530682 7.170454136063519 4.030581580181391 3.1190246742894248 8.598877503771789 0.0 
3.0554972975764283 7.049205222008357 26.451446628840102 3.1258483268497415 8.750164228286327 0.0 
9.075819301799877 5.3848280070141605 20.754217275967562 3.136734122981866 19.089496391046513 0.0 
3.111312661223394 7.2328876831690305 30.741032247265473 3.1407843893712557 8.600094467921632 0.0 
7.660550323310051 3.327301234126441 34.99617866059402 3.1465451004788014 16.577018731706747 0.0 
3.228379815401331 7.500865422252742 18.260948256743823 3.1519002940113237 8.337688865543722 0.0 
3.3140863384195463 7.678729935360671 20.335760843826137 3.167375316147514 8.181280596843859 0.0 
7.268073890057634 3.0875526110414864 20.52322139237365 3.1765328872997936 16.273485330815138 0.0 
7.30569278825552 3.0983582781248185 18.462007880189695 3.1818796865106695 16.33968315338763 0.0 
3.2376382362101452 7.594927298932717 7.935840954714706 3.1897391120480387 8.350650791561684 0.0 
3.233379286972948 7.609111945806566 28.60832671839173 3.200536115073177 8.368762472088488 0.0 
7.791755733633799 3.3382214424412027 1.4589062809553752 3.2086529414209606 17.02145889158759 0.0 
3.148381569167107 7.488834873822098 22.349381932229896 3.2168862206448496 8.558269765450895 0.0 
3.5514965329614903 8.102457519127427 1.6316791423636516 3.2273048891970317 7.849084479413879 0.0 
7.606893568314147 3.1934905919555785 29.26116860824898 3.2339761899759276 16.921415656011323 0.0 
8.205062998479272 3.5750630627927578 20.643443573647055 3.277593931025386 17.863981058132293 0.0 
3.5239822732793726 8.179460384944147 24.199286434533846 3.2985923289451313 7.9819642805355 0.0 
7.9986296555809755 3.354913621646485 16.233009525997943 3.3152680810334236 17.768063380872793 0.0 
8.28281862903198 3.584007771942227 39.27441504325474 3.3238952057925975 18.179887773292226 0.0 
8.396673407899089 3.655019912250708 14.069879682297582 3.3530545829245493 18.47093379963975 0.0 
8.246939162972188 3.497371182290088 32.51078892077569 3.36331482340418 18.309901916481163 0.0 
3.473727937402602 8.246752451516784 16.344329863856565 3.3808204792116343 8.16363356054519 0.0 
3.82062906187714 8.596023333660092 20.486634059866283 3.3895419800973374 7.691430162662343 0.0 
3.869162318714846 8.653904789739329 39.36397498342118 3.4034805504051353 7.6486659279290095 0.0 
8.436361797454557 3.620016463354924 18.34084579252368 3.4059037629970703 18.764800282028485 0.0 
8.809567030042702 4.06736098787324 16.245027787929224 3.4100968384339563 19.37153730843127 0.0 
8.950661165694987 4.288769996644421 7.86451500525007 3.4109689882971423 19.63913296867105 0.0 
8.49405148605802 3.647002174735558 3.6087543224315617 3.428832393221837 18.950744720852025 0.0 
5.541574120764674 9.399962838535165 6.566364238031724 3.430729017304161 5.848777713556077 0.0 
4.247241737906297 8.95980896734123 3.833643374464671 3.4398591029999017 7.2424535309272215 0.0 
3.8145888815070776 8.656988962157767 35.134803599225194 3.4402924442350393 7.7720178674051255 0.0 
4.824390214862682 9.236164838447026 10.475884007338642 3.4430830992747588 6.60812329324451 0.0 
3.7164060010823228 8.581859274968542 10.003577232747062 3.44685347347895 7.910419938081777 0.0 
8.716212596710799 3.8677848232813936 1.570540929424336 3.4531366075438656 19.39854922926976 0.0 
4.054734256393928 8.86425253593986 26.64326083770785 3.462369333691191 7.504317071189103 0.0 
3.810319234771667 8.688384616389806 5.794403893694145 3.4672919835589715 7.816366618835438 0.0 
4.87894825776311 9.286255441807974 8.4707582465252 3.4722084956962025 6.595635405366195 0.0 
9.129022303499758 4.408360776907152 18.525337185219705 3.51056918352089 20.405625427721482 0.0 
8.94442813466211 4.0418426424042 38.64248472381137 3.5361048170686864 20.142752451566537 0.0 
9.129479580819165 4.335223972738033 12.13956200275178 3.544731536761315 20.539214173622227 0.0 
4.584612583475749 9.251179474880212 39.79591937074696 3.5459116622862386 7.025859602332247 0.0 
4.10195240942523 9.005598409256834 24.62491332626462 3.554744217776282 7.586034073081837 0.0 
5.094064591734279 9.475569896342165 4.2567818324098425 3.5916994679830143 6.557655589697781 0.0 
4.538041397807564 9.294977815734862 28.963571359473605 3.604747114668287 7.167653890457167 0.0 
5.055604235457501 9.496525894249238 26.76776973209691 3.621819527425581 6.644579715916297 0.0 
4.345905373916134 9.226782915966684 33.277384002476474 3.6260387503188642 7.413379178533853 0.0 
4.651991452533361 9.380686381829129 12.689363044554185 3.6395284662065848 7.097860849822727 0.0 
9.570466484086092 5.150765361129791 7.793339591968824 3.670072258939749 22.202742325195544 0.0 
9.345080580794317 4.472704032339815 36.716897794250286 3.6772540114653918 21.529855855309886 0.0 
7.368030908906016 9.428081741375014 15.602305924395232 3.6909691130204525 4.396296225334908 0.0 
5.237278692142912 9.612399255615987 33.60165023903557 3.6920417353321113 6.56769898769536 0.0 
9.556345240691826 4.925754611536103 31.104496622594787 3.7150497473960353 22.252537308787108 0.0 
9.661169763296643 5.304283075365776 9.806078024537456 3.7266856689154872 22.715633878429024 0.0 
9.681563976236069 5.398940678669861 18.546479692204983 3.730306370645309 22.8345151654627 0.0 
4.993745781559671 9.61206864634045 1.887820204198782 3.7496116409575917 6.9086176092331755 0.0 
9.750288608902409 6.052747605286138 21.08057540931447 3.7506595366583984 0.05274934420917976 0.0 
9.638518718321764 5.001638773113786 29.097327606032422 3.773001935187363 22.69607563798564 0.0 
9.661522930247024 5.036142220283775 0.2508367132942553 3.7862609508912914 22.81519517665493 0.0 
9.793267914399868 5.846615681044405 35.27214162772586 3.796367766657628 23.699856091830032 0.0 
9.703094105126484 5.124833335344379 23.02199533528494 3.805104813582269 23.02510639628346 1.0 
5.300908799337419 9.76960528588695 37.97292338157371 3.8338821732325927 6.7252724928862175 0.9600668744018532 
5.539095696890534 9.815371389224119 29.586244717658076 3.8431096281962622 6.498758884629382 0.7033863282480681 
8.918045897302438 8.501771206806037 33.82183675404429 3.843676759297967 2.724177542267963 0.25289319638951213 
9.846823429933458 6.004618333719083 33.1412297532078 3.8468262022206496 0.004618334828514037 0.8743657426903599 
8.780001563927016 8.676364292214302 31.598610144958478 3.8589291934520418 2.9575088781739094 0.3372880977506379 
7.059384435026342 9.713008672718232 24.195173565245028 3.8611823040173707 4.991983688129366 0.25142967506566233 
9.828170595448126 5.479967157302294 5.8028652552106905 3.8633307217138304 23.752406614947787 0.9997159496987248 
5.610270484412196 9.867179111767868 35.86852054233212 3.8867677288222415 6.495706032304813 0.7007274276082913 
9.885520719757935 6.281618708035374 12.506440092295449 3.895713074699385 0.281864565044053 0.6490095078847453 
8.613035086116547 8.892902576877285 8.502165587153748 3.898312157919034 3.259708506291787 0.26313386047214476 
5.817803548372984 9.894654146026326 31.67609268826031 3.8989134979049647 6.306661828218729 0.7122531073782538 
7.903756076551012 9.414289857868507 8.994642833291834 3.9091766949766606 4.1521262436016535 0.34807092715693566 
9.905372973832932 5.783398353527158 38.25391996064357 3.9113749932727533 24.359181382069053 0.9991650370040287 
8.270043607195696 9.210689010884604 15.1881791329467 3.932126893067567 3.756635486408113 0.23279320779844337 
9.906535347365562 6.461297287590764 19.012808645497564 3.933676856041325 0.4623611744859595 0.7465185085283812 
9.943886104393535 5.929539046797934 31.111987025653193 3.9445154772613775 24.71365698973016 0.9999999999999999 
6.035354992835053 9.9535220755199 17.144652910996317 3.9536801561509165 6.175070802559688 0.46345450335404853 
9.942451433593526 6.348337580920351 3.8246087035777236 3.9578103007250203 0.34878887332248887 0.685780418114473 
8.203394670174815 9.298505613870574 33.85774629601791 3.966747705273235 3.8948412733343822 0.24328234051696468 
6.630461157188062 9.923920488836796 35.984892970934624 3.9742462522390465 5.609595534348884 0.4625400620335237 
9.970651006984749 6.277715417496122 1.8091008227586087 3.9803511493816774 0.27794123575021956 0.7476428765968057 
9.752458341158004 7.4048060723079185 19.419530527383216 4.00679718764495 1.435306139700387 0.5225872054526354 
9.86680217937931 7.073221569064574 8.365922829388197 4.012974411924157 1.0864451044022871 0.8412687778578555 
9.94039483147572 6.822271449082786 16.76678690781707 4.025275364977817 0.8281003598105592 0.9202360890816123 
9.507378259833704 7.977557457085003 8.612677588878178 4.026466907057179 2.067178295480756 0.6401138765565373 
6.89178290166752 9.926981225146752 27.51154782398185 4.026966387538105 5.426306353721365 0.4406835132639713 
7.244146501740243 9.833871646007523 18.967363166030836 4.030691295032769 5.066593919741123 0.7976137973475326 
9.857414206957658 7.246242246973187 12.865615372242452 4.053734587041876 1.2667585422654835 0.4057958763944748 
6.742011585464775 9.986329342022179 8.7317562360792 4.05479997238223 5.623048286451763 0.5279083634997633 
6.985029060801384 9.944111115339311 25.401706440218064 4.0652545726886995 5.390755218596993 0.5372827237778837 
9.917416655207841 7.094925627984654 21.427794731441473 4.067556438614882 1.1085995310092365 0.7746123215655464 
9.784033445717544 7.496855545043935 29.33490699265132 4.069334790974781 1.5328485431036363 0.5694994565196484 
7.330101120212806 9.84881187521992 38.56453132333797 4.072164269872377 5.041575129098295 0.6494109328672026 
9.723387298936697 7.669601962104766 17.42888090468582 4.0805861943778625 1.7200911984674256 0.7065627764800507 
9.934644937889427 7.104004406616536 23.498932952935426 4.086594733648982 1.1178944280104304 0.6544558258563339 
9.945763519395808 7.109578172029128 25.631825072383407 4.098806347076951 1.1235977388472733 0.5826227276903873 
9.893957148766727 7.309894492151775 39.989630661677936 4.108372653131778 1.3331688498449807 0.5106282228038966 
9.444084184563405 8.247186370531315 1.8014004299009514 4.112367013565483 2.377419756155863 0.7146639303633737 
9.07157637293309 8.745697033449131 37.93521375632857 4.119882718506944 3.00519651560446 0.6744324032288534 
9.59707828689534 8.01690101301938 31.439917294592334 4.1239376690697584 2.1074357186249557 0.7718521498420526 
8.212661093683131 9.481113907753976 38.23531607108871 4.1248058323098284 4.143769660917883 0.4404370465456685 
7.9414476711323445 9.654227857695956 12.760227061026733 4.137946386277423 4.479048415380454 0.20654026844373102 
8.406568686108244 9.378532957667858 17.317478711686057 4.14801853744709 3.948312821039453 0.37897630109198555 
8.520939911401744 9.302494772770284 19.495384131152882 4.15470934736394 3.8173866214349577 0.6189074414345423 
9.361831178315132 8.441394591163167 29.490441434778973 4.154794389768581 2.609629233322872 0.6353207310302794 
9.52277371649443 8.204069883301326 27.437089970466545 4.1554613111061345 2.323219030730712 0.5162113768555979 
7.942470796288976 9.678670882073153 27.68252194542768 4.16002551110548 4.513512282974567 0.14041210637962484 
8.647332214537247 9.22238147939666 0.17382170661650065 4.1703849046443295 3.682680919449105 0.4620693334660172 
9.5155855928341 8.272643171113462 10.653088310588295 4.186197444429889 2.4023504298894043 0.36165888854094463 
8.571466340745143 9.308743643607144 35.89840527375282 4.190492052336566 3.8138928225346973 0.0 
