470

6.49796666592821 7.484027939491504 33.91120259117363 1.0021606205134543 3.1643531798794484 0.0 
6.672342177876613 6.923239828087652 36.44609638034992 1.008796196675219 3.783194497256755 0.0 
7.357130722006579 6.50006515945547 7.500020673168855 1.010089756372757 4.616585847704723 0.0 
8.456946515586143 7.838490070689881 12.336646036833308 1.0150478617523904 0.3451000555566104 0.0 
6.996149071413436 8.412947573206036 2.50304770040664 1.042755498504004 2.1638146765514517 0.0 
6.432116154492707 7.492548442306199 18.94028668224965 1.0679098432019023 3.362389336261778 0.0 
6.518133084567115 7.06384252620096 33.00329922076984 1.074381674067669 3.8243939434224075 0.0 
8.238174114562675 6.711388572058198 6.429449460410993 1.0801893388155568 5.902980010521345 0.0 
8.038840126869061 6.5092732835974125 1.7919510236911478 1.1277801687022686 5.876325931787552 0.0 
8.055758247743395 8.501493634592702 28.911759578514292 1.1453631433150395 1.2188684696561847 0.0 
8.214321231326693 8.422776184664986 24.460508218916644 1.1669493170266438 1.0643145577618078 0.0 
7.276827154455919 6.333104818541258 24.377585432012587 1.18804481544253 5.3740226368120965 0.0 
7.707770995793263 6.32009174526479 16.344752363361877 1.198061883328743 5.85456043114154 0.0 
8.5779724486989 8.035446866944662 37.93667273660209 1.2036311509240494 0.5548950040934919 0.0 
7.147388818642501 6.1935748309518495 20.18676908437793 1.3531745517636753 6.019956043701281 0.0 
7.524099623621119 8.920776821942964 28.12829714885688 1.4209811996043573 2.207971269690919 0.0 
6.193437821599664 6.854533791884112 21.295361240803125 1.457302766018695 5.246936737897741 0.0 
6.9080440475121225 9.132680898461155 38.74100554365689 1.7366803867971097 3.3320338734208086 0.0 
9.212005238719414 7.032624468002144 20.772350705636384 1.7746554103016705 10.677534532690924 0.0 
7.246600652371784 9.264280276607648 17.46512538383925 1.7823849538764547 3.0540245601153373 0.0 
6.092681029381634 8.66136863781841 17.767908402443354 1.8246434714679296 4.473392448256288 0.0 
8.777653088895562 6.191624984193005 28.02205274531628 1.8287270429324103 10.032227832319741 0.0 
9.302369648238058 7.0374273900871795 12.387220282306416 1.8607820313866226 11.224163850382457 0.23792539379313554 
9.365869489104673 7.414855754579287 14.702147783468547 1.867811150223706 11.650629814411179 0.29390793292634876 
9.292613299648878 8.04537916873847 22.625801038897364 1.873739811118901 0.5533890792489373 0.40127616086427625 
8.63660164743498 9.007440917616206 35.46659988296104 1.8879198672230535 1.745842292242152 0.3218225743070151 
9.067474782737365 8.624954279322278 31.330229396842412 1.9293779632521617 1.2010324328688053 0.18529605504484875 
8.10330175603917 9.3364059814856 12.590448203827556 1.9329666157686312 2.4227440672518608 0.49170384861428906 
5.637847096785476 6.979081548248358 14.778857100818456 1.9336415046035835 6.602148482582386 0.60935054978258 
9.28965137824299 8.24401741678904 19.60257603420179 1.9381470460551915 0.7636210969270785 0.4169458758251214 
9.422727315450569 7.762809652594511 34.703511158635095 1.940605380564683 0.2636196938112061 0.3295292104891965 
8.848664980809186 6.0988155447215195 10.723173408645323 1.9447917904431562 10.654912168986526 0.5064894012788353 
7.512549966867544 9.444985790765474 24.816088545700055 1.9450262795006088 3.0426900814084945 0.4534354560183292 
7.838989021589525 5.580004015420938 3.955563879561012 1.9496918057882748 9.528426807645605 0.5999660002064118 
5.772393829919842 6.592932469962868 11.580413510378001 1.951254617661851 7.073441143202283 0.4621023663225186 
9.196811881868172 8.463808551275012 20.728262187236602 1.9514347250061563 1.0080454684126643 0.35802144374662964 
7.20070224819168 9.430391955106558 4.895083503727527 1.9534564864817492 3.368963556610609 0.3108937583208907 
9.453538046014737 7.489376893654004 37.958869800859254 1.953566929392363 12.263999868649723 0.3828359076201938 
5.9224793912026055 6.341814421961873 33.5700605274761 1.957029663637222 7.387576523517357 0.6846078854587072 
5.76536859213868 6.58811996172826 32.53156648515891 1.959712051638561 7.1050950928297425 0.4829259493530631 
7.201802799431164 5.56159052898424 15.8050480278024 1.9612120863768636 8.942635928946437 0.5852230362065898 
5.747262894252106 6.612577581369868 35.87625123884586 1.964587974857034 7.092698586187737 0.42722447046255985 
5.623508265413108 8.086095432011225 26.8279940017606 1.9658914225860373 5.580885490364185 0.4272102044536351 
7.187888669323355 9.442135532367248 13.294298184747667 1.967054627817988 3.4032781954153233 0.25841304881796096 
9.457765034269967 7.303846605002054 21.88860624796105 1.9675670468320288 12.166108582169926 0.38661843866924434 
8.583961406110369 5.856766886459859 6.8536690592081015 1.9685495663994832 10.424492192829156 0.7340438278784283 
6.5126968611896245 5.7938737267933895 22.460282680142633 1.971201244934341 8.25498200327494 0.6302355615286476 
9.257965476780434 6.606926724849533 6.9668497722984455 1.9718069105112317 11.462401604223878 0.48064492270121884 
8.991554683624578 8.789866716260958 23.715357460007105 1.9719258403804751 1.4060073842629528 0.42910349114382457 
5.5968236463441645 6.981884270843382 10.401099507797966 1.9724411631058159 6.720873654892415 0.5677576731062639 
7.073343549341722 9.429702327060054 22.802753419173307 1.976306352251422 3.5344168821189648 0.5809575440752669 
6.355539025957258 9.1133229786558 35.712609458349625 1.9780298163995633 4.3275152024700905 0.5578880588324068 
6.613240432349583 9.269579509344855 4.0694079805565835 1.9793317485234052 4.028601327232707 0.7530512084971601 
8.72469861737333 5.944991664420689 26.624716876874245 1.9793780909965841 10.648089741497287 0.5701841196919613 
6.475349594402404 5.806178077176197 29.182675640256733 1.979631571765271 8.251796199237724 0.6389283997617016 
9.104747587347825 8.659716715503937 4.6231389632394695 1.979938806962954 1.2390158027438325 0.4633461014460357 
6.675089098720914 9.300761152016772 34.5945932708338 1.9807116705017496 3.9621316441233603 0.7443083423895981 
8.914199060917015 6.111956230828019 14.359176777046471 1.9815712172505284 10.912751615367656 0.46997963868804343 
9.297165386013102 6.6581848683930644 15.4131357719776 1.9845543934309324 11.599969098117738 0.6942258247110675 
7.50688642531521 5.514938559775828 23.849940136777796 1.9850733851216908 9.361324384430324 0.5766957173897486 
9.281290733523132 8.377302185749222 38.665094539028786 1.9856121984052555 0.9086897724227381 0.3293523664028657 
5.649079377896875 6.779383918918111 29.538793124288702 1.986251415516283 6.977434497373748 0.5871481243032645 
7.720775837119868 9.476187863012381 14.804802761039156 1.988481943637769 2.902268174656017 0.7283724864556677 
5.511253965513305 7.57135718323352 11.329445107477866 1.9900257880956147 6.18047791294679 0.6078554236748399 
7.76223897062089 5.52723757609918 20.796375064454743 1.990115790316568 9.641203580938173 0.7369085141443366 
9.49017978518233 7.51712469509053 18.858835562652047 1.9902534593690149 0.017124906398064965 0.428823590896873 
5.523429183269945 7.251823753146619 33.251695058033036 1.992090269804847 6.507158894228754 0.5610724940722683 
9.229544503482197 6.508036681481737 16.7893156228604 1.993819303450354 11.489281632633626 0.5916350543519932 
8.026484686062394 5.576828984839173 31.509978244810704 1.9939340205264928 9.92899533421887 0.8043603670546218 
8.68504946572809 9.104948507829794 13.398560440502777 1.9950443476292783 1.8649247547187553 0.5960733914633277 
7.924735161922708 9.452138828882926 1.123948246910949 1.9978102925467969 2.7101514282569923 0.6411561836261134 
6.944208913519608 9.419869652319466 1.831398173796451 1.9987003811748059 3.7027665490562427 0.6323822907729587 
7.497090587283221 9.49998722354087 11.756117632407047 1.99998933972386 3.144485322210116 0.652402811725217 
7.380640266325974 5.503484928082859 16.90184356258117 2.000079793012026 9.305723281015943 0.7264943459935276 
5.50453635839783 7.637450626249825 2.9904500742804316 2.000191945692378 6.146229285925356 0.7587186611142338 
6.347874385050726 9.136756131156632 2.754610123467728 2.001590384044915 4.371754118689328 0.6993364113725258 
9.502331500643148 7.466493221513293 5.606315715687529 2.0026118302537794 12.549272885811678 0.638984394474369 
6.937483710580651 5.576727755922846 5.104177195504747 2.0038464763298807 8.872724818058446 0.6459997690361634 
5.496883926668522 7.593826279530852 30.194570876501494 2.005312288390396 6.206013806016292 0.5833929420609527 
6.740674408970142 5.643333901179949 3.980775309045711 2.005937276113218 8.674017002506767 0.6557431097444392 
9.075905087952563 6.258533415005219 5.99002247440756 2.0061695162406847 11.266527828996004 0.5097463814041929 
7.986048004756249 9.44824660103762 29.737892883431037 2.0079610258623486 2.663173576667287 0.6351953734947028 
6.385852604363137 9.171493929116755 10.134496462091079 2.0087848003901687 4.336411136375405 0.7624023587037574 
9.378573732671628 8.213013860860366 28.65187595573738 2.009335222122685 0.7288949732513998 0.6202829076494675 
5.631764348854327 6.75458894876785 22.844665988014725 2.011452729623719 7.08278719322019 0.6626013736789698 
5.4992185414042165 7.276745997910526 21.905750348901392 2.013198647553102 6.548364220975591 0.5523006218468571 
9.512987184911193 7.550737951616247 15.831686619063824 2.0136265161024545 0.050743322104938926 0.5216850607358465 
8.09967490230659 5.576173884463662 38.87396658425438 2.0151220586545255 10.10493742887864 0.8070017289979223 
6.908902989971352 9.427418509776983 36.62157326232041 2.016020284395899 3.7666687639446312 0.7132791889139982 
9.490044406674494 7.824964783655908 11.72829156139214 2.0164024526748037 0.3263881892208573 0.6037743864437105 
5.492081826781568 7.309187420976956 19.45498479712444 2.0169642611246896 6.527578461983005 0.6094417396993341 
9.08838404414095 6.256712815852442 2.603759591754212 2.0171085478841055 11.334252933709394 0.48586333416599214 
7.427753371311397 9.516497799632461 20.504266093682325 2.0177916025396225 3.2418017116092095 0.5092639793981802 
7.04771148979966 5.53283368592537 32.44727719270635 2.0184915664151797 9.055755957406264 0.7637782600826766 
8.875838734351053 8.977723970195317 29.474942918232486 2.019059274768953 1.657824483730419 0.532323437015983 
8.968313283849877 8.889336698922314 0.9370391029642775 2.021435223424773 1.5317795270960346 0.49862011881150226 
9.49243131286796 7.158128766683284 31.47734091463071 2.021548534333573 12.35824192790264 0.5866199361497212 
9.416898828883872 6.8578230412482295 30.23901847637768 2.021606382688786 12.048628624233881 0.5815183124527022 
7.333860401302648 9.516128126228978 8.689831509793358 2.022961934300021 3.3439881073305244 0.5742796038163486 
9.082050140164306 8.761881695831274 5.768979553987386 2.0236669835395116 1.3625161361296652 0.5684420027118758 
5.849922335422846 8.671765539287065 27.63080720484082 2.023806012985707 5.108292792016535 0.7008509811050132 
7.6617992946089934 5.481965184384437 2.9442013178949935 2.0245106887276503 9.702253893565162 0.7323514860517097 
6.085524014779766 6.051552996517188 36.69521615261587 2.0245347699318685 7.974351151217183 0.7458390346804991 
9.352808058116043 8.317465138400955 33.282043347253364 2.025128873114163 0.8414706200047579 0.4569590196989046 
7.470068051758256 5.474345831990512 1.8179706837139946 2.025875299691407 9.51677940054957 0.7214713803753561 
7.384748724951825 5.477138453034534 12.659026875717814 2.026142071670135 9.432656054795451 0.7497333697439216 
5.920412932848828 8.770217421070925 5.117922380983096 2.0269552534536404 4.995085083127611 0.6858472610236879 
8.0460131052884 5.547788269500696 27.282734779520112 2.0271312122913425 10.105471521033161 0.8074998793058459 
5.557001066106965 6.921579601490535 25.916089170325833 2.027267869454188 6.95542046340096 0.5765087753680798 
6.474503380320952 9.249557617873315 21.99964345950601 2.0279534450355827 4.260663174297669 0.7121208545595598 
6.46956470289301 5.753092488439075 19.42770196613401 2.028172269673351 8.476658473525676 0.7923384662631135 
5.47252267515915 7.421266953835552 18.361470177229208 2.0290054695101594 6.453061495148567 0.6631055701929787 
8.356022111962961 9.340235892345554 37.08952008564997 2.029591583458693 2.3043964024826504 0.6306600835230634 
8.644520408480954 5.823710004736466 16.33638652285449 2.029747549241047 10.780917439334734 0.6517929951954428 
6.875581012921508 5.568262550823777 13.548066531311399 2.030149906773879 8.932147601019876 0.7729053481891596 
9.529612856484977 7.573155391512568 32.588383968585866 2.0309308354831987 0.0731712204292112 0.6421141919600717 
5.971837672175996 6.1587739830158 9.593623177663673 2.0332651890040756 7.852336505061663 0.7903412888206561 
6.6077653386012205 5.672131027615542 38.60097869874252 2.034007785434267 8.66138223558072 0.7655232042253552 
8.912453143480766 6.034852076022855 31.084116181462015 2.0351123609430593 11.151351655452904 0.5380633033761129 
7.063254802657413 5.511813830287879 39.50508234489256 2.0355909738541227 9.152329071946287 0.6969170714164888 
5.611792079055885 8.267118539638467 35.872770050497905 2.0380873402710558 5.616346065897538 0.7547217408725 
7.131986124238457 5.494599200410253 25.600994551275015 2.038888564818646 9.23799398145955 0.6953760141638116 
8.705802176710458 5.855814854619254 24.742358568957144 2.0389467088794593 10.898504705248914 0.5560794252092348 
7.4352215272660676 9.538293939241441 16.339955863272586 2.0393230330867453 3.2681505007385105 0.4181495546210521 
8.24773278854002 5.602228462869013 8.815503813378605 2.0397649693536604 10.377747306034303 0.7352414033172061 
7.8149451170633135 5.483951388950361 30.357780949156634 2.0405005339076006 9.931841435680901 0.8511079350312527 
7.058803132593841 5.507599563435699 28.415916322639106 2.04066513064506 9.17169944735461 0.6531974333516175 
9.4396474337155 6.865871709832778 11.293772235258842 2.0406741179104326 12.177129128219743 0.7189749524137776 
5.895966816998593 8.762626780099101 18.80387891628596 2.0413595562744598 5.051817196369225 0.7823722782709273 
8.873946767490558 5.989330195120456 35.41159394462535 2.0420217871689217 11.1298871887562 0.5434614757770648 
5.458390105988945 7.447472809474647 32.095360046621586 2.0422855003814524 6.468562107978556 0.654323818280851 
8.857775783179374 9.028672896512457 37.92896677413813 2.044601648713055 1.7267393526046622 0.4481294465313867 
6.086028805482355 8.983383378803744 39.6879225862886 2.0493269108262977 4.7795262561460845 0.784487431771667 
6.290808755980718 5.845102987326637 7.643136655069526 2.0495920538409873 8.365146126497464 0.6872682436637695 
9.375848015728186 6.673622780808602 17.78366565106372 2.04980610949179 12.028733844995147 0.5681486916763954 
6.525167101186399 5.691162075228803 20.80954045060348 2.0547977561550654 8.667314231854368 0.7208132179626274 
5.545597374931626 8.13490032724383 31.063528389653527 2.054942346249275 5.810330132248598 0.680419886567359 
9.546396436896687 7.308079589072046 26.51285347745356 2.0553763210356912 12.722109902383927 0.7332829298354018 
6.0207060278806335 6.072921142578064 4.652078164234169 2.055447572002116 8.034800092535042 0.7045678727045231 
7.424248929526334 5.445291955948479 35.528158863249836 2.05610393000158 9.61339328470458 0.7056651530990106 
5.448448591557694 7.647074393583043 39.27534782620726 2.0568164864006286 6.3144795466270995 0.6379122541488286 
8.909761349010857 6.0010696567924295 13.305017522086725 2.0577218555852674 11.249854891774845 0.4359767343546125 
5.968832576602539 6.124462850338405 12.68597556144583 2.0582944708113953 7.972803767130134 0.7197162639946731 
5.584765782478346 8.25462179313215 9.662505898595349 2.0585373833466725 5.69445075236748 0.7721658272835508 
5.807343958535824 8.676967065669452 6.126337604448452 2.0616342906480094 5.224187074255777 0.793983487436504 
6.303621404293082 5.817684748960723 24.43352353941674 2.064341625832558 8.45186647031872 0.6895032851860988 
5.722443642915206 8.550341659207122 38.857945910000495 2.0646850131868892 5.3844879894182505 0.7069992496884784 
5.438982188290812 7.374195676993029 5.064208444515089 2.0648537836538874 6.612811762528082 0.5323323913094637 
7.216625683043512 9.546586297939596 9.716722913531022 2.066111439014038 3.5297106109402847 0.383145915980175 
5.45273204231248 7.788877801103192 7.056510464745749 2.0675484213300166 6.205568880127341 0.7226163626507507 
6.141668800341346 9.058952792557555 11.688316967143521 2.0677034258783618 4.729939003157459 0.7804780025460452 
9.121933964274874 8.784208850082665 17.710158811252978 2.068782771365578 1.3854769133035756 0.507994982692495 
7.013995778678206 5.488813040131561 14.758407933315283 2.0690754192845318 9.259700179648895 0.577891015542687 
9.073796118174615 6.153785611122245 38.7706936607928 2.0710208599632685 11.547118821376301 0.6826148983910958 
8.403646815130601 9.366186163422498 19.679570615411293 2.0734580687935917 2.3219646920649097 0.688538648008073 
5.657613533530162 6.546742383339977 28.342957108974034 2.0743885787266465 7.507349394393906 0.7292020297722731 
9.570314994815803 7.34434666340454 13.67425705973477 2.076158023598506 12.8890860672563 0.9448289666815859 
6.966198980953035 5.4917676927627515 36.45967674430555 2.077965478001745 9.25232811062481 0.5797003470343106 
7.982930209795503 5.477735930562989 39.90891247600436 2.0791280754366865 10.285041880621712 0.5632165319432282 
8.298649844870226 9.420698940136772 28.529031311533764 2.0801264368671815 2.4477546414784204 0.5976058037492089 
9.544266394691661 7.888439476653925 25.663509362419475 2.080843655705258 0.39073160958864683 0.5455732762191894 
9.22366153505616 8.66645656560933 8.807429868222485 2.0812568334747334 1.2382196894966118 0.490319462962036 
8.464684063969042 5.655393440109808 9.851491923636495 2.081631260349861 10.812508190094587 0.5484415257377074 
9.062662406590608 8.875963651286206 32.495718744447885 2.0821118525747897 1.5031822541846864 0.38215431825812185 
6.231789212949677 5.847137881365617 15.875616446624562 2.0833414947164415 8.454031123541114 0.6055768677300314 
9.55939253879712 7.184778172389791 39.21760402591558 2.0833776492645697 12.773810734197067 0.6871462066799771 
6.32633040881824 5.778197268830645 11.79586578844738 2.08377180956241 8.572811868058466 0.45900033206902213 
5.528231068019618 8.178975207434375 22.441292308665854 2.085396857539018 5.859885162542845 0.579022169210484 
8.828530016207624 9.108848173764045 25.39658424850716 2.0864765635368467 1.837229095447686 0.5212274769551596 
9.559545385266892 7.837761950735189 35.72654829886739 2.0870578164819964 0.3392539922443394 0.397565475017096 
9.134509780599803 8.80199254701078 18.776007479370705 2.089690602780238 1.4056150080260714 0.49750358954215457 
5.816136713095032 6.260837780825669 8.525667416635649 2.090674191359198 7.894409383023671 0.6989209067106916 
5.683181495887087 8.534934878107675 10.688096058347977 2.090913599078361 5.48612842617834 0.6919948292469505 
5.471174565148081 6.989847239730068 12.469894344327763 2.0919819511442035 7.087504501096234 0.5395610664646722 
5.712877120831497 8.588512058980738 2.120085304374811 2.0925263887927446 5.429099108008799 0.5838552977622564 
6.0502986154544764 5.989930157431017 0.43675039061059096 2.0933095886154844 8.263097436665642 0.6544546322881886 
9.523926763551476 6.9634127388458165 33.88043846253605 2.0938494294129444 12.613402776682598 0.6611405787648476 
5.863453409944544 6.190048876950764 39.26401776543645 2.09624824059559 8.000540009740426 0.6986711014441981 
9.576844283223686 7.784720388798451 29.54553072935552 2.0962699913313756 0.2856031437900661 0.27787798901565297 
5.993722299903363 8.96486324623348 26.52498800357445 2.1011179976322376 4.97992803862363 0.5138400109732015 
9.20249983380548 8.734592680381636 36.61784013403475 2.1030275249172554 1.3194733294762528 0.43248020825322786 
8.22186530912696 9.478169436411356 7.743989514260889 2.1057644321416804 2.5709188726300916 0.6097344849110772 
5.98708458188759 8.970313525295442 30.71080728376124 2.109676497719251 5.000933251077598 0.5081594987005096 
7.407746433540428 9.616968648904514 21.514613951705073 2.118977815119618 3.420765303645137 0.18865978360736713 
8.419481486699201 9.416231665358247 24.354319766020467 2.125415253475004 2.387707904755061 0.3064198835782499 
9.627592926349639 7.594201998699814 10.619617419304717 2.1296773644878813 0.09423274438132445 0.3451044910232036 
8.81895422993841 5.814581458390606 17.409011023674793 2.1401579196576015 11.506365931900234 0.3281763641197131 
8.412505383672926 5.562589869915385 5.516801298855441 2.141547124717678 11.034455135525302 0.22325203943794325 
9.579408996092614 8.017383995773757 0.062348789022507844 2.142808431034775 0.5225477868951351 0.269635465748582 
9.521692484030975 8.222330105027131 27.44639347364442 2.146858467765361 0.7367036191327401 0.5421272003473955 
5.40876892229336 7.985621836048741 15.331201854986425 2.1468758669316257 6.254748024299467 0.6448969025094154 
8.712508714357881 9.289145456184835 9.51504992399277 2.1613002673808754 2.1076832815695354 0.0 
7.526285185673313 5.338582887144344 9.478891028739945 2.1615769351867065 10.212477163143305 0.0 
6.556086301380244 5.545011424872225 8.73657302966086 2.17093376207616 9.25377243958956 0.0 
8.975262132312618 5.894721363637174 1.1278604741097666 2.1802105080469794 11.894370482399903 0.0 
6.499849012765491 9.438497031158846 27.480546488221762 2.1813006984544354 4.46537472874871 0.0 
5.404479124933129 6.893190689113792 37.21783187303584 2.1816107071655155 7.468651528724461 0.0 
8.436649087474816 5.527777039067976 2.2093581334358063 2.1833403126161737 11.256805808023863 0.0 
5.501951828890274 8.433172524614017 25.786140832927778 2.205222767606354 5.9643718145358875 0.0 
5.172454179819409 9.23611983430777 25.28475499819502 2.9037185855583485 7.261386480499947 0.0 
5.782450299640086 5.152771794487553 17.173854621360967 2.908514607486029 11.868717768657689 1.0 
4.872092898692365 6.2355589379909375 25.241732175865124 2.916283067947573 10.46961411532562 0.9832445871516108 
5.174666015967713 9.273228339528563 25.254426238511517 2.92429767318628 7.281780761491042 0.0 
9.653790976027988 5.514795042464032 12.143904412241369 2.9291388310978004 16.223023056418356 0.9147536259059624 
5.2366792981197765 5.633077200867207 23.1887948923249 2.9339429676599718 11.240843308025195 1.0 
9.575868404838506 5.421192885860135 16.333368658069244 2.9377999680041667 16.14932091364868 0.9141793165518474 
10.25154065043137 6.46789506233725 4.133157104387102 2.9387440435199723 17.410078680961675 0.9999999999999999 
10.38417936317374 8.068896068614611 32.80829063837246 2.9397505567381796 0.5725080794740052 0.0 
8.743377567308816 4.833097614660769 3.363545084291861 2.9425084720039227 15.1499571469216 0.9992182974113328 
8.9804821996627 4.955970494971794 26.611458235047465 2.943452677719172 15.42200264303786 0.9825027455989428 
9.03474217675426 4.985238879994986 22.349046655133797 2.94609182473956 15.497452968988448 0.9815385818421294 
4.555590642522651 7.615261214260089 1.5949256906295162 2.9466644892000993 9.141928884820903 0.0 
4.565637493923953 7.16923100445231 16.51860936513679 2.9529462313900208 9.608418808212647 0.0 
4.6671920035631445 8.335035086427299 20.439591141204755 2.9533175820153907 8.431539231493119 0.0 
9.005641983626845 4.9581281944343925 0.29878562520125485 2.954330729418958 15.501828515947643 0.0 
6.182260811620846 4.855804160427606 9.974446742675745 2.954354109886308 12.55618510141215 0.0 
10.434678453720084 7.849678832998375 13.973861265778943 2.9554378546970037 0.35049987099523605 0.0 
8.170135462507435 10.379283392925993 20.141453170719345 2.9562399082093203 3.967639128733783 0.0 
8.757180979388934 4.824370566068387 39.15003900776954 2.9562640076046183 15.22960250794835 0.0 
4.56634357134322 7.881315279577924 0.5218667153039434 2.958334224498449 8.911501952715778 0.0 
9.169686357374598 5.057890520638171 1.6665782589317146 2.95833589052896 15.714963864851896 0.0 
7.789087062960586 10.444864269730987 35.07162590224473 2.9590195837657793 4.358468169432371 0.0 
10.449671618424492 7.742822329798312 18.034466911502562 2.9596495299929795 0.2430955751861461 0.0 
10.040159144589214 9.020984265102012 23.720204910603158 2.9607096471163996 1.5973573770234175 0.0 
6.465668689970558 10.274284970356145 22.692856237534592 2.960827309326099 5.707472754786888 0.0 
5.538478281955509 9.718516478681355 27.17259091295695 2.961314373135842 6.795595624811817 0.0 
6.903636155036676 10.400942303205424 7.916113326587549 2.961607010071769 5.252550831752618 0.0 
5.339870403674423 9.52700894400744 2.1234272765098794 2.962250011732271 7.073783520901113 0.0 
10.46293339234217 7.449891698889665 21.18436760463714 2.9633570708398347 18.569210918144716 0.0 
5.89779848584884 9.993914895457118 38.77957951369694 2.9642302875672737 6.348911924729158 0.0 
6.814746552468764 10.384242316462897 25.823459982000358 2.9645279603047543 5.348176912063774 0.0 
5.853055120313355 9.965871967289138 30.43513682630182 2.965291216017148 6.403988813375424 0.0 
7.083594163576992 10.43594589812121 24.69217273707924 2.9653283354970865 5.075713509549821 0.0 
9.508773874168464 5.318296573129393 20.494842555573975 2.965636916475235 16.182126178823044 0.0 
10.455979240236223 7.260028623399252 29.443925093183722 2.965703884458999 18.393833059724482 0.0 
4.65580490775849 6.659406727025962 36.53274811940351 2.965812329413292 10.16964923287815 0.0 
4.631831875538289 8.255328447190623 29.8466092817785 2.9659584375566705 8.554092455010743 0.0 
4.780080899460794 6.31464897308641 15.612959927236183 2.9669878615328242 10.540457277075426 0.0 
7.437568653690365 10.466707078509701 27.742875261406212 2.9673639080304257 4.72356028013299 0.0 
10.19004197276117 6.2472128426774045 34.57194286362407 2.9674570724391707 17.351735375509143 0.0 
9.113850504971994 9.990318489111234 37.77553076886069 2.967524158218029 2.9550405696598574 0.0 
9.427265856826642 5.242556272394699 2.673549209206193 2.9682327850413346 16.08499961927805 0.0 
5.513865088877761 9.705881761899994 27.285930337794554 2.9682732745927494 6.83837359076324 0.0 
10.19093183162485 6.247019730093365 34.51992032584122 2.968345276282249 17.3571296240034 0.0 
8.926630212821232 10.103173586805628 38.8465861105135 2.968465342087865 3.174663885249622 0.0 
8.899694966375316 4.881624168983166 21.243599437956668 2.9690129658439517 15.448681746332845 0.0 
7.20028248306607 10.454048834596032 10.98518508854253 2.969214560643131 4.964260171729155 0.0 
5.091647584844317 5.763066946229358 1.2454889286113442 2.9693598281224203 11.18383713173812 0.0 
5.990929509518715 4.94255997263258 1.4953259678989284 2.969476930171793 12.410342088577544 0.0 
7.4174783065239644 10.468455710657478 27.7494918424106 2.969602521555565 4.7471730508508685 0.0 
5.834341210475156 9.958849648384462 30.425032090578995 2.969909223609662 6.433424559649559 0.0 
6.769352184220855 10.378824171912838 3.804859232742025 2.97009677342212 5.403642540246832 0.0 
7.640811312250976 4.533030686641206 29.351773008110982 2.9703088613931365 14.138114854619936 0.0 
8.325936939325043 4.646598589989951 6.426375529390228 2.970533863531765 14.835278118801352 0.0 
4.762900277045297 6.345062585151416 3.1415792526437727 2.970790353696442 10.519220258314661 0.0 
10.301015392229221 8.49199481768768 3.595465396507379 2.971488001965384 1.0114111850525358 0.0 
10.02202972498765 5.9282605105380615 37.59036045831429 2.9716996746736264 17.015590990147935 0.0 
4.5283992782147084 7.472898629274459 2.788184814686481 2.971724303163076 9.36304898572008 0.0 
7.782897893940575 10.458253483312157 8.694935211398125 2.9717494662108583 4.384686218902022 0.0 
8.94465978869108 4.902950347676438 36.02096305423411 2.9718191064893045 15.512993693656208 0.0 
8.70270906529611 10.217709353638082 22.071652194643924 2.9719443511945745 3.4300967130182656 0.0 
10.470170133675209 7.603349266795009 0.263073200745886 2.9719676468500236 0.10337010782761702 0.0 
5.010251489567196 5.877015499797155 0.07090871253848974 2.972023945580025 11.05378661153167 0.0 
6.637457318140418 10.344357637497295 21.59863355037872 2.972263488996009 5.543952872567566 0.0 
4.900327997082231 8.941235665995345 0.12259613159649518 2.972449287656821 7.833545945031677 0.0 
9.674962322484317 9.52618374955542 3.8987698140594915 2.972521100209188 2.229388300403931 0.0 
8.698509686440278 4.779801603808387 39.11211165665371 2.972524984442452 15.241311021485211 0.0 
4.558652950313828 7.929709449900285 18.410541440686146 2.9725700459419206 8.90738390529602 0.0 
7.128084940960752 10.44973243209474 28.87521428997769 2.9730863142686763 5.0430050004754 0.0 
6.217901983083001 10.182677595403517 23.7785930935853 2.973303618176674 5.996030145150051 0.0 
10.405604953541589 8.131607914710942 15.005187780178787 2.973460728506586 0.6364567347690446 0.0 
8.82400142860039 10.162446354103421 8.469905649703627 2.9734828688617796 3.2985470789046367 0.0 
5.67633554781392 9.848630419864742 17.796232991816993 2.9735192757541036 6.634011738620812 0.0 
7.36007456042557 4.529771098462486 19.785806097876545 2.9735229705130664 13.87241974688105 0.0 
6.489303920750022 4.703481610066092 16.552095438393323 2.973553710604504 12.981297662470594 0.0 
10.454027068784566 7.840422349565223 1.3843996821602502 2.973577525338028 0.3411703783583597 0.0 
4.943483459445607 5.9809187447329695 12.629109890144875 2.9737828909037463 10.936789229681697 0.0 
9.690083716445043 9.511849184486204 35.48333375969163 2.973886989472791 2.209616777873169 0.0 
4.835882411115334 8.822129840512538 1.3428288543448161 2.9741469100530953 7.973482719226203 0.0 
10.332046514221291 8.408965773918816 7.770656933270878 2.9743413114282644 0.923744179042334 0.0 
9.39600060341053 5.208239062800967 6.830650750568736 2.97438842140775 16.072295092520573 0.0 
4.651794310756921 6.6426650246967895 0.970975471224655 2.974440940431463 10.21415492137356 0.0 
10.36770493098314 6.709234712038242 27.312007075786852 2.974733822013369 17.890416197557055 0.0 
8.609105831928654 4.73920110762799 20.28212501029475 2.9752523036779026 15.157092591190938 0.0 
5.689001712665169 9.860643184941475 35.72560356936616 2.975290077175723 6.620590548074226 0.0 
4.701633375840823 6.488651678582951 10.460163843599535 2.9755136011184886 10.37976065051847 0.0 
7.208716189958077 4.538488187881628 18.725274009374566 2.975802155942021 13.731386313973939 0.0 
4.554403761255275 7.9239866691445275 18.44534690535282 2.975953947445986 8.923800784918615 0.0 
9.91816205849175 9.235044483323472 2.7890430193958125 2.976220270786466 1.8523347210271304 0.0 
6.623648341118679 10.344363851420757 21.60226401591084 2.976306091330862 5.564706226210905 0.0 
10.272615132862986 8.582571491860667 25.636309035960018 2.97646698452549 1.1079833764011155 0.0 
7.915974616309208 4.552615817923629 31.50647176930471 2.9765934217100583 14.444206668863576 0.0 
6.476730832627021 10.295325293405082 4.818049707375472 2.9767303009924158 5.720412847878766 0.0 
10.143986078958124 6.132343638274678 38.75811815309884 2.9767677621023934 17.28256841168686 0.0 
4.528505834068886 7.678305513493438 5.890894568282501 2.9768390004003917 9.17360323013052 0.0 
9.345911953378442 9.835623494093893 14.529244846332041 2.9769998397361057 2.6851941997852613 0.0 
4.549216629306201 7.894278557252049 4.824066220065177 2.9770082434336347 8.95710682377399 0.0 
5.642425152978797 9.826469809310344 13.492561272779191 2.977086845545215 6.682347555441968 0.0 
7.170656801867191 4.541075354884104 28.178359936248434 2.9771970034968422 13.699691720766175 0.0 
4.523285459181704 7.4446239520062765 15.43225818861469 2.977229578687287 9.408621813879364 0.0 
9.036284213306375 10.050441230192257 3.054438700565292 2.9774014933695083 3.0626838420485356 0.0 
9.867352858052199 9.305871573432 34.440605667076966 2.977504272752218 1.9403131141448284 0.0 
9.605147487982315 9.605715588997407 21.752694386166233 2.9775298634782725 2.338948194318281 0.0 
9.416389858046458 5.220875046117605 15.13714325416521 2.9777442206194866 16.114193209787686 0.0 
9.775241153971749 5.578785279818229 21.633875306553747 2.9778831927679414 16.62239821271853 0.0 
6.346214490359822 4.75459878480728 2.676155067247734 2.977994095802962 12.848671689141476 0.0 
10.036624797071141 5.939370034158413 37.62580929821503 2.9782597689588632 17.070301216790497 0.0 
7.64066658348697 4.524939262324326 34.60694241115759 2.978384374215193 14.176024635439678 0.0 
9.253133177723377 5.092026763561186 33.01308542008421 2.9785585517562163 15.910553407989546 0.0 
9.558517509851354 9.652962021646378 13.41784624353945 2.97871445509909 2.406264813014296 0.0 
9.26614206049449 9.898685513665503 6.057380854922975 2.978749732910848 2.7884783843786387 0.0 
10.269325882422825 6.402427515462872 16.675837834667405 2.978897648773782 17.592907746068505 0.0 
4.876930031738908 8.911940056822145 0.09940334971652831 2.978937861462062 7.8876132487608785 0.0 
6.918661947112435 10.421747180548243 16.291465055785117 2.9790200601501047 5.26452619583122 0.0 
7.376857382722976 4.5234765357721685 19.748712381272732 2.979069659690537 13.915357323728681 0.0 
7.202802836028704 4.535712139856498 5.9218855807556 2.9791489845368133 13.741216516144625 0.0 
7.932499541423605 10.447695190643982 3.4115198058385445 2.9792554087015217 4.245770207767187 0.0 
4.6338020151420025 8.314414956152786 20.41893792672507 2.979658136298423 8.535959928959556 0.0 
10.132256719882244 8.89655448885977 22.58141281879987 2.979788562921808 1.4535141481500027 0.0 
4.620632187631362 8.267119726123655 33.97646331964482 2.979803965550855 8.585473867192633 0.0 
10.469571580453573 7.25146940637376 29.518347648961658 2.9799534941682806 18.47478039412517 0.0 
7.5763179381815 4.521000220327224 11.535806439237774 2.9799772004125673 14.119138004292171 0.0 
6.516498866069307 4.6866757614482015 20.629303693750664 2.9802798109684288 13.041949665963191 0.0 
6.077053176510589 10.11870044093382 37.558670307478096 2.980330461849091 6.164938816795416 0.0 
6.351729210117469 10.251099697298248 10.212198825151567 2.9811198149977063 5.861478684362574 0.0 
5.923623427272041 10.030359156328789 20.789361176163403 2.9812213200402438 6.343876675093995 0.0 
6.83582799960578 4.593683723945912 22.754373453714294 2.981241141297457 13.37897534483593 0.0 
6.235836079688804 10.200040579578543 5.976462837833331 2.981330164337291 5.98854830808688 0.0 
6.127317503078411 4.853469004079157 37.30762907212749 2.9813392208409715 12.622737762826738 0.0 
9.757599106576246 9.447295287012421 8.059636392096394 2.9813944155100787 2.121965205482791 0.0 
4.7058955685737835 6.459923301182121 32.39734363563726 2.981405559990037 10.428781264574518 0.0 
7.323928989387435 4.523736735506072 37.66861467641761 2.9814667565401747 13.873657575702062 0.0 
10.328911249541076 8.441510185476762 11.930586499663548 2.9814728385709772 0.9579052418828695 0.0 
6.114083630434504 4.860041336704391 37.30163126665786 2.981634774304047 12.609215294066253 0.0 
9.709558895248506 5.497918514635446 39.463912666946975 2.98169092724436 16.53946999039973 0.0 
10.436069364532909 6.979681691197603 28.431994174009112 2.981817307586711 18.212314988412913 0.0 
10.332346893739274 6.567567364425248 13.642501845454802 2.981881880014596 17.78737775659862 0.0 
5.349471213708641 9.565900408288213 10.508420359529772 2.9820661558109673 7.086173162623492 0.0 
10.476928701533256 7.3220746359092725 7.456006612901355 2.982241091729388 18.559942321975406 0.0 
5.2149559192742565 9.416380106398853 20.04019162978564 2.982270806459571 7.287827957511546 0.0 
10.480109722073378 7.613655508725346 4.402607367845057 2.9822762330575427 0.11368303886938591 0.0 
9.511669709572024 9.701696511938296 27.164823333183826 2.9823283774746967 2.476729973290883 0.0 
4.9934702221106555 9.116050103744476 30.71909756778893 2.982332889745633 7.661394981413974 0.0 
7.556539942411316 10.48181043935173 22.371315506857414 2.982346435495854 4.628115496276546 0.0 
9.462868099774257 5.254241148389562 6.816632998496367 2.982663909443711 16.19786707059552 0.0 
6.7897765723051045 4.603063320463942 35.34329633297849 2.9827268467776404 13.338657152357836 0.0 
8.056542872081277 4.569594080637351 22.047385375162307 2.9827870894014765 14.61587678539087 0.0 
10.43741615782477 6.980508849612384 24.266429018972396 2.9829992858834347 18.220583743423614 0.0 
8.175284632003333 10.405612087617449 20.169288854572926 2.9830506093475035 4.004575596720272 0.0 
8.967427950389418 10.097182903665477 20.905226463801803 2.983069530647305 3.1516250768628176 0.0 
7.981409897810021 4.5560168650292585 27.423243754136173 2.9830843415333756 14.540978150015032 0.0 
4.5206185484592485 7.3498809866295485 33.22782344111544 2.9831610000066027 9.522059125922286 0.0 
4.524281892847112 7.2884347817145905 12.316259273193602 2.9832294740474996 9.583834761119547 0.0 
6.9405249703802046 4.569488914703207 17.654912626773488 2.9834388765006485 13.496317336734766 0.0 
4.582892484770028 6.874368540557603 31.275231967224848 2.9834428062986573 10.003071961106325 0.0 
5.810976844643607 5.040593625931622 18.41779773332573 2.983534637328386 12.264129295931827 0.0 
10.22883554251374 8.706211118165502 0.5987864250730297 2.9835362708826425 1.2417520210539905 0.0 
7.393589274105464 10.481685443281075 37.2724337822936 2.9835836380533465 4.79303551760848 0.0 
6.534708720804604 10.32313677604255 17.46897250865501 2.9836032762307054 5.669610781469991 0.0 
6.119201898008109 4.855130379917059 6.825949769808318 2.9836116881561656 12.624390036679877 0.0 
4.993157759365291 9.117935703822791 4.3526330875113715 2.983617596330835 7.663279843815488 0.0 
9.28796518398954 9.888688254292381 6.065729754494015 2.983731066190969 2.7696403552947295 0.0 
6.562020237800448 10.33253083433119 17.47031358877232 2.9837957305641547 5.641094136581412 0.0 
6.841239537232374 4.589785945106115 31.29368648063266 2.9838416835696444 13.3967897505885 0.0 
10.114892291444749 6.062429578961668 19.758588923056898 2.9840024147613384 17.2490983244899 0.0 
9.42194595585975 9.782740484794036 18.65796134894083 2.9840878636801804 2.599129197485418 0.0 
4.544679371969744 7.913571147540228 18.454980262782833 2.9841181458747377 8.959976983885351 0.0 
5.20515839467558 9.407534164521739 37.88213754206687 2.984122078995031 7.305425631307852 0.0 
8.625466159789685 4.736158745736937 20.230998906884444 2.984207190460838 15.216759287675913 0.0 
10.022944419602043 5.90612318058049 10.136030043307969 2.984240583445634 17.069094812245893 0.0 
5.648665628227407 9.840576746769184 21.941409952040587 2.984248391743428 6.68474346427756 0.0 
5.5662683277686575 5.2268857369388435 39.28804248923293 2.984353637410064 11.95976844141255 0.0 
6.411192459725784 10.278781480223845 0.5933734565870878 2.984481257202501 5.802545060256087 0.0 
6.002041325549843 10.081377641225412 15.569621473505663 2.9845252079650644 6.2573564291455845 0.0 
8.921975317115281 10.124031136585938 12.684655479287372 2.984552430140508 3.2059745979858754 0.0 
10.38076007036703 6.719734993898687 36.760863070482266 2.9845589394024916 17.963098613238678 0.0 
8.20512482801178 4.599796452124631 36.852191620911 2.984691213875821 14.77688039773254 0.0 
5.305529921706814 5.476949996985347 28.634668921985153 2.9846993549136043 11.599641317133084 0.0 
4.532028728827603 7.816355762130739 10.044854950669546 2.9847838170859236 9.060023824156094 0.0 
5.372034162936606 9.593044847380236 32.591534261574964 2.9848074203964767 7.057479948506405 0.0 
6.474149934229894 10.30299816663719 26.95442128581668 2.984822788644572 5.735750282474889 0.0 
10.241102870124518 8.681340905380264 13.058154318189928 2.9848301927127325 1.2145835346328688 0.0 
6.843165980490356 4.588334892936027 31.294372923663715 2.9848324282745002 13.40343724038491 0.0 
9.299102186571128 5.118273831410708 23.50239292634263 2.9848598325328544 15.99682726287353 0.0 
9.122772791741353 10.005846848188463 29.36095109673318 2.9854078381675224 2.9738064200106784 0.0 
10.48011698778913 7.322033840335363 7.432172317601314 2.985426136231667 18.579913904386572 0.0 
4.648805848306276 6.6147729281000505 36.48927618907592 2.9854539117991843 10.27782048904605 0.0 
9.316610153208307 5.130786347925124 9.876851654273572 2.985505950072361 16.021802259560737 0.0 
9.831436716431844 5.635115522136504 31.082511755860857 2.985530317799955 16.744387535734184 0.0 
4.521724714829187 7.7085365127156855 27.86117047253842 2.9855671406610345 9.170729342804933 0.0 
9.665837482101955 9.554987082318636 35.41652245028087 2.985602771196162 2.266494856621847 0.0 
5.002626406175811 5.86381352678905 18.00375183535401 2.985629086515744 11.11128363933081 0.0 
6.0295153551028395 4.901336442063359 23.680642196032053 2.985862920200166 12.533008396686437 0.0 
8.976079379939472 4.904475190472237 36.0187149003463 2.9858933960804155 15.61466096147008 0.0 
4.514082658072208 7.494472337878998 37.45320026222307 2.9859224584495925 9.386079724932326 0.0 
10.08509048784835 8.994817617461662 1.7072619557345945 2.9861635152546144 1.5655563472963792 0.0 
10.217910674649483 6.26283982152882 30.3502788197626 2.986235714502195 17.487472394081777 0.0 
6.9072832115107285 10.42693863496895 16.30388801251903 2.9863494377301087 5.287625589490869 0.0 
10.056261880590688 5.955968189559778 28.071699463384853 2.986387287980638 17.141312323619672 0.0 
7.445789622434669 4.514064335231746 38.88880063502896 2.986427725422267 14.018995748897915 0.0 
10.21759237045112 8.738397441053994 31.0181916007934 2.986458858572006 1.2769532483986303 0.0 
10.27083932507478 6.38569677317988 12.461062325843493 2.986506696239368 17.62284946554572 0.0 
9.435098770499115 9.775125580720761 18.6994073078027 2.986771444157916 2.586500510667385 0.0 
5.14316987324516 9.334836818432292 7.398420990462306 2.986850246774009 7.407651063396234 0.0 
5.1412882844568895 9.332432545003387 39.103358312399585 2.9868595529465267 7.4107271502916525 0.0 
5.724465654899587 9.901835961714957 21.8815714550976 2.9868609270634554 6.593124225221352 0.0 
9.948422357714586 9.210750548500544 7.02894922400268 2.986877881827705 1.8215873067029804 0.0 
4.783859628223421 8.742948057096966 36.99192551387316 2.987028354709029 8.102086546745952 0.0 
5.179838825673022 9.381292724760677 11.675795439775264 2.9870403731941435 7.348935899744472 0.0 
9.965287457922868 9.18679435513659 19.520895688220733 2.987125281388855 1.7924406172849032 0.0 
10.180834519387956 6.182328301334396 7.135811125381558 2.9871612654502515 17.40424200036256 0.0 
4.582894076642562 6.856496993141462 27.08888548704219 2.987240045246284 10.03327819559319 0.0 
7.17986722482831 4.529732647513958 32.360047401631384 2.9874693536475947 13.757369020527992 0.0 
10.013347443247607 5.885023230968148 22.77974740379296 2.9874847840603014 17.06468648627032 0.0 
5.37703206196743 9.601922545990943 14.665943066402512 2.98748577490493 7.053978923325854 0.0 
4.520201128451758 7.714439420089578 5.836264133425658 2.987504908743838 9.170899486721634 0.0 
4.876230751867407 6.071287686484334 4.236448147152316 2.9875381072444176 10.875307849724486 0.0 
4.5210443940206595 7.729989843508294 14.26920189108165 2.9878205820485126 9.156297614160337 0.0 
8.087864693272467 10.429437760460791 16.02430913526139 2.9878404391817615 4.101563604110993 0.0 
5.218742699218652 5.570463966620924 19.193473771561408 2.9878494233271624 11.484264656969511 0.0 
10.261018170848828 8.642028179684432 17.33167237782161 2.9878838168427437 1.171839781352439 0.0 
4.864908028251072 6.091385286921838 30.45286209234773 2.9879600247453 10.85377822231607 0.0 
5.405371991763957 5.369092280436446 7.7335449563030565 2.9880150940352435 11.759561780364251 0.0 
7.922115769810075 4.54194197535948 31.50574027678509 2.9880242636669676 14.504265170241165 0.0 
5.766265020204802 9.933668076431575 4.027088255521274 2.9880725035393016 6.543261092581783 0.0 
4.983177411007173 5.889261318483953 0.08740886930151248 2.988122327582425 11.08861721561745 0.0 
5.886888910291312 10.015306824529878 16.622191979535003 2.9881258021153867 6.3977083657324485 0.0 
10.106006639011616 8.962091227666763 37.51317173447125 2.988140117295825 1.5277904031088418 0.0 
9.288425815017934 5.106115140948178 23.53597599806799 2.988168605386943 15.998712351707066 0.0 
7.69188639465 10.482006438728726 4.572660421531861 2.9881738217632803 4.501793945924387 0.0 
4.528894096070296 7.819368224087452 22.6116155180774 2.988221269404713 9.06779462394045 0.0 
4.516448718256354 7.66746051616229 23.730195875286817 2.988247191125174 9.220307132272268 0.0 
6.412270653494511 10.28333054519065 32.362020536647826 2.9883246234371086 5.807353997674806 0.0 
4.5877454096577015 6.829884232851432 13.477974526152934 2.9883577329949818 10.064065564604967 0.0 
10.204819047493118 8.770565426669572 4.794705870452056 2.9883745720926003 1.3123418162333653 0.0 
10.487603206965082 7.431297925033791 3.327796964354377 2.98839302926718 18.70791904538693 0.0 
7.103671677179024 10.461998598615432 6.802747178055185 2.9883961982424365 5.091661204156512 0.0 
9.598386795462995 9.627927174847473 31.400107457844165 2.9885282673630185 2.3680729851073323 0.0 
10.294137873578945 6.439681328415256 26.08583933766436 2.988558539142158 17.693739919229895 0.0 
4.5141192840472275 7.627033254665397 36.24576737593114 2.988581787016966 9.261835047482926 0.0 
7.418758789644313 4.512478095021965 23.93201920700122 2.988626317722514 14.002318507034097 0.0 
8.614849679333165 4.727094943053306 7.593339816677421 2.9886271534518656 15.226046214389257 0.0 
5.573585950284171 9.785001849400958 31.569551620358652 2.988696127529253 6.788084316992212 0.0 
10.457324619497351 7.067583358788468 2.095880307710239 2.988771161645171 18.345063430366654 0.0 
4.553821889550136 8.00321184240707 30.916675400794325 2.9888438595605242 8.884109863173538 0.0 
8.679449604458666 4.753683477456796 11.694339965491125 2.9888719964982604 15.297155345791627 0.0 
4.765671570044322 8.707136964934405 15.05987838636581 2.988934862952843 8.147390790823774 0.0 
9.383073093278727 9.82130502577881 32.397154197937425 2.989050233324341 2.658029108709325 0.0 
9.792431622619791 5.581847961713073 35.399728621009665 2.9890717599902965 16.69828294729451 0.0 
10.459364985189916 7.079332462547946 2.1602488038951577 2.9891139644774487 18.35908826992825 0.0 
6.366175886333798 10.265853750776309 14.435525621889873 2.989231354615149 5.858412500677019 0.0 
4.945054799640108 9.051753130167407 35.99928511722844 2.989261238805738 7.7594771340344515 0.0 
9.789415727241716 5.577945479499574 21.53400473199239 2.9892671262230524 16.69444602183364 0.0 
5.45504420369927 5.319638682900621 3.5482589200645904 2.9892841420526235 11.834653915858691 0.0 
7.927709165342234 10.458571140589669 25.503146804948514 2.989327403287871 4.266442420120985 0.0 
9.317550561645245 9.873331923958785 1.8853589588782569 2.9893468292285617 2.741965219075606 0.0 
9.847988268469686 5.649724214814839 0.6905939742190412 2.989409538707239 16.787891272764853 0.0 
5.389435465044336 5.382895184408236 10.786504347326066 2.9894172436136186 11.744038742447323 0.0 
8.379171966519026 4.64269879139448 10.652818191478168 2.98950055082977 14.980054432321595 0.0 
6.752834620745611 10.39464917054598 35.3852947623396 2.989523360754834 5.451103314532016 0.0 
7.545194889514706 4.510787137593187 30.40228598632183 2.9895545010614173 14.133140298240203 0.0 
5.307713180015805 5.4674292259181065 28.635279562223758 2.9895594077937764 11.627009163062102 0.0 
7.190884513685715 10.47369045116535 15.224389702703455 2.989713578795013 5.005900007090904 0.0 
4.52336860100133 7.780209897879093 14.315999599417921 2.9897913091676136 9.112084664194171 0.0 
9.561638023637224 5.334681105615779 24.662555734082602 2.9898088993920835 16.364012133623284 0.0 
8.023103565201334 10.44373812318096 11.756548142687649 2.9898547586455244 4.170643088386299 0.0 
9.84904758698604 9.349720815298209 20.68444270716988 2.989898269251386 1.9943574438293439 0.0 
10.360606049112901 8.369901544978706 16.054198332658103 2.9899491076233486 0.8826664746157036 0.0 
9.1485617810014 5.005590457790925 18.185084219289863 2.989955670247001 15.835972691574913 0.0 
4.7387899399668285 6.352899575238121 37.7587226909727 2.9900034080444238 10.570657595016439 0.0 
