429

8.45491872562729 7.826760352043552 34.96359984268394 0.4867884782433052 2.8814600663895718 0.9136057797835958 
7.907957769164543 8.479420795844133 13.863508891386829 0.48817627118182694 0.8594219638808624 0.8114829244338589 
7.580911634080293 8.251943865114058 25.6551848829518 0.48898953937468015 1.2715255654261384 0.7559536405418249 
8.226292995395088 7.565387958629984 20.617150675254493 0.489996067605337 2.544276129697508 0.5794986235352398 
8.47890561709701 7.896235926880646 28.4982217394616 0.4900179312610784 2.97431784288813 0.9274127888624072 
8.493074943533298 8.058472785869457 26.08076610886536 0.4965299252086406 0.05860878732324082 0.7493166601970948 
7.96525693909366 8.497846441237705 1.6736407537865219 0.4990572705954608 0.8186885139723827 0.8222381288883039 
8.17152985739455 7.5302179834926335 21.689523138924372 0.5001176211767842 2.531833178374276 0.5912397889253128 
8.469761082417865 8.177660500387143 32.86978900232702 0.5022337383651325 0.18159131900787173 0.683548283417911 
8.473961147553497 8.167147241732149 11.910898390036678 0.5025707609967927 0.17039297575327694 0.7012265786364539 
8.307168416322373 7.599713582436138 5.4898556137723205 0.5045608507128811 2.707935454945396 0.7495416486982238 
7.504444818050226 7.897353876777263 0.23593137378497175 0.5060742682353361 1.6932424817048997 0.7678949432549186 
8.489511254106842 8.12944217685314 29.47763520484792 0.5063363951423328 0.13089526155591003 0.6760621233847814 
7.5487862435584265 8.232854929988903 31.384517071014336 0.5077551303751164 1.353257304524302 0.7565700734055609 
8.08964411660728 8.50152111739525 5.11063083175209 0.5094698213198492 0.7101600716836813 0.7979937580529588 
7.737489588795379 7.560452318746568 34.30971798266363 0.5119705851766181 2.136970252576834 0.8402849054476619 
8.01512279646938 7.487575159360954 16.942357779196 0.5126479457454249 2.430921521019698 0.5990845539671287 
7.486649454347383 8.032564067312094 32.42152593850867 0.5143823492323092 1.5833939511812787 0.8241403290752355 
8.423646940051201 8.292925385719034 37.96239421898513 0.5150553479126208 0.31158591646655687 0.6150327616131874 
8.26802580988154 8.441492741397283 30.66698719931354 0.5164820185341847 0.5294869967513414 0.7612013627235971 
8.518518862249952 7.963145038211314 7.577217351217477 0.5198269892160523 3.229283393223774 0.9717142736873825 
7.547576254675095 7.742122044521286 12.451610783657777 0.5207574149790863 1.905792587198297 0.7397043099122088 
7.533121745866776 8.237401615728691 35.0259712581137 0.5237698266730155 1.3990826271940442 0.7264645493993361 
7.475040880980435 7.961406795244061 20.06758090358354 0.5263758278028456 1.69228629948749 0.7300767894332938 
7.766722529283047 8.472206880831239 16.88130664827485 0.5266855956341208 1.068984682266759 0.8597648095425303 
7.731672842098337 8.455315065340416 27.948470364084876 0.5284990751113314 1.1116065399027377 0.8605482038013438 
8.402014927668388 8.359552173495715 23.015055238204404 0.5393456846343643 0.3935598776968394 0.5682732266869028 
8.52284899444824 8.150581909839033 16.29754582421645 0.544101077527241 0.15257359211425126 0.702323813957296 
7.540923357063873 8.295578282952327 2.6095522994696694 0.546001726593011 1.402978852877773 0.7310837122889626 
7.485431296067558 8.196315058051125 14.803492307191839 0.5507454521685418 1.529488151931501 0.7449315956653034 
7.897821762652788 7.452649882120518 30.84638668388674 0.5568056606483669 2.5211242755395027 0.5835061225854983 
8.137789805567447 8.566752160906875 9.512474280765282 0.5832615557457306 0.7770803427643749 0.6698852574791265 
7.7631022473855165 7.456755866740089 35.71902673127825 0.5926505998605793 2.549091726969195 0.435084384667591 
7.068272237815451 4.854408911691213 28.686206468614685 3.280679795053624 14.515108527616796 0.4275272519945804 
5.2644578985122035 6.16708403163525 17.008411614353243 3.292836396801209 12.28861954547849 0.32799641575382343 
11.30377054932133 8.452611777914514 21.376040294463152 3.3346300040739028 0.4540131589216845 0.3892284470344526 
10.053922839665967 5.371919493671665 18.995843742865972 3.335476904288878 17.93074202698962 0.5699045045451158 
5.795005452858268 5.4899257117325835 2.6575616246636713 3.34102886631438 13.33606380667888 0.531008686735314 
10.783539583313695 6.150020383122921 0.3143219217563171 3.342232366956976 19.039377837738627 0.4936101027139345 
11.329570953396482 7.598015307030602 17.324102199454337 3.3537493089202752 20.669274878194315 0.37448613213565646 
8.320389944937885 11.33968271684219 32.802359363363145 3.3550157027936196 4.949167424715764 0.47886767162193944 
11.034209667577288 6.566426755526322 30.02951039994801 3.3558248694010073 19.604068434295925 0.5971618041784975 
4.741549887078749 7.152117105385059 35.69818917809199 3.366957460583238 11.43471905143275 0.599215539841466 
9.678149020211107 10.920897982166068 37.181402385944686 3.3686539086491654 3.5347754375325557 0.5320553447201362 
10.422451582107794 5.656316382333509 17.839815197483794 3.370626732133779 18.58668821124934 0.586727635543985 
5.697140211850543 5.537650548705521 8.631187301085461 3.3713985264524844 13.352248318749623 0.5551780017607376 
11.358612844873457 7.703096876224592 35.9326565466094 3.37171050160843 20.887793714312014 0.3357895673677254 
10.609138439720407 10.13740811351145 25.141829372080686 3.372849958318815 2.314920303190622 0.5401479971932407 
7.703270032747808 4.639091019402169 11.368783520891164 3.3739824909635536 15.602404091656194 0.36717949711459896 
8.690605000717964 4.696302554959779 38.69040987731385 3.375107713152566 16.600337582807438 0.5750629841580284 
10.887804305270596 6.251695858067393 3.3703266959773472 3.3757933998155263 19.372995496362407 0.4881613136298005 
5.380484771846827 5.869387569754782 25.12303800048685 3.3765913816216795 12.913530029222656 0.45850616828619495 
6.133792894158345 10.818619895813473 23.202856683367685 3.380435930315707 7.286970614954086 0.5195984212861037 
11.014119379127516 9.531110318835289 27.420545221574933 3.3807121202604566 1.5889707732224707 0.6278113890714149 
5.23308493976389 6.0551830441550685 7.815737815265848 3.382030742365208 12.69699145791767 0.5124701083688818 
4.64486830157065 7.571781643212034 21.347886622682736 3.3823482486130256 11.055331049642328 0.6280465498597925 
4.647044559776809 7.545818946049334 30.69456356685094 3.3835766008604002 11.085375528684821 0.6974204737890541 
10.69539411810278 5.954174546247845 4.485823520077908 3.3838663151967516 19.064513388457897 0.5546232566154421 
9.690049052808964 10.933823557830035 0.340586569184687 3.3857918526363937 3.548879302998884 0.6368264744094386 
5.074862060050773 9.710615748280373 21.79674235181075 3.388604167794641 8.852477144580305 0.5544988566037943 
8.272513521698267 11.378573000337553 11.17551868394903 3.389545565133811 5.051477761896042 0.60836553523519 
4.773646714578778 9.039966287413758 22.68951944534605 3.389820850916088 9.592423941918065 0.6242992447040666 
10.794168268634689 9.92509917198659 7.744405673607332 3.393137653474796 2.047029438724138 0.6756270212674201 
8.97786262916849 11.250842256093701 38.06643594590643 3.3947298413170817 4.340512206352528 0.5791256859693865 
11.16646346483633 9.226106140926877 9.947316332188109 3.3955599159729033 1.2544473989728395 0.5341570010816964 
4.6037375313512925 7.92331467801008 13.24357132112906 3.3971281098246084 10.749084549320578 0.5787020301207217 
8.121276829174475 4.604773557489212 7.110965309247426 3.397391744444416 16.131134019271116 0.5332068695322241 
10.029581796584507 10.727541046382896 7.512925316487738 3.399806233997859 3.16548328414126 0.6513462653068748 
4.837263426724862 6.749044841593367 3.8835779277193723 3.4011456070383614 11.966043444071733 0.5953203324659962 
5.84251156786126 10.629952417250095 18.940184083292465 3.4016769470089434 7.680390586500081 0.6487421985019183 
6.566019194435652 4.91379660736083 29.937949066868065 3.403079830310258 14.556420142131124 0.6873780725794157 
4.949523159978048 6.490814671674251 24.26482204090702 3.4033879159954736 12.255672779665105 0.6150845597884609 
11.292823266107408 8.864293742974226 4.91308255887936 3.4043631909598986 0.8738583978720555 0.4577054023877772 
11.188642476655092 9.197348952274169 28.44361706637394 3.4060366054170927 1.2234916752885923 0.5381148353552703 
10.056825612198207 10.715954066469916 13.549196985678876 3.4068956676377677 3.1433099533642874 0.581848492110108 
9.107242859149292 11.222853572361693 7.348400028753112 3.4077517365591063 4.225170439237214 0.5790151383655346 
10.059417898808984 10.715217702520704 4.460443892263164 3.407874594819565 3.1417020283360344 0.5819366522128739 
7.865991499628388 11.405398852802819 31.810662344140802 3.408034569197122 5.487371240584334 0.7197878032528103 
11.402645167780651 7.806941448193282 5.134442022442379 3.4081176244734737 21.22067263284093 0.6487608326812887 
10.832001740142932 9.897077895837544 4.732527630987782 3.4086857289940946 2.0118683901488694 0.6361056074161211 
4.750694740555534 9.031852297035254 4.249999506381208 3.4092086811972084 9.662051315434383 0.646026882242631 
10.256194275075845 5.442723258462543 6.605192765550498 3.410289861535742 18.53601177471311 0.6180834297291252 
5.296551189169028 10.08010143859919 22.953788831565014 3.4110786369777273 8.479173775078284 0.6891134206807613 
10.108108825976727 10.682356743056559 29.143761674461324 3.4116213915354026 3.086500629621799 0.6393168170657288 
7.684712230099603 4.60235213057334 5.1617528750614525 3.412245217224033 15.764088626319278 0.5857605972791766 
5.13618262911592 6.144123666346353 10.88041473663359 3.41258361063771 12.683176790052926 0.5346108972179564 
11.332077151231553 7.260015490203749 33.929556968825736 3.4132558088279517 20.700211416664175 0.6388252387666594 
9.16205737431345 4.790415503563903 0.7848762465659078 3.413474766416069 17.271382533577857 0.7179282564853675 
10.058060316646381 5.276109677216176 31.265147612672266 3.41396994092068 18.296961856396877 0.7141778536173383 
10.938397795223795 6.2617947952645 21.944340683472134 3.414020933847013 19.6272173479501 0.6818686106000855 
6.599851704275556 4.886133306369091 33.07833584791835 3.414173550908619 14.64621268760714 0.6947924479591512 
11.352453712246836 7.345068244406441 0.04441724141276637 3.415828083677872 20.803268422860597 0.44851354936069693 
8.714757916743656 11.341979130340828 33.95557676785235 3.4175581029707995 4.648213808616273 0.6537744989839038 
9.421796989694068 11.108231706875138 39.17590530279302 3.417983473267098 3.9025892710511556 0.5909274612377226 
6.531439651567103 4.913310807673092 17.68549996489569 3.4182334131853986 14.590083053859942 0.7349934472886849 
7.316442586296672 4.649865357414916 12.394977877676645 3.419159671802046 15.424215656340937 0.6975803878080231 
11.197491206988106 9.211445773166425 25.40934279123958 3.419290990847225 1.2383392502876447 0.6166472499600933 
10.561138845352467 10.266552315549028 3.556546648146316 3.420042629017077 2.47766206205379 0.5429118430140891 
9.541260372358225 4.946932145265855 30.39635779075131 3.420044862426918 17.715449110650894 0.6364280780618616 
5.280910645370591 10.077087898507578 19.817825538447302 3.421657647483981 8.517396939575114 0.7173569710591697 
6.588972282234158 4.881610448373831 20.711777223933296 3.422769728742315 14.67502113095501 0.752365426425131 
4.5805876377936166 7.839966941616677 0.9382238797582794 3.4231551940549476 10.914250619643077 0.7088214349294084 
8.330594651152087 11.407207986565439 17.415025892467057 3.423208887445475 5.0460532371530675 0.8172084995096756 
11.318675733585117 8.843428703757564 1.82482251089435 3.424175901294923 0.8521990064428664 0.41219016678798565 
8.372069207576818 11.404003389431455 20.5012079929311 3.4242772332986817 5.006036855553795 0.8772906321776818 
7.322185782017172 4.643384286091656 3.181294607546853 3.4243687250289074 15.454637236418847 0.7040462747539531 
4.886828168544026 9.426493001537466 5.345376453779814 3.4244300453661385 9.286816512699591 0.6453402186006456 
6.25235012125564 5.054509785869186 24.961717570453807 3.4249368899609767 14.305577049324025 0.6733589622151345 
10.917484848007293 6.205787492523335 31.061694743482413 3.425042534091777 19.63172544170797 0.7382320261998183 
6.441505370082728 11.050226916151392 33.48602269070272 3.425316007537902 6.998470785577929 0.6269082382405307 
9.380334976543013 11.136437706162521 2.279864580297428 3.426742787561683 3.9620297623971794 0.6746852770111745 
5.151850821237591 6.094197631224567 1.623107097961821 3.426957311277022 12.787018250949878 0.5476573400025436 
11.360467274959946 7.324813970296098 36.975501754681574 3.427625487240992 20.856775528540965 0.6455456602618704 
8.274587556085327 11.416716524680243 14.41483066462169 3.427732506480041 5.109387540905679 0.8399629637566303 
10.561304723752206 5.721998014467477 11.762339464842405 3.427765297392085 19.045563480735154 0.5827439934017683 
4.6017138467247385 7.551155639896358 27.532737571106715 3.4277995914491903 11.218887014507157 0.7116469072916369 
8.333426180302373 11.413290797183254 23.54528503608057 3.429537444590292 5.053151130517634 0.8358637982708794 
6.711988918528927 11.178777287285367 37.72125994468323 3.4298101387910127 6.707917868698978 0.5998265392098441 
11.252489922905015 6.9112183710392685 19.600639992101414 3.4298886474871217 20.442676055807134 0.6789996397011494 
4.5727116775369065 7.865738516297869 10.20520846508181 3.429917111432546 10.90969819456458 0.7125252089325672 
11.429984003222364 8.043579512924744 0.9651183192064039 3.4302608408557034 0.04358068531748316 0.6440409024371079 
6.9194578730088825 4.743847417774326 1.3093630489639168 3.430758068843885 15.067811796877784 0.6829261069351943 
6.7493596491624555 11.194901737552506 6.9239955461372205 3.4309617310251466 6.669478368890797 0.7062621792230273 
11.365236905991027 7.329710394877729 3.128741949532831 3.4313419515080414 20.88512989027781 0.517277355994433 
10.922879411082002 6.20183235186439 27.98458928738642 3.4317096238651428 19.66939691709277 0.7377933997974042 
8.419728313216721 4.593299195061778 36.86405816328293 3.4324600844412587 16.595868518732452 0.7158637528803086 
4.8668111423373315 9.40257845676975 36.127266783813624 3.432797510074856 9.339588115589404 0.6709443301247978 
5.0924252908506045 6.174704395168597 26.178434747269506 3.4330299640845023 12.709705970106427 0.5698109172062406 
7.55581661109332 11.40487025569701 21.408588480421457 3.4337210633816553 5.8391080577579615 0.8106997795514228 
9.565747415559192 4.944014729812604 2.8197442275088704 3.433745905120618 17.80696389015045 0.696596817514544 
4.638189506643338 8.699805861997241 27.780060975149553 3.433875076022518 10.083093919636784 0.7364752006180076 
9.457907054378314 11.109069866980203 17.633479604200396 3.4339202694544886 3.888296152955121 0.667796125585854 
4.870315583895168 9.414020465692445 20.766925521876956 3.434294457644327 9.331785605675567 0.6562114751162454 
11.40117914007867 8.480550954484325 6.050046515978849 3.4349597905597182 0.48213248216121585 0.5809258299881541 
7.515757435043339 11.400703450875923 5.958021789188805 3.4350072521779653 5.881557773613977 0.7805489924430382 
10.68814673881525 10.13853260361062 21.973121259084316 3.4350334184849918 2.308399127079557 0.651070963465244 
11.433405400069978 8.116338943489588 37.90760721717455 3.43537587332186 0.11636119194153949 0.7104140978577426 
10.19621368568213 5.356924048542364 37.46473976563071 3.4364523913988942 18.576457486471682 0.6675040230949904 
11.335942692334948 8.82536184819022 20.302110139468937 3.4365296196877027 0.8335100847194603 0.5222968365292211 
10.617567459892266 10.226932898349755 12.876283303666014 3.4366974758973616 2.4226572757878664 0.6184093772786324 
5.877788455882223 5.296198896364476 25.96136060351219 3.4371968587800477 13.910073968000574 0.7625580754270693 
5.075029900904596 9.805380962423843 15.632245897753549 3.437273701654352 8.897726231903825 0.7816006540107392 
11.144373592333032 6.611497815576097 11.487524170778293 3.437298882016415 20.16784555529351 0.7494242457526086 
9.578004891357452 4.94549271908253 8.838915114791604 3.438039290980526 17.8408117836157 0.7423921308491137 
4.911366087255649 6.4879648494660564 27.284044645169914 3.438882048486787 12.369121955325376 0.7385130918559416 
6.109462899988168 10.872667543971652 32.46994110281802 3.4389459642031692 7.4035454487384555 0.7066106909805008 
8.794434019039159 4.654039236976182 4.915890216590185 3.4389793308918932 17.00748342487004 0.7152488500948284 
4.7982955231436595 6.743932541464552 6.928489604873022 3.439275653028359 12.09061544194256 0.6124053622636504 
11.261653072085494 6.908909994484521 16.511901718619647 3.4393107104157563 20.49955279359773 0.5508198063485296 
4.8743354913164705 9.435180699254765 33.09007431393502 3.4394072542165235 9.324739614828701 0.6882385415108094 
10.64499735805397 5.801258379990696 25.98068158701949 3.439545861836069 19.225885805478157 0.6144007327696466 
11.432647082545337 7.781546356181188 2.075495401820845 3.439591253013174 21.39298844940336 0.808746434652871 
4.737539666019103 9.09026920187209 16.523715690369215 3.439816036265537 9.69709843322062 0.7638211382916402 
5.019788961829422 9.717841672158556 0.2762191601890365 3.439860148703472 9.00794380196644 0.7179207178127588 
11.419795908638129 7.626196942630049 20.48917514858382 3.440164644669962 21.24064939532756 0.7541745447047938 
11.358079798570257 7.251900957229658 15.418609222192707 3.440399992930989 20.862547229288666 0.6344443261648152 
4.56458136761281 8.185381042669285 11.26655894931612 3.4404167350386814 10.62291707377777 0.7561862195857769 
5.778792766925841 10.627459059360714 34.38024990855388 3.4405381382681464 7.818978769984486 0.715854981594401 
10.052555612377274 10.761878976814504 1.40886784281048 3.4410696047117915 3.205970333743789 0.6352140339212152 
11.09783204399237 9.499022456270435 5.781722630264497 3.441457786634759 1.5509962616742854 0.7587950755459991 
11.365889215211103 7.2806277973071225 18.533714074282514 3.441904498251164 20.901408502664573 0.5302028112850197 
4.883653838047914 9.461831368893257 17.64246282302785 3.4421743640021853 9.304133430529191 0.7559900992780755 
6.087976119923377 10.862342669428408 1.6401870141383128 3.4422145306784406 7.434207039083862 0.7166011978533584 
9.852313602351131 5.098237669485453 10.828375978779569 3.4425703049100163 18.17857611590729 0.8150376375873236 
5.226540777928927 10.040113731200623 1.445099401792561 3.4429841842106104 8.632874687788632 0.7125995157964533 
8.041211988822715 4.557189661739981 34.78479583332832 3.4430569924491214 16.2662368030213 0.7652573062955906 
4.560635608987335 7.834701208761613 22.455857204810464 3.443334300434797 10.982916088403325 0.686154371219739 
6.759243501944814 11.212384227987968 3.7815579883022323 3.443673781834166 6.678612926987757 0.6589899184535245 
8.288299651221742 11.431602111814023 26.752464905987637 3.4436912960805666 5.120700151236893 0.8247322433782794 
4.775875858387748 6.788254220177873 34.517808423691385 3.4443147817009514 12.058880502655438 0.575133271610201 
7.8281856620651755 11.440229285351744 34.87016614774134 3.444517049240977 5.582520393961076 0.8275087075515692 
9.747290701670078 10.968628080263137 3.427543689213252 3.44467378354896 3.5783695170050613 0.7591106308495461 
8.206892130580687 11.438742432788562 38.97254774578456 3.444960648941696 5.204314831440509 0.884057504723099 
5.452652668815174 10.319953906848951 39.392612776700936 3.4454556383152255 8.279013444696346 0.7702819065031616 
8.775635451056727 4.642173132655458 7.998439080478413 3.446246019075952 17.02238945283773 0.756012046436964 
9.43178840170677 11.134950987573387 20.65654383413252 3.4464381209807557 3.9371068670112415 0.6240340572904834 
11.344137518580238 8.83355144650417 23.481580469941676 3.446456695962566 0.8418995547404293 0.6897581356203674 
11.350146788004546 8.80954504912875 17.209650303935362 3.4465702789506594 0.8171800110779479 0.5174778366696884 
5.673942391874526 5.456527744844259 39.472269675244576 3.446707865349982 13.68897652846777 0.7684966108085733 
5.945635007056012 5.2308114114204685 19.842521084909144 3.448016961001331 14.04761563449944 0.7291031426927209 
5.108599471845052 6.121261997250674 13.901326471444719 3.4481666863986176 12.819609245205328 0.645145340734716 
11.077072556327566 9.55657936897199 14.92565733192 3.44837858258247 1.614970774682753 0.7996100119687265 
8.56264746306263 4.597470693854307 1.8598817103369427 3.448735688171987 16.81695785629496 0.665524489013268 
8.435323415201747 4.5786342788133965 33.77957591261326 3.4489490970342898 16.68927737602108 0.7952546790570242 
6.945145845416233 4.716213482568261 13.507762420670012 3.44905366434173 15.181250258972955 0.6990795663154611 
7.123166118511085 11.33588295524272 7.989637304653208 3.449195956568116 6.304548117073178 0.6922635574917696 
8.714652895485516 11.374563257218718 0.004999530149625286 3.4494066066493856 4.698448334776387 0.7022700666881122 
9.409485126267674 11.148313677597972 23.762615976107682 3.4494242032142512 3.966357233366743 0.6296001643828136 
10.946275951177247 6.2058418547052625 6.444124418995308 3.449571774990752 19.787451229540128 0.8059511704833461 
4.948318482818282 6.391375186517269 30.29149079960311 3.449700548288342 12.511049306825448 0.6815115011229611 
4.551685508404731 7.899775151085354 34.74309328044289 3.449770695754416 10.938013227825664 0.7467866775654417 
4.5788958578961765 7.555559593685807 18.26700588405722 3.4498522904444258 11.283709677733878 0.7757747902722135 
10.101516768848425 10.73608848922228 26.039651378965083 3.4500076739923022 3.159614429627201 0.6846986908771394 
7.886469510833836 11.44836931771432 7.137998554868673 3.4502376908444825 5.533171677968689 0.8321396219328159 
5.000376364646405 9.70498766191208 37.27007509742449 3.450322431461201 9.056172367922883 0.7208497474198647 
8.680282333564596 11.38272822597264 27.793322509200877 3.450454217078109 4.735192342948309 0.6919140689000417 
5.499159734854301 10.377407558682277 8.62143255330794 3.4505461497933325 8.217447239934057 0.7581001199001238 
11.367427119132264 7.246598330534015 27.798125594889278 3.45067811860532 20.921730451940423 0.600943509049809 
10.97650273773949 6.254205415695697 34.16486036021414 3.450705330560246 19.85098467024276 0.8523005824114441 
10.364944584947306 10.51347102343917 11.745214721191118 3.451159149552499 2.815574326330161 0.674724465514493 
11.40616206392336 8.55678153158241 33.75619453279317 3.4513686675899926 0.5592252790225345 0.6065006967473917 
6.045613418493087 10.844700508327396 4.813863906281895 3.4513689881049237 7.499005246093638 0.7449998930934622 
6.125530257142538 10.898514430764013 7.820766873053785 3.4518144101668264 7.403618272201829 0.7410154747961362 
11.439610285688632 7.708941558977802 32.816696116477395 3.451902943813068 21.397541425952323 0.8700163619075665 
8.78049418193178 11.362565921458707 18.474372899998613 3.4519589719729895 4.635022409032299 0.767687741716419 
6.404956521680422 11.061608357785968 11.939918829617007 3.4521890785695257 7.080745165338545 0.6107791175535326 
11.226074186245556 9.229052923072004 22.300026009474408 3.452263857655116 1.25661894192611 0.7065424893368677 
11.384820096833463 7.319917937460119 12.291839331319096 3.4524655971806864 21.00792224104949 0.74730807359118 
4.581679659378814 7.515272539797316 15.197623686711296 3.452517148658221 11.33273672951449 0.7845241975659298 
7.47312055016884 11.412201835935289 36.74020943950374 3.452640051296185 5.952340428446686 0.7920839925442354 
7.35039235449462 4.608831527922831 27.741514112243344 3.4528269141544365 15.617561259240198 0.6565269375676304 
9.406460494831773 11.15361742774347 11.505274437308614 3.453032580803397 3.975434158656128 0.620198594897755 
11.083565326092636 9.555833834112065 30.43546062124973 3.4538375815386297 1.6139313137585845 0.7727264569883526 
7.1743162920706816 11.353841145962367 26.389182355465387 3.4539837894654344 6.259262252032929 0.7682392363545256 
5.232855710324916 10.068127447242588 29.11692410664901 3.4545967431698257 8.63568353350827 0.7310953186554321 
6.153797857204614 10.920562126563318 20.100295159396254 3.4551621506346626 7.375088758266244 0.7904684301711252 
9.766371775146641 10.969649711121345 27.952059893104902 3.4552696934968443 3.5734507239431323 0.7422981699974992 
8.698101548169568 11.38408890289982 3.195542197796101 3.4553441904224886 4.724701783078906 0.6649373904618905 
6.795056252368649 11.238581958695391 31.551218531075754 3.455474285556643 6.658651075751671 0.6630102526507593 
10.427070206186063 5.54024269707844 36.34656148221107 3.4555861695278267 18.974963776957715 0.7045743354420466 
10.183410121685004 5.3215614112251295 22.07585259841555 3.4556204990297834 18.64762657887131 0.7671669344679729 
7.311771488827189 4.613506154424606 0.15014458370954742 3.4557197585613286 15.591834462083245 0.6739143817553517 
5.7929953228028985 10.659195175594554 12.80706731590336 3.455747187957363 7.8222075190240865 0.8388120255277294 
4.702135896310956 9.033345298428475 19.573477810235268 3.455967325103778 9.80784434610878 0.7770045475479758 
11.394242383699597 7.347726240048544 6.223211372510143 3.4563481331057986 21.060666932279272 0.7316364781955235 
6.930524237379711 4.713095926752761 31.99291553816247 3.4565180158016755 15.201137572034348 0.7175488510785184 
9.015738832859444 11.303917908077018 35.04226817348544 3.4565298957033086 4.3985476304674265 0.6643099688738587 
10.43120390689418 10.457130593234908 20.915910478818205 3.4566230904031876 2.7331584484351694 0.7811339755088732 
10.64519446999541 10.22544230775662 28.183149649960313 3.456826181520757 2.4178094255437177 0.6113329659640271 
4.543158492252777 7.983951801157254 3.9924421551745013 3.4568787589920156 10.876153170087917 0.7662024115982701 
7.103288660191804 4.661321885101007 22.67120706384572 3.457001993324 15.383653932672143 0.6257541725208247 
6.810124912583378 11.246022525397802 19.095989500195337 3.4572337148426406 6.6453240036786845 0.7151439974923536 
10.42410218318715 10.465234017768257 17.885793957076928 3.457405119001028 2.7445245727844387 0.7567515282604041 
11.11025406667041 6.489930461431005 39.15588651137461 3.4574543193734035 20.161087312439715 0.7856350483314617 
8.505355966625537 4.579344690542262 9.089106243071257 3.457783596341078 16.80159385681141 0.7368420237882256 
10.152932006906289 5.294175727092888 34.44619560725308 3.457831867256541 18.618631938948216 0.7207604445524165 
6.874985384961052 4.730218367187607 16.572893083785736 3.4579082998726998 15.149137706609459 0.713435914985136 
11.146286339071356 6.564652867438522 23.814873264949263 3.458227742410773 20.248561343812995 0.7675771546004622 
6.07391070040606 10.872419521825929 26.253295512981893 3.458412048813295 7.475287739017421 0.7123880560759374 
5.829308872390236 10.692382733375743 25.127144609643686 3.458442533057844 7.7791684689393 0.8258128238237115 
4.769773734975585 6.764158008519624 25.26161093098832 3.4585643193613986 12.129178617264525 0.6429563784519833 
8.281799024432733 11.447293653351542 35.94765285543428 3.4587923069489266 5.1509465330825215 0.7617721460587922 
4.904862437570753 6.455688343736712 15.044817958513548 3.459013590900028 12.467661805295485 0.6881939584049369 
10.740141700435895 5.8887672088601395 13.623582245603473 3.4591444660279675 19.46357991133311 0.672185214733657 
7.706715818413091 4.552989468472527 23.592112400663467 3.459464874172073 16.008707513266945 0.756877847235108 
9.590377471521638 4.927646001506268 39.72595163725794 3.4595750597412964 17.95536705578111 0.7771330782543284 
7.946697215623498 11.459273547504559 22.508744739673155 3.4596841854838587 5.4877641037823 0.8395892100990775 
10.110741093213973 10.74126613138051 19.810956087522705 3.459735245020344 3.1643615797705706 0.6726937797571493 
10.685457522158396 10.181428106033934 9.78324341102416 3.4598136778028836 2.3602953340086543 0.6578282434294763 
6.6137358585773764 4.82981149636848 23.72679706556854 3.4600322857383388 14.878699770561642 0.7073225903233019 
6.565507253086002 4.851169025881989 11.577415450561638 3.4601887151590214 14.826624952969606 0.7428341605883527 
11.111596861518665 9.514262698190873 18.01160788437521 3.4604951304322205 1.5672988909098606 0.7389916417085854 
6.447691399196112 11.093051560844362 8.76862533598586 3.4607267950780907 7.045826955407996 0.7072302979006146 
11.460949424907065 8.021713171619627 22.385173979361312 3.461017535868076 0.021713314055254784 0.8103133213147086 
4.901307763648125 6.458296110416498 33.538889471426515 3.4610322822511064 12.471017512601023 0.6808378968272908 
9.43071494361311 11.151612832868238 33.080103548549715 3.4611571328354414 3.961819865951174 0.5836648611058447 
8.777639205474758 4.6267068978994175 35.660750780595166 3.461766757967786 17.097524008193744 0.8713175896447553 
8.629777730781983 11.40400927899887 15.472560023272742 3.4617768792484735 4.804442034018962 0.7955178997582552 
4.868167269014977 9.475062118228202 26.887799685366765 3.46181809278029 9.351828580808771 0.7428890580625425 
7.811365708834339 11.456944346641414 37.89683935870584 3.4620871034073684 5.626961454034834 0.8344125559184036 
4.544017941273038 8.205576755151224 2.149221203994678 3.462090956705376 10.670781760931145 0.7189028931077697 
5.737162626304205 10.620513345055771 37.41662710625988 3.462300271699421 7.9047122488927 0.8456856098641062 
10.488351668347542 5.592402850309327 20.87441205777659 3.462429502613255 19.092805062255195 0.6789108350252745 
5.1215398218092645 6.075139741807156 23.066100472770167 3.4627474656694286 12.919544644978188 0.7564867698733494 
7.359083497183102 4.597073864670513 6.264487827272859 3.462756163245042 15.673220496529296 0.732568446550362 
4.86558041859171 9.472060760515252 23.84467755659403 3.462881602793323 9.35851907718369 0.738867233630775 
7.143266112225607 11.355298478525212 11.073301957708573 3.462949730281199 6.305312126668632 0.7064117508990624 
5.878899058992085 5.26196333514463 29.013609779167 3.463511798743725 14.038580201994584 0.7668549923119343 
8.993341035839903 11.318053162817865 10.397588726438258 3.463553551595405 4.433048387178289 0.6271134379566357 
4.826635515412281 9.388260173613887 8.361989540733155 3.4637419738896726 9.453262493894211 0.8051532156656555 
4.7514542104491895 6.796618266185433 28.358249527102537 3.46427154595116 12.112329877550856 0.6787736714661862 
8.174116246610428 4.539571732145134 10.204568702086675 3.4648059490111027 16.50170298724667 0.7737598147464935 
5.187803168805919 10.024858213606915 4.531418774758784 3.465328527367851 8.724143678199546 0.7258348597390873 
11.29009633606106 6.91157221081761 10.444712513687683 3.4654594143961486 20.666956743645883 0.626298003234398 
6.789567561702878 11.24733749639744 16.037392240468243 3.465594826749186 6.680244290149194 0.7712970000088316 
4.612606314271684 8.732140632307187 3.179105073206699 3.4656119066605307 10.149841968355261 0.8371542807691588 
4.805198928635301 9.343794272625232 11.493755244998496 3.4659106931271886 9.50851294664606 0.8701472351743812 
5.862975974772677 5.271146784567211 4.530274334318847 3.4660512915674877 14.030661525869949 0.787623549056952 
9.09722224376979 4.7119239585085815 37.70844689998306 3.466315148230623 17.45104960355908 0.7869163870208251 
10.487359051231396 5.585676489824859 30.2277103186144 3.466397706773873 19.10916258458848 0.6933083214382998 
4.5365997433671765 7.855098877402661 19.414909167783108 3.4664301050178796 11.03505470662276 0.7276640564612866 
11.279599917012698 6.877238929873249 22.739062308594114 3.466463332600223 20.63705055454196 0.5975582082906861 
8.88147036333932 4.647422452765831 11.04147061764953 3.4665207646376848 17.226851275378838 0.8662041541275602 
5.020186465502199 9.771319001131069 24.84893598102468 3.4665342496713105 9.031263767899809 0.7242437692047761 
11.434374864148086 8.475694765455716 18.262092755711507 3.4671625599867895 0.4771999514156988 0.5643808462156139 
4.753481496478937 6.782831637567249 31.498125330067566 3.467186354410714 12.13615345359116 0.6967586616722129 
4.671917374655502 8.97320350426406 31.898905100447365 3.4674571405904593 9.906881739892924 0.8007079426933051 
5.006383237756056 9.75017677783044 12.626059590821008 3.467688001081537 9.059496694608992 0.6970570980021279 
11.107394764947907 9.539477732934678 21.163016523240763 3.4678370658707998 1.595135894288422 0.6768177297628291 
9.27022039726513 4.773042019892898 25.354038831536975 3.467955833485382 17.64284399226979 0.6740006802338747 
10.398057872270025 10.505341395478236 14.78823990314968 3.4680566700463658 2.7996722969387875 0.6792996966283928 
11.236555136481156 9.246538815343634 0.7054230778758921 3.4683062393106017 1.2750672420357994 0.739611985151078 
4.673870684420386 7.016850070156172 5.0172803963255745 3.4683886761016334 11.893080410755289 0.7146148662611898 
11.166790161983924 6.584534841300606 26.865010418840846 3.4687319794890543 20.33666458605223 0.6598782575697248 
11.466310303787923 8.13086244350282 10.089019274443395 3.4687796270829665 0.1308935047363704 0.7325310338646774 
11.246992806156245 9.221267249135394 13.106739550374428 3.4690713421665436 1.2480139212606822 0.7630268074143662 
8.027525479197012 4.530839715572453 28.53770126225713 3.4692694808928346 16.376073039736294 0.8321719001027065 
7.469961014621182 11.428891174165958 39.87310270869487 3.4696161185777585 5.9821828196968205 0.75130036036619 
5.358409625602901 5.750394003753794 37.492236247563355 3.4696868510651333 13.34795793887903 0.770164974667072 
9.395007904947535 11.176949191063937 36.10719479649632 3.469733882802528 4.014625099961851 0.6354513732192889 
8.133645335170938 4.532673519351981 0.9526278906778884 3.4699011511880187 16.48520234786348 0.7207654462017378 
4.69893944076466 9.070268335974255 13.444176878981146 3.470226956083454 9.814033697667838 0.7581249643120825 
7.1129934128039025 11.355353187517231 20.235887335834825 3.4706160402313753 6.348589323155679 0.7459955464464717 
7.425358568577108 4.576977550237775 15.425112872480739 3.4709214145935263 15.779032351867656 0.7583426953877136 
6.695576946109991 11.216490997311602 0.726387954142659 3.4709269423752316 6.78938082406453 0.8332653640473214 
4.52996365917331 7.919811984432307 7.030799905703162 3.4709627374114183 10.984546187099536 0.7230123782247169 
4.838339380390977 9.432858602052526 30.027960984049308 3.471193115783451 9.428046410420286 0.7584544659736501 
8.775775356125811 4.616366881273764 23.261959054402844 3.471426289770987 17.141093079017402 0.8549687253929695 
5.3178117159148215 5.796186119622362 28.146692098909746 3.4714448880298985 13.293532824670336 0.8064992843138902 
4.529558597534548 7.905160074153585 16.337001594370918 3.471737049299808 11.00163533492099 0.7170178720817569 
9.058494733112989 11.306521741153944 31.910912716377716 3.471814673157488 4.377894133069571 0.6466472761433099 
8.495539934397673 4.563706863711584 15.241582165253874 3.471839619724064 16.857896854471377 0.8238629489219829 
5.416679550737102 10.319701154341285 33.17726066397607 3.4719674521850195 8.367127242225404 0.7658504329398724 
10.75286332536936 5.884025546933259 38.27388901797193 3.4721181394351683 19.54058728149109 0.6375927191639407 
11.47159012692569 8.069663427969314 25.527035400375418 3.4722890148379575 0.06966810220079367 0.7025162257811589 
8.070145034620106 4.528334417833644 37.91389950228566 3.472374150387645 16.433327488304286 0.7958939917561381 
4.934199988457038 6.368655140858717 8.865481051311768 3.4728109306761157 12.608378982136944 0.6814597696964892 
9.026768733784264 11.317750298705192 1.1573766975583553 3.472998859377199 4.413026810104853 0.6748969938132046 
10.432574069961985 5.521160722453441 14.820744166179281 3.473047763817677 19.061362419845103 0.7207461939581159 
9.05647865024414 11.308651715697348 22.599897838074178 3.473229522247081 4.382247720584694 0.6979088668807732 
4.956268878184442 6.325926768556428 21.22501581933222 3.4737329094425933 12.659815299740465 0.6894903382264002 
4.804160113414763 9.361681113965707 39.29626701896619 3.473840531288105 9.5141829783967 0.8562436828913436 
7.1588212092333325 11.370519104983082 4.978216679658594 3.4738999402820507 6.306412966335952 0.7196173113681508 
5.379069229091627 5.71975581033648 9.759845908090924 3.4740166479722836 13.401336198156951 0.7833351766082265 
11.2718195715 9.168344952144244 31.576677911865545 3.4741665526642986 1.1915697029008072 0.7684346719479989 
7.8577645519037755 11.471300610556593 4.063667415185542 3.4742134147956003 5.599556882284453 0.7684079036956777 
5.01146916353451 9.77181768087049 34.114749620938596 3.4742847400220933 9.055481580199288 0.6736274781854277 
8.386466340398501 4.547195405785214 6.080423567062361 3.474365524537067 16.759829575392562 0.7616589779873291 
5.889153626136332 5.240251839666691 13.709016611941344 3.4744614435213528 14.10436533650109 0.7304970036116238 
9.920545361399478 5.1044102448706745 1.624782257110077 3.4746128583200386 18.408614871951354 0.7223457232864408 
4.646773854829487 7.089093400353022 11.019114450346756 3.47474839577422 11.83792048082756 0.7028926016674466 
5.5970801840432305 5.490027068818279 30.16730780899858 3.4747644175084256 13.721071931326243 0.7873984779419652 
4.9458721553498215 6.342678410407835 5.805588374484024 3.4748254262330693 12.644108371307084 0.6559739715584112 
10.039684705121221 10.813469293916993 35.239417124427135 3.4750429010472983 3.2787269444154994 0.7010143728306877 
6.212155625728865 5.019518885080879 21.7170694231448 3.475579834071209 14.500393972991219 0.7367495656599093 
5.015231337068519 9.780988116411702 3.4457843966400574 3.4757391504567035 9.049465471890226 0.6919525841446426 
4.56425332857558 7.474151734160614 12.116033117690371 3.475754822896786 11.44728103495083 0.8061542540926018 
11.44840984537431 8.435713150794337 15.13699944927842 3.475827442703335 0.4368624242490782 0.6079648787060224 
5.757642785829985 10.655802931151218 15.922728261809745 3.4758387599328766 7.897056063855288 0.8465146086000658 
4.5385303470810925 8.316264130554352 26.67975199781896 3.4758876791912945 10.603121051040496 0.7753811986706023 
9.883649286081509 5.078435334343009 32.39562733037609 3.47615804136849 18.371695187588514 0.7514285806293914 
10.749186493202805 5.8725807876918115 16.751982447754422 3.476196035799296 19.55222239237175 0.6428324376254713 
7.606808059939125 4.545991834446504 32.83683422411785 3.476315910477507 15.987717637966178 0.7367099907949736 
8.743033865375937 11.396262574077891 24.584023880395165 3.476592986988509 4.712209340931684 0.7607231557691433 
8.491657751645013 4.558182055417115 18.39816460349983 3.476756837687299 16.87714194488821 0.786398759753823 
9.586290592447776 4.9062041346509275 11.931773378369101 3.476764401011283 18.031094221448043 0.7588604482174716 
10.924314973274951 9.880763665927283 29.36861407829955 3.476908113538852 1.987200311065532 0.7519827147792174 
9.271879030293077 4.764047276362312 13.014528830818257 3.476933461732825 17.68676552242529 0.699874945194451 
4.560424693623061 7.491491437125337 33.797546236438386 3.4769612086928547 11.433534801520452 0.8035342588093869 
9.839000866192604 10.951052996918577 31.17741946851644 3.4771594695209553 3.5241557693826273 0.72993368077653 
5.469541692004631 10.385174868648932 30.164587677909388 3.4773953474601127 8.296165612145796 0.7645132216580263 
9.043736464704397 11.317107182344333 4.257203085643731 3.4774395561841165 4.402270019024822 0.6670642171468507 
11.474651421895706 8.140928953057998 31.822586367098502 3.477508227667026 0.14096755723132404 0.6756090159557091 
8.696798452981168 11.40711616570799 12.337316031966274 3.47763837261807 4.761114517424112 0.6320067388874804 
9.976964866845483 5.138594476495591 38.54585116946857 3.477934969875506 18.49213188663154 0.7330598536918372 
5.741730405561116 10.645229933564472 31.266456660981156 3.478077480820782 7.921121684013858 0.8289250777129868 
10.63009297887953 10.276245743456794 6.738423215973988 3.4783162251521293 2.48143911035438 0.6963686622521732 
9.069202487782876 11.309972473087846 13.438264538562336 3.4783777443630797 4.377024142017806 0.6961263405601554 
11.450523431478617 8.439805898584058 27.476460273352515 3.4784394747662795 0.4409862353487739 0.6453051289739034 
9.167044838533814 4.723156845920201 31.505642221706786 3.4784615437845634 17.581992849762383 0.7563978672265853 
7.038881092620006 4.656954914607816 38.16191781739228 3.4784623035312796 15.418078822807452 0.6761926779619958 
6.330864077882708 11.051878174153384 36.56370790869185 3.478501849413928 7.204925093855245 0.8096280768790645 
10.796899901746501 5.931734088668573 7.621689314126705 3.4785590321805975 19.6415017983041 0.7650160275889668 
10.398756848499328 10.519242140882792 24.036663186197472 3.478593880093247 2.8172857314388864 0.6347316295809985 
7.302001378251415 4.591927844358853 24.543362977997674 3.4788155878142533 15.690763412415748 0.7706124290713908 
5.918162230115884 5.212855880178072 32.183882466068695 3.4788246355305166 14.161763627250735 0.783322247187163 
9.98290511796041 5.1415047367028635 4.665047193017685 3.4789233790248595 18.503928759098713 0.7445539988491855 
6.711754293115288 11.231628197965685 28.473939028088253 3.4789363045611834 6.784367345676873 0.8290825081624148 
11.274907382411516 6.826063878964558 32.04855269238547 3.478957369621704 20.661493865485422 0.5642458100746379 
11.405767097652902 7.289638758333934 9.264158239959592 3.47906059405645 21.144190344174095 0.7861102857877164 
6.80262507945128 11.267030747438593 13.032988361606236 3.4795397116670808 6.688010745606427 0.8204112741777075 
11.35283199398253 8.9305157180931 14.170076382546974 3.4795605874149134 0.9419796317945703 0.7051686524169527 
10.995472918425097 6.229315305466335 9.515078886397731 3.4796813492723677 20.00580373766904 0.7609747124704612 
7.632103656728017 4.539801840814047 26.630556011053635 3.4797009958079403 16.029119418065875 0.7800645161889321 
4.636027494605893 7.109624227613349 1.8267863977916647 3.479810344415429 11.832535617278683 0.7753241287409721 
5.212852682498333 10.084001725931694 26.039041431733594 3.480122607487126 8.698751872185959 0.6226434128747407 
7.795589437368156 11.474502235874393 16.226464578706512 3.480509943271475 5.671700489167321 0.7866285692681674 
7.799213259878815 4.525248953348621 8.234374168052156 3.480547392467649 16.20079490317086 0.827353780304338 
4.721592411593768 6.831096529705622 19.16734215708295 3.480559098562442 12.126571583607763 0.734643484464771 
4.520745062870125 7.9041318864594725 37.87593612956782 3.4805754714897974 11.030430571035701 0.6592943907107998 
5.94425582191929 5.191255253591404 10.646885328107281 3.4806797003158154 14.2031478471139 0.7766473740182075 
10.821678347283227 5.9619084154611315 35.260795897011526 3.48075940025954 19.69292089316272 0.7913633987899913 
10.415708051743382 10.506022554078022 8.562073641130269 3.480774975893376 2.7976598536642214 0.6798673058278467 
11.236588748723614 9.280784620691733 37.62810547935998 3.480792434628178 1.3116034714108444 0.7125260950014642 
4.576722291414404 8.630533539776025 0.09444401888279685 3.4808623665525085 10.301417908871969 0.8020987941896531 
4.707572521277967 9.130883730143784 25.75611657498618 3.481232068355663 9.784830785119826 0.7577368848469365 
10.507736668150569 5.585407601087525 23.913908673833028 3.4812353625793273 19.204957895119794 0.7334736360171497 
5.489170923116953 10.411380876543134 17.870028582207894 3.4812383407459055 8.27279987741947 0.7776147540492825 
9.858801042714399 5.056535833913307 26.125562618200284 3.4812530234719476 18.365871243695274 0.7296313741660653 
9.110222233537453 11.299724862577634 16.545100952032747 3.4814907118293226 4.338756574054777 0.6813981844448027 
7.458304976490769 11.439157132978075 27.58918410441693 3.4815564455870387 6.012720836111974 0.7646293636010003 
4.684225540195985 9.061735051629354 7.369084262236967 3.4816147960604438 9.858894582625865 0.6834806375253154 
11.37641242575181 8.849946568200336 38.72721197965022 3.4817481295416473 0.8586229952280249 0.6958796705459492 
4.530428899824459 8.292962064517118 38.97843578666185 3.481917631193972 10.645458022786709 0.7867826763251454 
9.197826517457461 4.730467888249851 3.831041416456287 3.482043738336675 17.6315500038139 0.6871882611299959 
6.566399194515228 4.826610986841455 2.3206118127317836 3.482184529619582 14.931867957435102 0.6158382171546324 
9.943211002156225 5.1104373098715605 13.849364231782353 3.482189187721323 18.470974597126848 0.7297794397577188 
6.405750077660434 11.09597645249599 2.672203878558186 3.482341598592729 7.126007440230254 0.6987449606246072 
6.9033896254296785 4.694791060687152 25.67866801217862 3.4823785615766734 15.294728020149982 0.6746134078544377 
6.432124580218058 11.10955129692249 24.294417612832483 3.4824621462621446 7.096590808871923 0.7781968898959155 
11.40891290307774 7.2867825987721275 30.850878437831724 3.4827239687038265 21.16430104143374 0.7693752525879742 
6.452955809821248 11.120284005010735 27.33185110425184 3.4827457556203636 7.073735920860351 0.7536920383369676 
9.093253880755357 4.693284161786522 16.043197970829453 3.4827537499051684 17.52414466862722 0.8028883261013778 
4.968792425670269 9.71517183921097 6.523038117705596 3.4828198053726926 9.14822271043294 0.6976428446830004 
10.523933029430404 5.600005850244209 27.07088930491915 3.4828450806649065 19.235588181390742 0.6685229524797242 
4.522395422430474 8.192567411959569 14.32105847195286 3.482932070265127 10.749288149124745 0.8061142347161125 
7.515339582007945 11.449319313211557 18.2990281146322 3.483202469748562 5.9576397289489975 0.7512759243198543 
5.302951742072398 5.795749339195025 34.4241875268241 3.483215508872436 13.32951092986961 0.7852998127345197 
8.674056138242365 11.417481801986995 30.869259226066895 3.483322199339945 4.793254290405347 0.7137682794041856 
5.71416551250025 10.628442863333811 0.575419421381234 3.483353440300551 7.965001751102193 0.8259108032154969 
9.95376551827393 5.116151295864597 7.7726922852896365 3.4833580132882775 18.48912147024101 0.6988582267991188 
4.7127085826457975 6.847717002844053 16.147387058019994 3.4833950347534928 12.117813464807 0.7170518783023133 
4.6218839473452835 7.149621392618384 26.473391739619856 3.483505682655876 11.802815368971444 0.7750306632602351 
4.9774696880484 9.732512801038213 9.617082224257963 3.483861376752456 9.13159283161659 0.6671012374861134 
7.3343806820798765 4.580311901446722 36.9871039521163 3.48386506164854 15.747590483707565 0.6766194522994653 
10.92454880081244 9.894583660595325 13.940266130291924 3.4845993938081694 2.003093290767005 0.6450736664062368 
5.849959103339597 5.25761009013533 7.549488790988306 3.484735036561578 14.104391655628898 0.6859590843629435 
11.468419424219046 7.662362859372291 11.21559862356063 3.484814505971765 21.557567666835084 0.917541734146959 
8.072019380032515 4.515924483245362 19.410105572286554 3.484819794128439 16.4938509041757 0.7416062520963793 
4.523151078482373 8.236059311725013 17.52881436978629 3.4848532855359022 10.711749267757583 0.794966361062007 
4.524987713747199 8.2654119784723 8.181915155870612 3.4851332697508863 10.683199876972935 0.7982425049638638 
7.526550935407039 11.452947856226977 12.112290199194284 3.485255071667843 5.949543282870426 0.7616562277968356 
9.413762618834381 11.185785994220957 14.563841131550383 3.485391964096412 4.01912280600995 0.5206464714939308 
4.569218041020214 8.616282907894064 37.05800490673951 3.485694976991464 10.331094021966951 0.8510648234990342 
5.164554437602543 5.972370148762973 29.371304643325814 3.48583337968798 13.115035919423132 0.8459751907800384 
11.112899212781198 9.568869868551648 33.55662912743562 3.4858993349468754 1.6273379308657248 0.725531955278631 
11.464066839851437 8.390270122009014 24.466948585610055 3.485981904584598 0.39109001155714296 0.8082867438191367 
4.527517567912724 8.306765302036956 23.551994122141338 3.4860061950158086 10.644448841136963 0.8025358429353489 
4.737425094123582 6.771688968673438 0.8692520184513342 3.486135827263912 12.207278921400643 0.7556521948606302 
