226

7.476536903976061 7.4292497997698055 18.637521687263447 0.07453930310675849 0.3273892589570693 0.0 
7.474145293702568 7.412510213676056 9.319829402687255 0.09123008576525615 0.403697711364984 0.0 
7.383433978436429 7.519757027748199 35.49694207257122 0.11822849710878502 0.35157562139830034 0.0 
7.510180205931844 7.633349745348328 0.4722821109837909 0.1337377701970488 0.19988473523904204 0.0 
7.374920246039668 7.438945824509716 21.868890824060117 0.1391853339816218 0.5004676980336598 0.0 
7.61612505911102 7.607193829197733 36.4698415728613 0.15803653492661285 0.11780458901077928 0.0 
7.378686814569576 7.39194856439957 12.43919873161066 0.1624561531447517 0.6285811329480548 0.0 
7.388711178100291 7.377716373688656 6.05839234116101 0.16534354279401775 0.657079942594958 0.0 
7.529475758770438 7.670209267321212 13.42508570563793 0.17274262657814665 0.2417227815406786 0.0 
7.491600321376463 7.681239556983742 22.922915182188213 0.18143409717206405 0.2933986954511685 0.0 
7.416543458924274 7.330265925407689 15.516279023990982 0.1891418788265371 0.8048765211587043 0.0 
7.619845239901579 7.65023752803271 3.900554961342742 0.1921827160710512 0.1724755875645645 0.0 
7.430278697050294 7.682835311941828 32.42322496177472 0.19567782546285217 0.37865780589716636 0.0 
7.469711636265089 7.297977379659768 31.45716184665624 0.20428050349182136 0.9322487431368458 0.0 
7.4549356324517575 7.700484145683678 26.248744466281636 0.2054864713138964 0.3682110398806975 0.0 
7.490728948806993 7.2863475287263615 25.252335925740837 0.2138535266755195 0.9984870448285577 0.0 
7.505771747915961 7.7275901388848 16.454088074585428 0.22766331367088632 0.35184033048602714 0.0 
7.392389934892552 7.289711382715673 2.583473515825734 0.2362228368972481 1.0014442683209612 0.0 
7.462935906883779 7.257741430546906 28.351457637037747 0.2450774601467618 1.117693468160887 0.0 
7.531423872171864 7.758355535592546 7.021413535408232 0.26025956757357394 0.3773140443676617 0.0 
7.300123442951154 7.672028430295752 29.258046618216767 0.26371275829531005 0.6410684925134191 0.0 
7.406391994110809 7.252212529457321 39.513375258639584 0.2648793863713994 1.1525398281154118 0.0 
7.567623849385576 7.775355647335431 10.34500615115953 0.2835378590686588 0.3770982889889751 0.0 
7.6648279245525615 7.83814772886519 19.742202422424427 0.3761809820405482 0.4202860405154283 0.0 
10.010847068247077 8.628676531083588 24.330868929316438 2.7528646374175096 1.1629610741137641 0.47690783801811587 
7.613512348234167 4.743480389431017 10.948324515952876 2.7588558165755996 13.114346148438884 0.22899029527372908 
9.561158429262534 9.336710983716237 34.129801025326714 2.7607754903692996 2.0095121437468038 0.44572480413951887 
5.926184301850277 5.230326949382098 17.148628671236324 2.7619398270859685 11.340798452953845 0.3191527561473152 
4.893090357465914 8.500933827375622 37.63137504050045 2.792462427880099 7.749069146941817 0.13021435143700924 
9.750035291009802 9.164303511334538 1.782329434759177 2.798672004474626 1.7823700360391648 0.7170515620157781 
10.19253370522863 8.286395647176409 14.871516388376818 2.805023327477012 0.7970794803784251 0.5007021792763234 
9.830881041719717 9.060808033658478 27.891365773167074 2.805196632783743 1.6551935401164233 0.646600596093079 
6.698737799276945 10.193010429798822 30.91167837814463 2.809684375390373 5.225982636824398 0.3825869401528276 
7.88700371184807 4.7162231586368435 29.93754490685638 2.810548945578785 13.632637104470561 0.4680163090139485 
8.862670148117363 5.040365876945986 23.775761589540437 2.8118801453585958 14.673257326407139 0.3633797098969945 
9.602836002159897 9.375406592594413 8.500917143215055 2.8176353808692864 2.052061335251885 0.5775869962822575 
8.212208649894574 10.226462975514492 34.49832770809247 2.817949878517358 3.706407697192798 0.16892756126474018 
5.659790908903693 5.365211275192079 14.033578164895744 2.81845567616745 11.27653890492249 0.38567674741763824 
8.069983450596112 4.737398221677513 17.33048438024112 2.8207888470326923 13.866589551033762 0.49012208709054905 
10.281698314309565 7.968222292253815 34.49630224956544 2.8208292445300738 0.470399459131281 0.34995313963250907 
10.15566108355248 8.459398550323327 8.353418420000722 2.8236468208785674 0.9788888260380251 0.7154126607262309 
6.861044073162558 4.73236246162776 23.373492934296774 2.8404369769892535 12.740772657542202 0.32613708955781684 
5.674640746805682 5.318809210965076 10.954190389120548 2.8442098483397644 11.421126190393998 0.48449026181884386 
6.575248707490587 4.809314437462806 20.21752566624193 2.8451632201762918 12.465655961161005 0.637327229724031 
4.97086265140995 6.189647728569259 10.652564713457394 2.8484309370733927 10.310229404450986 0.5145800415309569 
10.349529380756042 7.45492719971315 8.333938706212091 2.8498858308917594 17.861286100253846 0.40313269383135064 
10.224115044180024 6.661491142431027 23.97409602450204 2.8502455820770174 17.05752042255794 0.5618066472088963 
4.9483446409527065 6.227352970368491 37.324084883953816 2.8514164082758366 10.277196380306972 0.6118244052603046 
6.786782498432064 4.738426304993521 7.641740762544131 2.8521866133713174 12.719745072974673 0.4632809687543597 
4.666987468699498 7.13211452017671 10.873777524346558 2.8567988603978574 9.343808236669876 0.9348824274737241 
4.9707711968963935 6.168207992530011 33.41831245449447 2.858438085670185 10.365445977681969 0.5327960461404538 
10.306225191640156 8.05187679609509 27.476329712142615 2.8599768922604962 0.5553604067105642 0.42927775973283555 
5.106993425900123 5.932759935059332 17.04057518544073 2.8605457319959853 10.645298875718016 0.4922333545426043 
5.571019541002945 5.38082792720088 20.21696404535703 2.8656335923010468 11.38785199762948 0.49979564764518986 
9.503003325324284 9.55063543860631 24.764012417064436 2.866553335161971 2.2850674900362353 0.660029621700143 
10.358950758345262 7.290784035054386 21.022170195294457 2.866595674075968 17.801949671586303 0.3981978627391452 
10.345293040229873 7.86452728874082 37.75381129863072 2.8685488716452556 0.3655155900828966 0.4778959154063385 
8.7810822648032 10.0705613318874 31.068293322054544 2.872099812016986 3.18359678945993 0.2857910286669122 
8.14721148268882 10.299613551487575 2.3728578725089733 2.8734506679247365 3.8607930045995627 0.48145032937976723 
6.26388597173578 4.902167000718174 4.359675555797601 2.876927907165767 12.279498429415254 0.7579887271965747 
8.313208558092024 4.738021678011336 37.13945495807637 2.8792069064395887 14.392371150910394 0.6205136780010262 
7.52211339142079 4.620793658968074 33.09333945375718 2.8792912593759223 13.590454010819643 0.507042846898767 
5.624499803957386 9.685086709969461 17.89043659989925 2.8796015202525935 6.565779106786005 0.573929357785984 
7.734783501325683 10.370541339504506 8.536802272623675 2.880126885104039 4.289048416955959 0.6762205530473485 
10.382345266007517 7.540971784863544 30.60266730332318 2.8826364529074513 0.04097316449515276 0.7132804713327633 
5.953800943825726 9.934346049431007 14.775081818681926 2.8838814486199973 6.161898125513655 0.7411973969420984 
8.699325633691782 4.8771308584869395 11.093776540088935 2.884063887838072 14.827726714898636 0.5976838490288077 
10.333381378692849 8.04319957422012 5.248412269740573 2.884981076984095 0.5464614107023102 0.6784149971904085 
8.780869299611012 4.9107360903268695 8.033601441260284 2.888756437746489 14.939999289290713 0.6398674329970908 
5.368619767763601 5.547328178861257 4.398470667058795 2.8906243158593585 11.225048930713251 0.7200606136994401 
10.06023252080038 6.149317712645704 14.467759887578275 2.894673246143079 16.78253890433015 0.8325209200355287 
6.8289933454536556 4.683373770517697 17.2112552048281 2.8954504394054426 12.967325957007105 0.5029279830872924 
9.106368540200766 5.086780361746776 17.5193709360006 2.8989737683183274 15.363662173283425 0.9215462497851635 
4.69750805622145 8.24580329279507 20.69449816817587 2.9000316630146723 8.35643928308351 0.8767773467020954 
4.926953002914855 6.161896324053224 13.93073812079475 2.9001883209183426 10.50201236279603 0.5186521935308094 
4.6572254216525675 6.923363334772366 7.759441691227686 2.9006683965912523 9.69322240461635 0.6230163523753985 
5.708194228966261 9.781823720803098 8.571549649875106 2.9012561786111744 6.4885997781032945 0.6015568183845899 
5.060679086214838 5.926544717767333 23.399651112805607 2.902765585715725 10.782241228844015 0.7129666241365329 
9.337493895989647 5.251324959100614 26.95507399316996 2.903949596215998 15.674059812131418 0.9154683290672827 
4.66278038387184 8.120052559888256 11.354607207511613 2.9041832461410544 8.498898147280116 0.9009472641159467 
9.080684881019124 9.938610644327666 1.948490518212843 2.9060947279313907 2.893581180004457 0.7375344230238892 
6.272046677998317 4.865185741265686 1.0810148248250684 2.906908244001628 12.430721342435696 0.6149349652644778 
7.720500172199223 10.399026118762412 31.040245601768518 2.907399656601503 4.346220598845395 0.7269473980669546 
5.331948801924296 9.437519188942305 37.444540499343375 2.907649670265855 7.014084391666154 0.8554299851273571 
8.825726021435568 10.088709538502536 12.005844036752286 2.90843025679582 3.1920050933441892 0.5202090399478998 
8.439343159443562 10.253797351394025 38.83061948768029 2.909598842407345 3.6139099864893502 0.6607325980936974 
8.457047955483251 4.75144489480865 26.893073386283383 2.9104116470643997 14.690185451461062 0.7454390158397508 
8.256064484571842 4.688601009750268 38.18563053493721 2.9112879945495096 14.483953489220202 0.601423572635584 
4.639671036603984 6.941581688213462 23.704063952798776 2.91432887467778 9.717527259569914 0.5598490848886721 
9.698586823745845 5.586703640681309 30.327592528763475 2.9145303189589584 16.22535956307337 0.7956370856797516 
5.002206897121887 9.002104662660345 8.114911263065594 2.9146678717087853 7.578615645688156 0.6418094407855004 
4.646408601263506 6.898115382554311 17.171655721840487 2.916375998334344 9.768306752234654 0.8098206530569205 
10.411974242268093 7.308575518614214 11.529846090202192 2.918259296174116 18.144401908768348 0.8573389917520179 
10.060874447318026 6.094819143336865 27.2345331193416 2.921063363718584 16.8876371183923 0.6107457554057469 
10.232736256246431 8.5343806720074 11.558391875691946 2.921949832017351 1.057302958595173 0.6031386358339591 
5.901480210886794 9.947220593841978 1.9413127569974051 2.923038513449803 6.282827131236001 0.6762582129361951 
10.164188018458104 6.29560769168434 20.90290661880055 2.9237747228583895 17.129266166924978 0.8765179294245099 
4.966158222092902 8.959493368465745 38.5661375607884 2.9241195338191788 7.6582895937680675 0.8843452176058246 
5.1050758390255595 9.180630424018746 20.887260333749296 2.9257785902143305 7.401328307139064 0.6377886509839206 
7.044027611034872 10.390579754311291 21.436599675436085 2.92632228839082 5.054494246358107 0.7232182602802314 
9.627613044698004 9.50995358379623 35.159685523980855 2.9268841242837795 2.2155604049353457 0.3979135196089694 
9.12508457700836 9.934555280480664 5.472147654423715 2.9271076673307923 2.8750392338057154 0.7205609214915373 
6.693298299767678 10.313942093432802 11.80271567488439 2.9272918778882837 5.415457318645636 0.6966727448849819 
6.503695224413223 10.254453580104991 17.91309516825205 2.929101864191518 5.617613515724486 0.823173788940446 
5.780741854799965 9.873449886976955 33.85008062431714 2.9307188428485573 6.440817565658403 0.5502850493183806 
9.356841912205189 5.2320543740416525 1.5599916420813713 2.931115700416043 15.823477337359073 0.8903842765767704 
8.501600019196923 4.744898485412946 1.3539811690997183 2.9315161528013385 14.836632525212796 0.5425996473509112 
10.42706895406533 7.6906389192392925 24.05866208485616 2.933270505661189 0.19077338323485904 0.7097059395125523 
8.880401251429053 10.088651459014413 8.686942795987378 2.933704823462025 3.17105040696066 0.5611044677149948 
7.545451450964983 4.562827216119045 20.450952712334058 2.9375244333904402 13.88821103422817 0.6598293272864998 
5.678089421545389 5.192287765035797 33.47980155174 2.9402200453857694 11.890517089124618 0.5527984786049623 
5.002753321639883 5.946415106124471 7.535828855224196 2.9410656223652807 10.87640665428395 0.4261467855904591 
4.907928951747834 8.889654904041125 17.62629855569026 2.941083655986793 7.792313366442784 0.7727723055566125 
9.529761831758677 5.371346381686374 20.836534844357423 2.941275118111878 16.10057088874283 0.7811823773305092 
4.895600161726717 6.132163398996889 20.0697661637097 2.941747012345155 10.664415901792598 0.46882733736824334 
6.874451313858671 4.625455327153579 29.97752969093505 2.941822264332582 13.232649447746205 0.6375868065803874 
5.268434471177525 9.417242420835779 27.39980331082741 2.9420576489390844 7.1545319805435525 0.7370663135042261 
6.947783491291963 10.38987864888749 5.604575558886459 2.9421661540071953 5.177055017978283 0.869950082686748 
10.301084112268963 6.59613488700249 30.206909989418584 2.943305003987796 17.574620009685106 0.3817950497484718 
9.777374536423032 5.635136781571424 23.937627140683993 2.9434927556554022 16.474865705512237 0.864432206122824 
8.142198441796694 10.373586814590672 5.472718977743739 2.94447279145783 3.977764977174619 0.40501733034721477 
5.130207728542221 9.249372128602234 14.527121544280021 2.9455420985264045 7.3806116864289315 0.53545254975187 
7.30438685630067 4.560826542433293 1.256980955623888 2.9456756636894994 13.685412336037714 0.4204242499768955 
6.313292518028948 4.803840805935659 26.508986961561057 2.9457679894220736 12.66019974989575 0.44383470818402515 
7.42758366812761 4.5546360898593115 26.863064271917672 2.9462540094637295 13.811471302237855 0.5576991124300135 
9.008193473093291 10.031005441088059 21.375020432176044 2.9462919229259286 3.0447172578348685 0.3412352430879027 
5.675497659709475 9.813915235644107 24.385942518779345 2.946695184010642 6.596119265659098 0.7359806098021473 
9.467490053575643 5.30588350052048 14.419944862706224 2.9470602851328582 16.041981976450096 0.7888123394505555 
6.073745686147237 10.079142620249112 27.666972550729895 2.9472322649172185 6.118266889918953 0.7512064305927824 
9.25633499540369 9.871378859856629 27.777161161713636 2.9509575247798128 2.754168228048698 0.0 
5.3574477948738775 5.469601338154877 1.1295283045936202 2.9517873700036863 11.512327821082613 0.0 
10.157478913116597 8.78595984740584 38.530364813938185 2.9522680946688094 1.3305477262656282 0.0 
5.0706114305482295 9.177779128405591 34.27242408856736 2.95243486381941 7.490891820195827 0.0 
7.822375366964614 4.565020426449591 7.926282290551093 2.95263119511796 14.236966029620222 0.0 
10.387885253231442 6.882054035027618 38.182431795081094 2.953258954351495 17.933326902895853 0.0 
4.748083007849516 6.424009352683656 4.055349471915427 2.954793225388 10.384070045331182 0.0 
10.426238380046257 7.086383838225208 27.141286656152865 2.955325597313609 18.153879865374623 0.0 
9.300143634466528 5.155539803601981 4.639378111522717 2.9558434865880456 15.86461233799669 0.0 
5.867354860217784 5.035124807075752 23.383388902216794 2.9565418767789926 12.202744936316186 0.0 
5.6460476450404435 9.804814851594966 30.7765526817046 2.9579233990407565 6.650014385654073 0.0 
10.446499592760617 7.229728418648202 1.8291176125528814 2.95886913834067 18.320474260377974 0.0 
4.572288825295702 7.938276500975203 34.392878797108175 2.960334273996011 8.860270829688893 0.0 
7.205057868172798 4.553262191411845 4.6381204092668895 2.9614615603937353 13.660126920709533 0.0 
9.887446392362703 9.253232728928293 14.81630327270419 2.9620474807455426 1.8761986790109724 0.0 
10.40912532525184 6.936668283464039 4.8692262912700315 2.963166006297483 18.051339634141698 0.0 
4.575351066234131 7.980533314947374 7.949122577261008 2.9638629611627034 8.828586243836298 0.0 
8.420997813576045 4.682511438096084 4.8012655088066225 2.964199515732916 14.904961003626184 0.0 
5.013504265762268 5.885914446917154 30.18382412115995 2.964444839941064 11.019919198754039 0.0 
6.600226413180701 4.674781141491753 10.932577244924467 2.9650386348255755 13.058226235308599 0.0 
9.65925342662333 9.532127484770479 30.89763198838063 2.965116772530922 2.238891876514071 0.0 
5.147662700037834 9.305207719686921 1.605893905179137 2.965175489580768 7.374515356850511 0.0 
4.552846375869146 7.827171632955794 24.16114093512111 2.9652581273202157 8.987794032202912 0.0 
10.451228555473772 7.791894688228339 38.791014284856615 2.965628516126004 0.2923680508249191 0.0 
4.538178741186309 7.347218178890811 1.1115219526620592 2.965759169929709 9.470056698435377 0.0 
4.560013506138876 7.109650716068751 14.179066164764386 2.965787104218956 9.708780152970927 0.0 
8.672688298159098 4.775816165835247 20.542846003605113 2.9658684068858925 15.181943392935164 0.0 
8.12731362130857 10.399899047960657 27.579859610182417 2.966974362518557 4.028428350552275 0.0 
10.307609764228395 8.460083513959756 31.225260409450122 2.9672264729824596 0.9776780229973472 0.0 
7.970434126812693 10.430112557467409 15.231338871545802 2.96763674783458 4.189125896179629 0.0 
6.87360962502898 10.401424283588954 2.2747164559855975 2.968270165476181 5.293683152426041 0.0 
4.803218000316402 6.257155329859268 26.785047516095325 2.969393208706906 10.610956534109995 0.0 
7.557131240742253 10.468959206531023 39.29094299056615 2.969508839642353 4.607358811841728 0.0 
5.1831865361301706 9.358155629942775 4.8125299609645324 2.9699102631993024 7.322654336913979 0.0 
7.5357843427923115 4.530027413643772 14.172178188374588 2.9701881561437458 14.032467145214902 0.0 
8.066178261341141 10.415909348714582 21.293821879167226 2.970367848185877 4.096178978183492 0.0 
9.69871228169596 5.502478241034584 8.080551061301136 2.9705940273320643 16.47401127205943 0.0 
10.1956636059014 6.251690542035567 33.96874697227021 2.9706697526020593 17.376953431958746 0.0 
7.682206185324576 10.4655192705609 11.775634931415418 2.9711115155844587 4.484690467169473 0.0 
4.606071740049204 8.173152059288686 14.448482976658077 2.9711873836341005 8.655212419289185 0.0 
8.011545453405217 4.572858771190374 36.16672582538119 2.97150374798631 14.516987945193002 0.0 
4.766924642199291 6.3320751623347515 1.050361283213661 2.97216240098903 10.537608889382177 0.0 
10.001407591382419 9.105317991291312 5.374958441661427 2.9722190012495964 1.695843909858871 0.0 
9.170604518857893 5.041391617006143 37.83170832008209 2.972486272357886 15.781577991183632 0.0 
7.613151163612272 10.470442572278746 24.60774123042671 2.9725968884180696 4.556165767327052 0.0 
9.607623403791344 9.598521060227267 18.18315940514602 2.9742002374464227 2.329495070184125 0.0 
4.713974973765149 8.541190119861351 27.551511038954125 2.9742246573693456 8.280079767500943 0.0 
6.883663172190619 10.410539183607742 14.865250435546493 2.9750814147902145 5.294079818995094 0.0 
5.773692843632899 9.923557193710797 11.625444385078652 2.9755278303708774 6.515607701484591 0.0 
5.311899464439618 5.4815890211959335 38.036060312732815 2.9768719880230705 11.570127810327524 0.0 
6.55924666405709 10.324982549660621 24.519682374396133 2.977506212415809 5.634209152702589 0.0 
8.922009097103988 4.882861756893385 29.988916246919892 2.9785101067106816 15.518360726960372 0.0 
10.470468838439333 7.277785590360576 14.602964978779639 2.978768934306672 18.493736167474935 0.0 
9.506883554449523 5.298475405882904 33.350352521497285 2.9789750149375878 16.240089529041086 0.0 
5.399936382444631 5.386532481340549 26.720436798198463 2.9794315146027914 11.709678203038335 0.0 
5.792930258803736 5.0579684966039 7.627000484359058 2.9795309974703894 12.222959185877254 0.0 
10.310658620911148 6.510706348033791 7.959565159075183 2.979681830854232 17.713458443618443 0.0 
4.540489011414966 7.153626607129164 20.259351059746635 2.9797113650225295 9.708197579549513 0.0 
10.220205603148337 6.28346286793572 11.164859866959958 2.979845821026781 17.469773903813554 0.0 
8.672437890118722 10.240222489758837 24.397056220862382 2.9805083290549925 3.4767742553886087 0.0 
7.3457852475005225 10.476529420445944 37.419561052410856 2.9805216960573793 4.836076176100839 0.0 
6.004844851464885 10.078469848714727 5.167861737293528 2.9806032407756007 6.248168249838571 0.0 
10.312251616616944 6.5116175433295265 34.9512170545937 2.9808822579596397 17.72198308372782 0.0 
4.665493463054112 8.422782667463723 1.6522658098258347 2.980931927998429 8.426678682740153 0.0 
10.051376202240217 5.955841248651932 1.782928969313545 2.9822720826112654 17.1150571360076 0.0 
10.45130078301641 7.9341297133790345 18.009980044967485 2.9830596574443202 0.4356769452641913 0.0 
5.002256408536821 9.13116643710397 11.524236572020904 2.983190740504172 7.646132962400218 0.0 
8.344761240490826 10.361638734838072 37.7562412837748 2.983722138899874 3.830345047160197 0.0 
8.613610246364605 4.731674330022276 14.35421173193567 2.9839160168922056 15.202602846841259 0.0 
9.900357546774536 9.278708175805699 21.304957197964846 2.987560731940943 1.9052505603553271 0.0 
6.569868483890392 10.34025956395997 34.4535772028219 2.9886818211255672 5.640451683788093 0.0 
9.611600255727236 5.384763807741159 11.09417181122953 2.988825821125914 16.429357178695618 0.0 
10.361169073540818 8.365053918400767 21.12339681507281 2.989081255022509 0.8776085436079697 0.0 
5.152213704732242 5.649805212610422 36.517659132491815 2.989200769358036 11.38589605454722 0.0 
9.98302475396818 5.835612560168704 4.941791880334499 2.989246975190729 17.016787921113853 0.0 
4.514082026683143 7.344432357907021 4.521055506818463 2.9899677982618824 9.548898786949701 0.0 
8.678667023483523 4.752074124884032 33.121038098071274 2.9900422350494282 15.301790524370382 0.0 
6.481998188354682 4.6882455076068155 33.005226963347546 2.9903663678563546 13.053002626560385 0.0 
4.560573465040481 8.051576602775356 30.74703193145229 2.990729861280241 8.840902620472693 0.0 
4.967139325662611 9.091174850553186 24.16883376056456 2.9911904988879927 7.7193250238633375 0.0 
9.765842722847893 9.452737556579125 11.617237735371418 2.9911916036184234 2.1276749498476377 0.0 
8.56711142601062 10.294551811961666 18.230982848077637 2.991362001707688 3.6076724725913785 0.0 
4.531323816307186 7.130011893189318 27.3700256575992 2.9916432746579753 9.769462367418544 0.0 
5.704116324317962 5.106774886211383 29.73168600941021 2.992110395999747 12.173789828464903 0.0 
7.110078265588768 10.46805492533816 27.93574103166256 2.9935579163915262 5.093302586247143 0.0 
4.866027078541421 8.92283592252281 31.13337173781352 2.9937059664232866 7.922289632965581 0.0 
9.159636821015981 9.991667165765517 15.140256060217368 2.9937935203727717 2.9435084409130567 0.0 
5.909545444706891 10.03669688573507 21.39293254165949 2.994056910372714 6.379787843632357 0.0 
4.525549038635797 7.149843902640816 33.767789702996254 2.9949904530863276 9.759998755484226 0.0 
6.723520615069431 10.392856909609367 8.630325219969677 2.995253133659462 5.490383085431226 0.0 
10.387193186984375 6.7006664890873235 17.62471816631625 2.995800153654608 18.014032279656817 0.0 
6.541228069152231 4.659944432611951 14.22432387987989 2.997525519696773 13.149584211699171 0.0 
7.830125359543173 4.520349619774816 23.621519813125396 2.997882442890246 14.457984415480986 0.0 
4.652927200125845 8.441020952409557 4.853265942177806 2.9985569797249223 8.463049826896096 0.0 
9.898927401494598 5.700494045756445 17.488219515248304 2.9988455040231123 16.912293279942574 0.0 
10.401824419343741 8.25845678618288 2.123700128016999 2.9993068627945547 0.7667821570643909 0.0 
4.54401614733646 6.989227101081063 30.421676341664643 2.9997882411059678 9.937386398770066 0.0 
