392

7.100927814287246 6.6396975251198995 19.648792593079847 0.3741714808767833 1.8654351582646953 0.0 
7.35401254194165 6.745715653407135 3.9606378882368602 0.43587315674878013 2.467167637907867 0.0 
7.545393632307011 7.0015049479392815 22.08132642331627 0.5453957086642092 0.0015049498490977697 0.0 
6.409530291263132 7.114608459934067 12.124467723716606 0.601489464599557 1.774321348093153 0.0 
7.172627800788482 7.779305209021172 10.058177736181094 0.7981960701560737 1.0798007722579683 0.0 
7.845013240691799 7.1831449581521944 13.563201333469152 0.8646325535399582 0.18454289750978248 0.0 
7.014882717887363 7.8757495900808445 30.845169996471466 0.8758760413543021 1.360939434346328 0.0 
7.750762790923808 6.539753464280629 34.589469046455314 0.8806086769260162 5.048735392805622 0.0 
7.842272450964995 7.274066658516425 5.965667561137536 0.8857400380274898 0.2786398198963411 0.0 
7.895040016303977 7.20955580595831 19.86863819952093 0.9192443998177282 0.2114146517160762 0.0 
7.915191597919225 6.8839970228046266 10.079374663573816 0.9225141471111087 5.680016451313147 0.0 
7.763741757580096 7.538442988813459 34.992538864522984 0.9344636560476323 0.5738337684189965 0.0 
7.4939391824151045 7.795929511429904 8.073762543392867 0.9367388660079952 0.9511464941266787 0.0 
7.072926439198372 7.935952951847185 1.6632993041813116 0.9387897494144335 1.4016475065079845 0.0 
7.944792659342156 7.118380349120681 1.3014002778302185 0.9521801700333614 0.1186874545827834 0.0 
7.241667178505908 7.929000323425589 37.158179055587894 0.959919072678451 1.2635415976622966 0.0 
7.90799914440824 7.4086088379980115 30.46460233135629 0.9957025804607431 0.42104515607361037 0.0 
7.1850685707316355 7.985476700912111 5.573666399547456 1.002703696967986 1.3889075160603213 0.0 
7.927467519612097 7.395962111804794 32.6463349299892 1.0084552513227 0.40691450000647933 0.0 
7.827055657374775 7.585832967997058 3.5778979915271023 1.0135192779557096 0.6246303589649216 0.0 
7.923834746197484 7.44297512672158 24.129134400607626 1.0245475104531607 0.4580857710440931 0.0 
5.997691002087649 6.758291354724566 6.625531983464981 1.0310414135702546 3.4830913678321274 0.0 
7.042513901956106 8.036291714857462 21.610296856229382 1.0371634153506157 1.5866466666620092 0.0 
7.824329949700676 6.353227930847025 23.973675100743947 1.0477757276296966 5.886302724660013 0.0 
6.79654544698629 8.037207011969702 39.65698242948858 1.0569731031682528 1.8650218290509137 0.0 
6.683402175613965 5.9738505190066995 31.84379217253874 1.073879387896418 4.739164030162602 0.0 
6.035454916501987 6.508470825697243 8.624776030786421 1.0825655394898446 3.9111883344285054 0.0 
8.093157413395506 6.993275785095955 8.016600468005649 1.0931780941491782 6.8619162819814115 0.0 
5.909164679644341 6.741945751636239 14.961133962951582 1.1209432149908478 3.781936725814191 0.0 
5.829344844467698 7.074122445628959 33.82815267841161 1.1729994160784463 3.6109144847316053 0.0 
8.14492155637027 7.303352806399964 15.745916943622944 1.1844274124622647 0.3067711734040195 0.0 
6.35789331639311 8.017182268712194 16.672260344560847 1.202896820560734 2.5668431202617406 0.0 
8.227586148210069 6.6979304581586 26.099608756898157 1.2642047932931986 7.6382126662177185 0.0 
6.146836901086321 7.956737629514262 14.599276114557526 1.2818869548741665 2.947096824511032 0.0 
6.117811604207022 7.975020453125092 1.9761763329559017 1.3148845005109955 3.0324541414024004 0.0 
6.199424024767442 8.055746247682047 33.542284375194114 1.324961143435643 2.940871126486879 0.0 
8.256566282761085 6.39813131828811 28.11954661104747 1.3932712345403582 8.131821416543072 0.0 
5.752453370017605 7.628765569255847 28.48518280735881 1.3970392747027756 3.736729187225265 0.0 
7.9292219020607675 5.878842239302937 36.641415817920844 1.4561758367864375 7.869828383471884 0.0 
6.981867123676896 5.536018199930126 36.37175429819284 1.464094092652375 6.881247528541017 0.0 
5.865215198660218 7.9440653857259385 12.451811251604688 1.4761422688472905 3.613125580471106 0.0 
5.820593235843113 7.909859136426039 35.64525689360533 1.4895784516019828 3.7008594614523354 0.0 
6.071146928974326 8.173868812021208 18.71386002049813 1.496908819998704 3.3533668639510523 0.0 
7.927300959252214 5.823912431047127 9.939485956792197 1.4976878976861494 8.057643516194819 0.0 
5.971996862685128 8.092413106587305 31.311865677002693 1.5000522810132146 3.488863192952625 0.0 
5.532937133532439 7.329599058406291 16.92129907226773 1.5036319341748268 4.39150170832492 0.0 
5.710737260207958 7.819390015600591 6.947177185708263 1.5276119958556302 3.9342780410722646 0.0 
8.099507217406764 5.893221159938708 7.812178064694265 1.5600883058138058 8.571891607869784 0.0 
6.818718657433674 8.56853913848848 10.686128400507585 1.5789800360146513 2.6619380132374992 0.0 
8.166466067572346 5.92636094322576 39.59940853099454 1.585352929485663 8.78159033055773 0.0 
5.440758204199952 7.360950387938518 4.775949531148235 1.6004749795990962 4.663958017302704 0.0 
5.402868110709139 7.26043990014414 22.856391968048584 1.6182271822512688 4.822233090466529 0.0 
5.761236417372084 8.076233973567918 4.107908333852663 1.640979823004212 3.9814875637208864 0.0 
7.9792257061922385 5.657126980371405 12.142813685654353 1.6619840343740107 8.879059898168489 0.0 
7.372532759273479 5.368990032038083 14.280445241051243 1.6730135003409403 8.259572458470782 0.0 
5.689686644183993 8.072429994566772 25.447897237225728 1.6932298082883754 4.158065590069246 0.0 
7.661763871141078 5.422358887006219 23.538123125401825 1.7108135206842041 8.741506686161191 0.0 
7.741981774873011 5.413738147675101 27.64312778254835 1.7512177529893078 9.018612768367912 0.0 
7.889492967319578 5.485854285360723 16.715424846463154 1.7560851300752693 9.208091014146568 0.0 
7.645775101005096 5.360765104322933 3.4318879663289366 1.7618503126779945 8.963709808332435 0.0 
5.248852365758095 7.255773503089257 10.390515849223817 1.7697282621333619 5.303092893740015 0.0 
7.275835882679482 8.770476742681666 26.867506286638317 1.791835185096624 2.537671015947204 0.0 
7.030664917138349 5.201652506720567 12.187392368687675 1.7986089190614853 8.506411253135425 0.0 
7.612924242105972 8.694256490673881 28.889602420355423 1.8017161770799976 2.2047210259365357 0.0 
5.2083948529426 7.228536627995183 2.2398439325415254 1.8061223638773702 5.444949837241662 0.0 
7.88003467112436 5.420574066257503 29.83227866873239 1.8080506913688348 9.439349626984438 0.0 
5.237984060536588 7.510114256527208 29.486282712592438 1.8343709345809636 5.245917365902788 0.0 
6.9890865991444375 5.104543994261302 16.426662046033734 1.8954874233318284 8.92136058501439 0.0 
6.926867968061266 5.076517807363894 9.796367462645748 1.924871954048812 8.99759574739656 0.0 
5.29783418054366 7.926992352429991 37.933774602494545 1.938216525156352 5.122527975942738 0.0 
6.475542632215959 8.911304687683032 14.833449751596724 1.9819538692366425 3.644025101038519 0.0 
5.057043584083541 6.518640425683806 2.949257910145228 2.0016959494230875 6.774637316057117 0.0 
8.539713634195206 8.29468730623206 11.751867924080301 2.0116991067863585 1.4065100892738371 0.0 
6.900754158796815 4.986716678537956 2.8501666991581516 2.015728024678272 9.399608548019518 0.0 
7.162205490167196 4.9905004403755395 7.6336373818499865 2.0160354910495206 9.662724438456202 0.0 
7.121138238608625 4.981902035755219 18.499590481242763 2.021730413814395 9.648390963978166 0.0 
4.973036567646593 7.122166610624383 39.799191818518125 2.0306416318123075 6.257208406367699 0.0 
5.012290048874265 6.531523885539453 8.35755226181378 2.0421705902358704 6.888353617829676 0.0 
6.332720208745073 5.069661499273398 5.213822842594617 2.042417451747963 8.944905522336253 0.0 
5.012576137304055 6.512615889525819 17.29797700668967 2.0463129968692435 6.920795820054273 0.0 
5.02881573546343 7.552819440888481 31.6438709199536 2.0472363661729025 5.8718144183240035 0.0 
7.164801738141186 4.957223471413126 20.933593151752802 2.049413466980199 9.822613308102188 0.0 
6.926212993123642 4.943207306456479 0.8249639382794136 2.0581158146707352 9.624839462406985 0.0 
4.9389149003694985 6.8248681546706855 22.0223423403407 2.0685122555032924 6.673764660808466 0.0 
5.0439234278694425 6.2655882892896955 24.584097053516174 2.0894008990297843 7.314489050895855 0.0 
5.415260881781087 5.587945926222654 31.70416413796503 2.122567968307364 8.213130702434409 0.0 
6.220725157431019 5.016502982073845 33.58849425561627 2.1310865070153433 9.244730420486636 0.0 
5.740686290921968 8.72200109080624 9.001648986631665 2.133344504436579 4.69810895290367 0.0 
6.827288255042557 4.869411238337797 22.99950037147257 2.1375775583981804 9.90019671278382 0.0 
6.417816176764491 4.938237302128012 14.139994681048364 2.1423826517159545 9.506142134692663 0.0 
6.604979961978298 4.891837891262201 38.77320172455392 2.1448515816150246 9.71008701208088 0.0 
4.873273939629774 6.64093801157931 19.94534619535319 2.1568238795475354 7.136603622617244 0.0 
7.462451840150276 4.889041230335881 25.4687232218513 2.161020275629137 10.649624399156306 0.0 
5.998480655152903 5.05295244588849 11.909830991000717 2.189528528262322 9.277699898940067 0.0 
5.2369887561954265 5.689860438434941 18.11408602412871 2.19651412846793 8.304316798139109 0.0 
5.940015227497412 5.075606745269393 26.753689352376774 2.197010950539396 9.247043822971794 0.0 
4.8842321998620015 6.394658824264448 10.901025626863465 2.2006615648803614 7.526829488915222 0.0 
6.018308800868137 5.024673116221708 34.67090729984474 2.2058181947364153 9.377292763262336 0.0 
5.521686446203336 5.34234227297544 4.550133596124631 2.221089845842161 8.849083912892585 0.0 
5.9958693428886445 5.011270996884829 18.412419530808094 2.2278513021255124 9.456828859171996 0.0 
5.111259665783791 5.794904723002549 30.611759608112372 2.2404451961020415 8.310966000064031 0.0 
5.961277089855404 5.013323652107214 16.152404635559108 2.24183589839575 9.484385368703496 0.0 
5.658708814603685 5.176418168620582 38.941445201857654 2.263738664192261 9.232015251931859 0.0 
6.134146529792281 4.864064101063192 7.44776318519429 2.3047612449530943 9.973297017066411 0.0 
4.81198553240908 6.251479764946559 13.006323218467159 2.312507265431102 8.027204237120898 0.0 
4.7196907173603435 6.602156439933706 33.631490704781505 2.314754829950422 7.671845568957423 0.0 
6.153230530732669 4.842201505592799 36.742249483903265 2.317997600634924 10.056474116638672 0.0 
6.11923132356328 4.8482670767277565 20.44313502379501 2.3250178568100948 10.05306456611336 0.0 
5.040814582283032 5.730515245835219 28.576716821215136 2.334523300815742 8.676340791626817 0.0 
4.964373256735083 5.856749056145064 38.10823689900181 2.334694617829178 8.529373039727982 0.0 
5.018841776216231 5.7361072173939895 26.54376664943959 2.34998146239276 8.717150023072254 0.0 
5.3828838946688755 5.225360896990047 24.465771711076002 2.400918250181225 9.539809495298332 0.0 
9.356856685616297 6.434253598489017 31.53818569899314 2.4238074237358136 14.658217505667743 0.0 
7.870439279946819 9.266690223191926 18.251392442801205 2.4280751858186376 2.9237596003431854 0.0 
8.329102236289238 9.143466163249297 25.107486750736854 2.52209435737518 2.561814742202653 0.0 
8.066100152173426 9.3365846127253 6.874602500723796 2.5683062875928293 2.934919760540449 0.0 
8.7757398826929 8.873953914119834 18.84742139645477 2.5816574914638126 2.097085238491122 0.0 
7.2572450955138805 9.576469963246712 32.473893185332 2.5892803074751205 3.8095618231114408 0.0 
9.563964544467492 6.5627929564229674 22.797340906946708 2.6009736992595274 15.90310714568049 0.0 
9.148665791761534 8.508191210420781 25.376623912048892 2.6251486456726054 1.606625898852954 0.0 
8.983303829338835 8.7407894829207 38.161413001509665 2.6389092639417138 1.9009900316198802 0.0 
9.471574862928604 8.013017295007403 29.36345049347976 2.67112080278011 1.0390218565660447 0.36145095345694833 
9.502513838846127 7.971369717375611 0.07417924470900061 2.684424452550444 0.9939239748214099 0.445783159806983 
9.170603938740765 8.58887952556414 2.2673087003073533 2.689992491743025 1.6997537047511528 0.5447183996461598 
9.645019839062256 7.55126510394272 23.021263875484856 2.7018555038820784 0.5551633572117503 0.6086822788563087 
9.000616922970266 8.820652643964095 6.90169050102109 2.7050405029219933 1.9972328970685744 0.5579662126289288 
8.979762580480996 8.855231570206085 9.878038682072969 2.7131796944106172 2.042854160870924 0.5214537566136329 
8.43345072542019 9.307046000485771 14.111400849347596 2.716107919535795 2.75640447801932 0.6709100577531611 
9.595728166186912 7.8161230396710355 37.82058174438235 2.7210037722535363 0.8288831718193777 0.4993653190663135 
7.358745986698601 9.707210951236315 24.856912795197694 2.7308771150431124 3.9298658344747217 0.2940575022796806 
9.744798001466929 6.986344699126546 29.39818716730499 2.744831968645582 17.232632538869087 0.16136471783357562 
8.94879934280138 8.93509984338358 33.41721845466573 2.746348536214267 2.1472900673680506 0.6748582503638441 
7.2603007380204225 9.734654021414935 11.043912305463728 2.7470145778744692 4.054308547269358 0.6088307077483293 
9.660940909959713 6.304980398535717 5.18420479913069 2.7502106778784787 16.577444769046675 0.9429253363495445 
9.247017533862678 8.613832661459737 8.941416367663926 2.766503868907564 1.7230998516295486 0.754065335331337 
9.210532277334153 8.665185037470692 14.517041145751833 2.7675429821689095 1.7867456455437392 0.7101156660685348 
9.230856728538637 8.643910033783627 23.2062201814213 2.7711300839983286 1.75983899396849 0.6882182619419204 
7.529277555352575 9.72359995187725 22.644256803302397 2.774550671453981 3.8257126486455633 0.4787984742460852 
8.556233351243254 9.297449687156876 2.72484951505448 2.774912126273377 2.7066974089666296 0.9254381228115449 
8.65775273041995 9.227422958740087 20.836776599120157 2.776608930392835 2.5849877976133513 0.7887884560570086 
8.703372743488963 9.19294907477583 4.945621039162184 2.7767794921133513 2.527963360270075 0.8248330136225355 
9.74173999897921 7.453125582209912 31.417010736931147 2.7789316319865804 0.455157924221556 0.35068818453492745 
9.554252868588328 8.096964465661125 19.080197691137045 2.7798450956150242 1.1276363848898185 0.7788278561040004 
9.276337849850462 8.600680637514118 12.391440655384613 2.7827850276251 1.7054537070528433 0.6856823902293845 
9.032819925485354 8.906412315694652 0.21524161995038327 2.786891595825451 2.0994205313821226 0.7640432853683173 
9.118675585887816 8.812884631514478 36.138941003571944 2.7884291142897037 1.9735829594219858 0.6721880367990544 
9.240499492588368 8.660558810380252 27.482472930354824 2.7887799373597444 1.7787302492473955 0.6747122897077239 
8.21863946485704 9.50935141795049 16.135376527646443 2.7896104896700544 3.1207461905855745 0.8031360485011925 
9.754384596540675 7.455768643713133 4.6255676217899335 2.7918380257910114 0.45781773929187963 0.30936280851660314 
8.731098489452412 9.19351751384834 31.04917925119682 2.7943194276502883 2.522383816057836 0.8091805806322964 
8.258876276789456 9.498311525385109 38.07874600320211 2.7975578560836487 3.088618287203314 0.7212246965309018 
8.33097842850107 9.463531168056974 35.879615247078604 2.8000873902654035 3.0113596373048317 0.8535140210619805 
9.38839734485459 8.473317080359195 21.09167395569648 2.8062617654428825 1.5510981304919262 0.801653829287049 
8.291912717253686 9.494305269211367 0.6379437144841376 2.809020691454122 3.0699676663503226 0.6809579690445349 
9.540764074038998 8.201774076807208 16.903959706283985 2.8106481479568144 1.2417805921429554 0.7668591360879969 
9.438447349408507 8.4000487004067 4.495756005100276 2.8117897928806626 1.4655037527038637 0.7707677217095391 
7.305709538732085 9.795322978481607 0.7221162972607971 2.8119901984358124 4.110748900072167 0.42325269705516666 
9.71527380784147 7.740932875548966 33.480135582465934 2.8145502975820422 0.749769216131579 0.41590691658233886 
9.643493097618405 7.975104037485373 6.989952065185747 2.817602463279095 0.9956990181690095 0.5748332822806185 
9.810430225939923 6.751756203254239 33.67886325734789 2.8213725449680416 17.478641298304606 0.6426190473722239 
8.111808320815722 9.598090929518817 28.9270038435329 2.8259855307985946 3.2963544260375954 0.8296125362634112 
7.321886058646738 9.82281161989329 38.42771728316008 2.841104728121743 4.140218182252038 0.3775765738006324 
9.726121107846428 7.800222596019362 35.69561217244677 2.841142815457501 0.8111993788567986 0.38647719510878964 
7.769353689711055 9.737482850183046 13.46438670219608 2.843539599674725 3.6875578749330415 0.6886596538804068 
6.690904431319048 9.83257238430178 4.9202401919144805 2.8493870187967207 4.785511675742249 0.8901002987712414 
7.86947533860568 9.716924550578327 20.448087628595466 2.8526595271743718 3.597413399045248 0.6163742683407556 
9.844198025935386 7.234938826610573 16.831375265612245 2.853884837021969 0.23520500207905215 0.7394242488697477 
9.856049697171914 6.922485660493276 0.047917646218849086 2.8571013887408574 17.874173615009557 0.4916913277312998 
9.700689532102134 6.052653812141447 18.452775302768814 2.8620252878785246 17.017076708745382 0.2343992364182641 
9.794915902283273 7.646622427623701 2.068812318423099 2.86874109405884 0.6522269649435906 0.32694466545477413 
7.649119889466723 9.799659673940734 2.9111260830705987 2.873926046506978 3.859582748026739 0.6806630554014039 
7.460010483800287 9.849774062126002 9.023978988061799 2.8866627531411266 4.0723792014143605 0.5595543299426894 
9.878235501824792 6.77137036859798 2.7209172840740763 2.8873017009518858 17.91258239153515 0.3082385281092025 
4.167178593857779 7.5824962224561325 26.84708494531158 2.8920890318718167 8.499257492802077 0.0 
6.572763365031303 4.136524987380941 30.73963527927853 2.895171893023469 13.214373474488525 0.0 
9.878023302760266 7.370601570668306 20.972361024454713 2.901786286998564 0.37161652573720616 0.38387693020121266 
9.897330454069998 7.177511057872351 10.668930997630525 2.902763155296763 0.17762188182605954 0.5685022444312366 
7.098647799411983 9.932449057310473 17.850862035289325 2.934107847719628 4.510219435906958 0.6706387849026151 
6.846815222829164 9.935762844804762 30.50954275531332 2.939756632255981 4.771013103905656 0.4518697532409443 
9.935499476843905 6.815415029430385 35.98349201856999 2.941297127104133 18.29600854707397 0.976924145590045 
6.878513928516611 9.945110466378006 19.953823332059024 2.9476150570815287 4.7516233965866235 0.37966321438053424 
9.938746365383281 6.719369831245071 24.949168404221695 2.9521150878088855 18.267631593805373 0.0 
6.267043639087394 4.132494754309224 28.49029376789391 2.9596978496235673 13.206584697727767 0.0 
6.518400525170685 9.934741498957283 12.980520684306583 2.9739949091849356 5.155269862701488 0.0 
9.974104426190147 6.872195658019217 38.026902799659155 2.9768491879356205 18.576251442790255 0.0 
6.469825042503572 9.931952347171315 24.363609580356474 2.9795016448459517 5.213203644791008 0.0 
6.599808503736124 9.958608497850847 22.177859304211935 2.9855514527867646 5.091092950046757 0.0 
6.24690085302095 9.89304823798848 0.8056886816963953 2.989462565831663 5.457138039322611 0.0 
6.389376935507581 9.934657051883313 15.026125057744352 2.9975110573705264 5.323406542553069 0.0 
6.699025256891812 9.99319608991972 34.62063659816272 3.008289984143775 5.026889986131877 0.0 
9.93256084402509 6.302554199410448 12.749237172716612 3.0143562743426893 18.23593550955611 0.0 
5.675022775053737 9.719028244634448 34.69722396488004 3.0246783699669946 6.1226472903839735 0.0 
6.387233281631655 9.96245405842787 36.62336695935925 3.0251639789333185 5.368952708731598 0.0 
9.465492973599238 5.2391107170867866 20.4080286819406 3.029750265210952 17.15742544014979 0.0 
6.126108921886448 9.903040739581218 32.6316188255523 3.0317208235711206 5.648684793749929 0.0 
9.919786922562285 6.152072255128463 10.646061024073674 3.0404172630888455 18.244182270368714 0.0 
5.567405314026143 9.69345292404478 22.186204235900895 3.0507402689062095 6.283371029222462 0.0 
4.275236799559758 5.624390287553714 1.2887587559927027 3.0523165922705164 11.016166285516963 0.0 
5.972691232225982 9.878534184241117 28.59530623962165 3.0563576940845847 5.848623205391355 0.0 
9.902165390417597 6.031136820939086 6.287573786242383 3.059617592621298 18.238311608781867 0.0 
9.762720648142897 5.680670960277871 24.778849959710385 3.0615771253929287 17.872449001835623 0.0 
9.94593244980403 6.163451988311518 8.57600155157202 3.0624060107484636 18.394346843710625 0.0 
6.302356269795556 9.987138432885875 17.135455504934654 3.067523886054917 5.52225757967204 0.0 
6.116091814161733 9.95466118931856 7.173059938956527 3.084042221607425 5.7408821018900476 0.0 
5.426065536245304 9.652815600151325 36.91637288083014 3.0845907839778404 6.4970121233328655 0.0 
9.81644253172546 5.738621396192924 33.42909859346591 3.08600462032292 18.09049997719678 0.0 
9.967541263305751 6.109208423431813 20.651051716056276 3.098356141941583 18.56400195882481 0.0 
9.840755828113457 5.760970227492249 2.851333647377004 3.0992077136134624 18.198232973547036 0.0 
9.664945062944076 5.404862189048355 26.803428609391432 3.1058649076284075 17.8395383279233 0.0 
9.970115606935629 6.059478286849732 0.6176544018103414 3.1154723255823855 18.619662555728333 0.0 
5.4704205284362 9.72398167060961 5.244759566639743 3.124050175916919 6.505658343395595 0.0 
5.388823220221957 9.686557141938984 9.218949959185188 3.1326474255171606 6.613045269853984 0.0 
9.903799475802888 5.803462156086972 35.74664752767157 3.1406614283601426 18.505802012349566 0.0 
5.806633348161 9.912544750653641 20.128720296175132 3.1475452165586937 6.168134953581205 0.0 
9.931417739671208 5.823294026808256 37.99013571876675 3.158773007324867 18.64138002313256 0.0 
8.932999605013423 4.483641839632945 19.958884148296377 3.173097203715627 17.03134546377497 0.0 
9.810392724198657 5.5236908117302495 22.666320024847252 3.174554470094729 18.410829911902045 0.0 
5.274702779375101 9.677269732216732 0.998605367168409 3.18503119585034 6.826291954446127 0.0 
5.622501623340419 9.874331392446226 26.355885834089037 3.187362974513829 6.431140707713087 0.0 
9.068892110726832 4.569173758710528 13.467351318392062 3.192057452673624 17.293051361670745 0.0 
9.778501667429378 5.412459554071194 31.114839471854246 3.20005565316725 18.445397966901314 0.0 
5.251124711184362 9.689392147196981 11.432019742798772 3.208020401623835 6.88881606101339 0.0 
5.214353009046359 9.684988177862254 32.27969450323158 3.224545966731106 6.957531018345595 0.0 
9.426122900582177 4.861213998984063 38.0069838183932 3.23426620531938 17.984618908137364 0.0 
9.776514724574493 5.334562822173854 13.087123984911642 3.237702118642866 18.593769462371156 0.0 
9.632452736467766 5.114657489464022 10.918959477695815 3.2379505542504425 18.332221947929085 0.0 
4.656643112254567 9.260852371007477 22.513301936146995 3.256190250405232 7.73056015190744 0.0 
9.675331435500011 5.106949832974411 18.106556730382408 3.277352166711742 18.57400155909596 0.0 
4.745898558280526 9.379944673247842 13.927773838288594 3.2779734528032085 7.634547453434113 0.0 
4.814191564012393 9.444866541120476 30.331209097449744 3.279501627187426 7.543866534505067 0.0 
9.659125005496113 5.069966421060473 28.78426537891037 3.285722966211364 18.581890135501084 0.0 
9.643277143579967 5.025811268490445 8.858920811197663 3.29914158613897 18.61273197696039 0.0 
5.09973413477638 9.703881995185391 7.224408220494382 3.3048431433915004 7.215772936207269 0.0 
4.058448728270086 8.509114704942338 34.763788266252604 3.306077899398179 8.819202806959805 0.0 
4.6866179025343975 9.365872147692988 2.980983792893319 3.3089405779046244 7.759390709210589 0.0 
4.02605817338201 8.464706346786139 15.936986424522587 3.3150708394276505 8.897491680370553 0.0 
9.584662018844298 4.910460285673086 15.38232624993838 3.323650699066568 18.623479133495877 0.0 
9.22546854371781 4.527616351006097 26.498750121024607 3.326468269334595 18.11353887637962 0.0 
9.200555204813973 4.4611828168172 31.072532381437142 3.3597672388214805 18.23189528725206 0.0 
4.595376892545332 9.359414127717333 16.032732494581367 3.3688347117329895 7.969597842070073 0.0 
4.7236411746359614 9.493421336661987 26.597356225611605 3.3762345096177766 7.801525858233745 0.0 
4.583674158327215 9.361704396257283 34.38457765659331 3.378798340895277 7.999730069930415 0.0 
9.505061180338425 4.728328899371133 35.61399053671404 3.381689090775631 18.756904092239807 0.0 
9.530353591605099 4.753179057217746 33.08362776864347 3.3839169090676213 18.804660216041807 0.0 
9.40583728439342 4.602930436720513 24.49421374933 3.3961736601914856 18.677639605550866 0.0 
8.987840128383475 4.233600512250813 6.8534964313975095 3.406534089339277 18.17544974115799 0.0 
9.371287238789566 4.541981660677209 22.325735622193534 3.415385384593285 18.71573041296398 0.0 
4.543283596466946 9.377605009487661 18.03601922200673 3.418839140487486 8.111392645278862 0.0 
9.059308614744062 4.269758713400568 11.120957475447497 3.4197908494250395 18.325326048803568 0.0 
4.17807871120117 8.96465087558632 28.481744131081896 3.4384724549017607 8.711076295251008 0.0 
4.34908759186294 9.201048252254107 11.768683222333394 3.445569619724128 8.436987773713366 0.0 
4.426137299011446 9.318455245968257 5.174923660187403 3.4641021825428053 8.34278073275329 0.0 
4.206764759599288 9.08158251103005 1.0129623351179688 3.4835540556223004 8.712912084316091 0.0 
9.081137623665967 4.179090281475773 4.7675459026604585 3.505519283744202 18.747539970780522 0.0 
8.910177542507855 4.052408273003987 15.583822575879893 3.512417291973816 18.57151984415266 0.0 
3.9563739669412143 8.763292797144903 13.788586199408059 3.517507770791169 9.203570467668783 0.0 
8.884609292748642 4.029424205553669 36.160518260355474 3.5179642887421414 18.56689223272033 0.0 
8.627218152949522 3.8751519054160593 22.170258481849203 3.523139868286999 18.29385709155909 0.0 
9.069693508120382 4.139669015304335 17.85216655791764 3.5305983288340412 18.849049860943296 0.0 
3.787658848185437 8.471300803852415 17.980177879006277 3.533250872929642 9.582506305862012 0.0 
3.815227872778342 8.532253471856475 5.019862122636496 3.534200645739314 9.518181407205475 0.0 
9.081229716417552 4.138619973653 28.754475114170944 3.5382216984916353 18.89848043025708 0.0 
8.983873293426718 4.070193462302157 0.5368787913784914 3.538293316375678 18.779858433178898 0.0 
3.7337604157598943 8.36486007843995 24.983020503279114 3.5399384253650625 9.719883448337171 0.0 
3.7116139347021306 8.317766459944135 11.623053219658004 3.5425966969722795 9.779175605771133 0.0 
3.6626357761120296 8.199079184978967 1.0855818897901806 3.546236153266893 9.917639478690393 0.0 
3.840161168020499 8.689855461543498 21.91863443486892 3.583321493390451 9.497595903303274 0.0 
8.786401375959246 3.8752099672567635 2.622141784517602 3.5993808668659355 18.830988058282756 0.0 
3.808549274780285 8.691412931391095 3.0262079069434797 3.6119572860130083 9.587029541206572 0.0 
3.7425598882426705 8.560627610087213 9.516072761531333 3.611990395758567 9.733618402751919 0.0 
3.4140865805959066 7.4767661644869925 9.512761843235694 3.617468870227081 10.886456318633744 0.0 
8.009422147341438 3.5215290918842754 8.888179635859963 3.6219736236133526 18.091116774905217 0.0 
8.231401463370036 3.5709535544609263 29.05967358769481 3.6434474182639187 18.425480399202883 0.0 
8.479232658340466 3.669994445076181 31.130445764577566 3.6437708837582656 18.69407593292631 0.0 
8.190607986511388 3.554825056287461 36.71512296033775 3.6451032592135713 18.39000916676609 0.0 
3.560315770483431 8.212048963483777 23.88155119588805 3.6469837247603794 10.22178828854727 0.0 
8.224079701142008 3.5570970193793663 6.701208637208641 3.6540322999002557 18.467435674176084 0.0 
8.272224582408002 3.564943816120124 4.64056710641664 3.6630815407924775 18.561163513170314 0.0 
8.505826239293809 3.6580578575273996 26.820267843356234 3.6655272399178935 18.825153079227206 0.0 
5.047959847833191 3.8895333685093547 2.196316413356115 3.6722559035677493 15.246995894987478 0.0 
3.6473442462132937 8.520986372473665 36.88075574186943 3.681535026133761 9.997923149182572 0.0 
3.577905811921312 8.387240142151722 7.124291120566028 3.692582273163196 10.178451916632024 0.0 
3.551133737609275 8.321938946807986 39.030924335639 3.6935350377307623 10.251658048960934 0.0 
8.379156010611092 3.5677834659595433 19.766078442565615 3.698943313724258 18.844152221489345 0.0 
8.240490554547485 3.5145505954896255 17.43573633539083 3.699618138041176 18.699035787806 0.0 
8.355005985076021 3.532866628252915 11.031635037911677 3.7225065529927734 18.928766496225663 0.0 
3.307014076046025 7.564550631025712 17.98500441786824 3.735888441791821 11.169917997792727 0.0 
8.135950264170686 3.4382455570933352 38.732240100153845 3.738512767697178 18.77152494283031 0.0 
3.3226362596393884 7.681866702529213 3.111593951686565 3.740046293689029 11.064000211403158 0.0 
3.2688166814137603 7.384074494275756 5.3433861995588146 3.7508988488160284 11.399047429490924 0.0 
8.037387034834724 3.392830725302016 15.20182048321658 3.7533774172561385 18.738444904205608 0.0 
8.142580829511477 3.423677417560887 34.15282533595909 3.754407298846397 18.85322383509334 0.0 
7.939599872379684 3.3633681489411114 2.1575540255493024 3.7560536657923196 18.649672204707176 0.0 
5.39355560650073 3.599788544025662 0.18473446979506036 3.760598560700725 16.061590860559644 0.0 
7.904165744854691 3.347336423521824 32.128142102058554 3.7629067085298544 18.645380527273613 0.0 
3.36275025533358 8.00912901269859 30.289812982215857 3.774642641276915 10.8368357553294 0.0 
7.915024262897802 3.3089787694366315 24.118989699419664 3.802749942628518 18.844129302013613 0.0 
3.262820157323034 6.285559428460312 39.10408371506254 3.804857225543816 12.672018391292251 0.0 
3.2346834279730423 7.592162714747353 15.915476449428233 3.811596196912496 11.379911555520323 0.0 
7.826271329819171 3.2739528419630215 21.840048694749 3.8165628167759253 18.817994593194502 0.0 
3.1997537288955833 6.614933413572974 18.448134603489635 3.819705223839347 12.38567968113976 0.0 
3.191651434193716 7.325220638515679 29.336527388357737 3.822209735531964 11.682211680490802 0.0 
3.236463270753836 7.694312045122905 27.254915422072244 3.827045587445709 11.32483993633764 0.0 
3.1714685203972905 7.220907675384007 23.246334173205206 3.8348994108519294 11.826661785781639 0.0 
7.4637499732228 3.1929912372237244 26.729549668083536 3.835150552132146 18.537608823525776 0.0 
7.462576620491959 3.185873044212723 12.883222126040494 3.8420751638520647 18.56905419063018 0.0 
3.1801801382588035 7.4133071648842535 37.28646666791771 3.842114858863174 11.656251344430924 0.0 
3.1804170245089125 7.482783693827098 7.408772475617106 3.8499732728535525 11.610989725477726 0.0 
6.5288386053980805 3.1745580621286873 26.119417368689426 3.854348074550072 17.690844610300022 0.42615569386068947 
3.196272841485033 6.370067997852505 21.048481405368 3.8555355819592547 12.74529106782244 0.49534057468295234 
7.545984651248814 3.178695154435177 19.311590821211908 3.8601126877510312 18.73817422882767 0.88963666718275 
6.89646244581383 3.138070989750032 1.990666476416024 3.8633166716355456 18.101900958662664 0.5166799689211342 
7.371889209337915 3.142338151198409 34.82699387651724 3.87554596459922 18.635542404544925 0.5830284873741011 
5.890101745846232 3.2864100054708114 23.868311985088674 3.8759030924470865 17.139107242605238 0.3674667871878709 
3.135411126962845 7.349205477542354 0.8686054562561267 3.880333957683047 11.840750090153882 0.8722228512273967 
3.1375419332438828 7.418291773581036 35.12631808049643 3.885041869181717 11.786114820248748 0.9574623223088952 
4.525326118927705 4.001910970218464 35.67443167596391 3.887486160510133 15.636794267307177 0.07323867181009004 
6.921478439253519 3.1051666887503533 24.11152521295419 3.895624745521821 18.279172243857932 0.3441703375051372 
7.315650298812818 3.1052992531986696 39.60893055243171 3.907470923535512 18.72951753372246 0.7894269588389673 
6.955811393295008 3.0856186322655628 15.031903295354248 3.9146307776122446 18.403073393514138 0.3338044162748198 
3.118490972860581 6.472151736188515 7.619813014145734 3.917235775055363 12.835818003072557 0.43381103530102605 
6.63419551226267 3.09778027705028 30.37795957523565 3.919327964004361 18.103060232086523 0.29852588380115697 
3.0899487314915373 7.288041613565397 20.627776202746546 3.9206464892298056 12.028772844025266 0.8232689574986978 
3.099250869667779 6.541303664476695 9.742417254886604 3.927626014020439 12.798746531314961 0.5129279790915792 
6.844049521415254 3.062950960040075 32.61939840055287 3.940136507130201 18.411464632104153 0.38628382740133377 
3.067736225867762 6.7025724873459325 2.8045466492957587 3.94349610303298 12.686568610857709 0.7913734671234472 
6.943992946555342 3.053273620781587 8.649223336336284 3.9471237505877665 18.544373533485903 0.6839846966967636 
3.1067943368763515 6.299871032982482 5.136974353262353 3.9556580875797485 13.130903357195148 0.519785463275131 
5.253384733021722 3.4343135309595745 17.179776916678918 3.9704892502485842 16.901985581110456 0.4894964603462286 
6.427073614713089 3.067213094513219 19.255219412782836 3.97429962218832 18.15351619279158 0.44167989589778817 
6.273211353500617 3.089289436670599 39.75608413753951 3.9776725414262755 18.013445577494185 0.39555795362478857 
5.507288025464874 3.312960761272109 25.89482939273789 3.9777440072030403 17.214503738801813 0.5709484803416032 
3.0555658598306543 6.481662453811843 25.5692591126112 3.97834569864433 13.0181569823181 0.4729712643395798 
3.11536531701784 6.13863889276392 31.75643257519061 3.978985998629157 13.36858784272323 0.7506055720216286 
3.942967153284915 4.449286456552386 21.314949164791827 3.9814054561953407 15.276436580281878 0.3322619294722157 
6.51816614797748 3.0432395094985507 35.37324693305127 3.985990145515683 18.30052094179849 0.5247383447303987 
3.0562167114890766 6.396667523172191 11.737848608924217 3.9896662397164517 13.139562182795189 0.6499978294904786 
3.3217203484206177 5.448932337234938 21.455969374896334 3.9919358824633457 14.134049153143422 0.7796665718175214 
6.212570145708931 3.0860360066350054 17.020163176963123 3.992387746297511 18.02105739864285 0.39618100491761515 
3.5363049700701126 5.010302986679811 23.477432681974648 3.994505910018945 14.631909462722664 0.6573773906139506 
3.0177086978413996 6.608557301511517 16.14967183201852 4.001483650028821 12.963101366591285 0.40113359732208237 
3.2362017039112523 5.640220859707725 19.079685557330507 4.001896665834161 13.959734211051781 0.663582167483834 
3.0982844090533384 6.105118562592558 23.46729436883649 4.00302352474385 13.478377170754587 0.8769262644234894 
6.373387509072799 3.035320733617393 37.60975978067916 4.01389149069455 18.285832056991325 0.49370431376961016 
5.906215803278686 3.1354050061795125 14.925400674648678 4.016398677330186 17.819056692712223 0.39949182681338996 
4.403728672621295 3.9327008222366615 27.580137148592506 4.018575500258323 16.114358586123398 0.5900165847603668 
3.00889923612762 6.445899436936214 36.98919464503873 4.029381185910597 13.214536302036535 0.3982923429583502 
5.793520607101126 3.152698255300047 21.523034470656377 4.03203710799652 17.775277683885566 0.40748685296966536 
3.7678804897078404 4.5850679809115995 7.02773976017086 4.034661471007154 15.264245872306134 0.5025493562577195 
4.519046245237046 3.786765814849959 25.580304772797696 4.059557298756755 16.46105910859502 0.5522938629824982 
5.3789496391583995 3.2718006847835728 19.306922990794142 4.065375063430792 17.49022085690132 0.4521174869866802 
6.1140226463712875 3.028168387964236 6.371765212166402 4.069447410338356 18.283688978623132 0.3045625350770397 
3.133690406518646 5.729551800345341 27.855109942963665 4.069691450300836 14.077356732731456 0.6241400510816569 
3.2165527328570622 5.486376517652838 25.55033756560281 4.074988253917318 14.352739261886597 0.5940521704427405 
5.943113807815767 3.0618400868620324 8.776541711267093 4.077512958247531 18.14573385526818 0.4442192730483153 
5.838191700430544 3.0831790980689604 2.0918244417967315 4.08549684894657 18.0743842118807 0.4725056379011087 
4.987559105304191 3.4416281958505373 31.85472633786528 4.088022535555543 17.16023019698509 0.5828793617838759 
3.07714780722765 5.838289939204783 14.202447130328547 4.091251592323755 14.030962139587153 0.5887428204387772 
3.245951319240506 5.3685263851327285 37.04422548971533 4.093236818646116 14.537369416719077 0.7540306458087531 
3.263060489823401 5.327812092801635 1.0736783327264554 4.094011394671413 14.584281043726179 0.7347430507891196 
5.29143438608253 3.278815751605551 5.826384361322553 4.094680533028204 17.53324023227205 0.39140822497015304 
3.6476270886920448 4.645465547128721 27.554771955238184 4.0966128235689085 15.37824672404943 0.5670832062583259 
3.940442548072233 4.274380135684261 29.522142492261864 4.097547491658795 15.854770950720656 0.7146389309798922 
3.7871768265366716 4.456669091680231 35.11708303397473 4.097653578959259 15.61698597837475 0.5870302276220645 
3.1023541435514073 5.730637740765811 16.63571170131506 4.0991369539769 14.168396835442504 0.58042895162693 
3.4153296568865166 5.011533094492357 14.728692322044942 4.099251407647068 14.954265366283426 0.7154956159563067 
3.1529680812436975 5.580193929740531 3.2448963332647125 4.100671147638571 14.332461554438385 0.5581401316650674 
5.269457634466495 3.2715641308100674 12.957908118190943 4.1104757522175435 17.583928314606688 0.40146884511896275 
4.423508101107758 3.7928384610262356 7.599974664022511 4.1139027263815935 16.60208703499105 0.46578184581010595 
4.445949190341875 3.7712561507354323 19.39762275804712 4.116790301008675 16.644752073393796 0.4459615701417201 
3.6495411306047316 4.605097767592811 10.51288529760508 4.118389410716083 15.494128277828228 0.5472701066788147 
4.894981114240244 3.4586741638557807 15.18357472377916 4.119720037471937 17.204304619091353 0.3550155975987222 
3.190359039090076 5.430243892918087 7.3990469025458765 4.1203760127885944 14.554989943302598 0.5519949555159812 
4.412321468068264 3.7918409532908512 37.77697758639347 4.121694391097203 16.625434841706333 0.4059392433699932 
4.4600308335393715 3.7421089515781585 5.3338367431798375 4.131016515333468 16.731397791127968 0.5663344089181698 
4.071690570717569 4.081616069962649 15.051370401546045 4.134242479188255 16.228113859776904 0.5311194733576988 
4.889506326757226 3.440518757851681 23.472433566360138 4.1381264188039895 17.28574181829537 0.3848693267374391 
4.735385125940932 3.533447569561215 29.80227946741246 4.1407084274059445 17.116505829436726 0.5336715699700318 
5.2629712630102805 3.241149319068004 10.917608760859714 4.140800318135496 17.720573107239 0.4232155515953875 
5.126651249258149 3.304810519865663 33.865318157861246 4.142929016529432 17.579198705121893 0.4410566960004075 
3.2698935022444378 5.180454222953086 29.936894332462266 4.150233887308947 14.92188653695737 0.0 
5.2482053069171934 3.231938554907675 37.98147294589989 4.155366614476313 17.773369524750144 0.0 
4.775598661396854 3.4736701714403733 8.76874020368416 4.1692881136914535 17.30100833593902 0.0 
4.532753682021199 3.637385335470954 21.40294162704577 4.170669223959837 17.01375796972487 0.0 
3.7310451741458257 4.403670711022071 25.47228635768154 4.17456481926918 15.916824607668495 0.0 
4.371632481809131 3.7547627356199236 0.2118928670377258 4.17610832148807 16.836528852289174 0.0 
3.444170824624255 4.809260889703701 17.21720658407001 4.176512776687649 15.427056205913225 0.0 
3.665596595900161 4.47879524227827 12.610468501212274 4.180277441944647 15.839063875723689 0.0 
4.083873593261781 3.9852708635311256 2.4492208397891915 4.194327715659606 16.54081229310674 0.0 
4.077749269005082 3.988996846060976 31.681233433902186 4.195913408047297 16.54007320248957 0.0 
3.654075808336419 4.467431552790938 19.192026122943076 4.19632120269153 15.901969511963102 0.0 
3.873914127136743 4.189519019677036 4.565440939503453 4.203714574667549 16.284677213220498 0.0 
