169

5.851171407313689 5.912131029195077 36.82669124447001 0.17283201680043048 0.6351449178185149 0.0 
5.857582716105529 5.84118759703332 15.727876289043259 0.21331681154547733 0.8492919743820835 0.0 
6.594936912763744 6.011196010490142 31.874182409695194 0.595042251289561 0.011196671202192476 0.0 
6.586901885300771 5.88621235980867 29.80154667991463 0.597830619849729 3.641794445658043 0.0 
5.42516231193853 5.54484040348364 7.548998485102192 0.7332179934486005 2.7945261213824146 0.0 
5.873332149325339 5.200705156731264 3.3844525855401315 0.8092694179755799 3.686401446492564 0.0 
5.135538789688718 5.937537870133392 33.87834589207789 0.8667148907226179 2.785381458862343 0.0 
5.111931333533493 5.882019809610599 34.878384077116465 0.8958712416881811 2.9327864150456247 0.0 
5.03266850154953 5.793434466463882 3.441259273349914 0.9891408127963839 3.315574731973218 0.0 
6.103124173780799 4.895062451374814 0.8544775163243834 1.1097394205757514 5.332796988666562 0.0 
4.935666854103323 6.414394045483759 13.83336883590782 1.1421591265610571 3.164128233847226 0.0 
6.356578697177053 4.83502292681357 13.64391586798368 1.218326700163181 6.103105696306942 0.0 
4.783913079601405 6.428073821297838 7.6021964017466 1.2892302332962382 3.613878649822908 0.0 
6.814362969049968 4.971854273507203 2.7292629134984807 1.31159089668436 7.059343639335321 0.0 
6.518412987411928 7.261541044354255 2.4698593585963025 1.363905360392644 1.6106328611086163 0.0 
4.641624937990004 6.304687065187384 5.388195903132534 1.3921267962305595 4.066321768693314 0.0 
7.110491307062379 4.999013530465675 25.796939615778665 1.4950467736000448 8.296915203666531 0.0 
7.008004914693117 4.861575818618412 34.11844015459093 1.5205536902062406 8.267403551732333 0.0 
4.983456853790135 7.158625553725246 18.78951889050277 1.5413543206710707 3.5311918466426064 0.0 
7.217767541572693 4.998395846789224 5.0585567850306035 1.576758911513449 8.821775885864785 0.0 
7.297108891491966 5.066325637980098 32.10022483813229 1.5981987644472726 9.044664169196562 0.0 
6.203741190903251 7.587911225266312 38.090512146730134 1.6009286468164134 2.3104376265982722 0.0 
4.952815436761517 7.279552562070823 14.593031529385073 1.6534358979370745 3.73123592408599 0.0 
6.639976204986953 7.612790932772585 12.337932906988733 1.735126547483775 2.0700762232036034 0.0 
5.793713132297132 7.770805573024267 18.820171767443657 1.782780594812626 3.0071352016429316 0.0 
4.261323881566836 6.397227855828456 0.011061449986890182 1.783475431357517 5.202365671656516 0.0 
5.636665448151868 7.760601312962006 36.088494070751466 1.7977010262471937 3.1896769531373046 0.0 
6.33145511381594 7.788837466719173 35.33689708707452 1.8192861168087346 2.5244112240146492 0.0 
5.472156873745327 7.758970145041911 10.714256313049795 1.836462451857665 3.4201036019202355 0.0 
7.799517910517899 6.530030373327756 8.682880158358891 1.8759522666967494 0.5373483516876654 0.0 
6.081851526420325 4.125087834207161 35.79538102881874 1.8766979783159918 8.92560837136263 0.0 
7.854287326834692 6.481064158166975 39.01055212460203 1.9156733058464441 0.48626935673554783 0.0 
5.772790802692665 7.933264172674852 12.75211032939768 1.9465699013108182 3.2853931619829595 0.0 
7.81848992037418 6.851306070311996 16.247885694786287 2.007891335668477 0.8791261434125452 0.0 
4.260291647399316 7.127044602469512 2.0167069348666864 2.0728759461348014 5.320534948063711 0.0 
7.658904098490767 7.299099280868388 6.43196750174701 2.1070409937972787 1.3998233661508142 0.0 
7.19794106556994 4.222360477674659 20.639294249097397 2.143610288254819 11.37266419976381 0.0 
8.14709331151036 6.071229518405181 10.626086863671567 2.1482745012276174 0.07124257602936446 0.0 
6.275381552778902 8.136864643401811 7.761347894860457 2.1545360298290834 3.1082003619165697 0.0 
7.7968491230495305 7.31573355393728 26.983814089156702 2.227065682902121 1.4075960469153728 0.0 
7.508847237406945 7.640338302175026 22.85322029447842 2.228750710916996 1.8434619290199148 0.0 
7.712509882590979 7.447197864612358 18.22282061680511 2.2421132347208363 1.573128090184312 0.0 
7.625026742933501 7.58868707871971 20.4050657754589 2.2725841127095885 1.7591868177369392 0.0 
6.7934050227691385 8.159169057862737 18.523784842055733 2.300326618240801 2.8033015894472193 0.0 
6.91922877374977 8.129562940795527 30.411248913175378 2.3194869814894843 2.698271777661006 0.0 
8.070571739273262 7.117945905441514 28.965383393248402 2.353098037687879 1.1649538323517437 0.0 
7.671261435043367 4.322064138991088 22.658995594960686 2.368244822209675 13.015386401888332 0.0 
4.436040770813181 7.84271455019012 34.382530041796876 2.416933053280751 5.497435412718804 0.0 
7.711112236519837 7.753903239530047 12.216777917789706 2.4503227664130107 1.9547375779059486 0.0 
7.924662039505063 7.635707092131346 8.975310907028152 2.5258388027664354 1.779243660510982 0.0 
5.318208965759798 3.524520056766752 29.186754293056794 2.567652617415449 11.409709659438175 0.0 
5.1516888948387205 3.515061707784662 10.340166598574662 2.625747521613232 11.509735708075999 0.0 
3.835161914721212 4.456944007258759 25.535226586562963 2.6584856088021604 9.998152921058272 0.0 
4.065455863808281 4.155646856358182 35.68877823013955 2.6728448389936927 10.432456422715964 0.0 
5.48805187596356 3.3654594893938112 33.55215876027998 2.6838208926322826 12.132103210592307 0.0 
4.451873744889927 3.762392884211895 4.3303913895313 2.720952132321826 11.175337781245629 0.0 
5.3129329036345325 3.3671379532812935 37.67387162567415 2.7210335815568123 12.127982853703855 0.0 
4.043199442572508 4.0832379070945635 23.46956952375232 2.7391687319965827 10.728378482854298 0.0 
4.070645261727007 4.040945569346794 15.389360323875081 2.749600692529445 10.818657728014816 0.0 
3.259603464729585 5.61023679411859 20.706017766231014 2.7679755286456285 9.086914454396975 0.0 
5.5867920984787744 3.241588481800491 1.892417056205396 2.789188927558564 12.729008672015258 0.0 
4.108801307919986 3.9446237188571036 10.438449458333949 2.7930635778674913 11.08445956005281 0.0 
3.261418337825086 5.438477999513346 38.26245417075559 2.7955565595121215 9.347868026431566 0.0 
4.9224744179810935 3.4171670208459037 15.155076339796972 2.7985867108437446 12.081930296527451 0.0 
4.5103082396352505 3.62850477982734 25.597546487843587 2.8005662142146184 11.626596858019912 0.0 
5.0800294719015735 3.3405335595927017 21.90413630839413 2.814090886986837 12.323891364664703 0.0 
3.3877434241031334 4.927531182328291 14.887288819591625 2.8238402545460275 9.971439936222268 0.0 
5.6930633370989305 3.188554852237381 27.183651174953482 2.828150267208378 13.019801729048634 0.0 
5.367708110890085 3.2113009300252155 19.87371816336723 2.8594816900816857 12.837428726837427 0.0 
3.1133174875993106 5.9216088835475436 15.002000638545223 2.887746715787003 9.150524615280666 0.0 
3.1258828906259097 5.5838995933190745 8.631466317896162 2.9040813877777105 9.540978199050308 0.0 
3.0915125899487688 5.92247051372984 6.632592170540015 2.909520550824111 9.218067052151941 0.0 
3.081538085108317 5.975875532199327 10.696509782643432 2.9185616215217878 9.193056491747267 0.0 
6.294952775359668 3.096217146722985 3.8259334147023623 2.9187243786760644 14.049621714222091 0.0 
3.071507443068077 6.008364400911839 35.94220529721079 2.9285045021663003 9.191803817725756 0.0 
6.518915292339045 3.1178006729004224 39.64750650682251 2.9285399163672987 14.322089033676278 0.0 
6.024024667147209 3.057491986112824 24.384293088343625 2.9426060892382098 13.890729442599191 0.0 
6.361865768751668 3.0249413021353515 37.63467750480042 2.9969853336868923 14.485711518143724 0.0 
3.011709323979309 6.295301356420396 25.425892851377576 3.002845992636973 9.137939501226764 0.0 
8.920184492271307 6.713481850689609 38.97189341489792 3.006082803278264 0.7203563652398444 0.0 
3.0192990951706378 6.409445205864895 38.1097781786611 3.0086912870310116 9.041362781030955 0.0 
3.05332810837424 6.679008738712772 20.73581000006959 3.023892872465168 8.81499126443477 0.0 
6.646679691860275 3.02649232042058 12.504955927980589 3.043015370382195 14.991520979935892 0.0 
3.6250838467493978 7.903403379219714 24.10730309038177 3.043545820091374 7.505266243227407 0.0 
6.726520322420079 3.0393676316412943 1.7548931320005252 3.048471059311973 15.099161170114868 0.0 
3.0959150320628286 6.943366027237316 11.015011252259825 3.053465074688781 8.633686302717827 0.0 
7.283930620496674 8.781240760486323 39.63791177570171 3.06329528547927 3.486965110253138 0.0 
3.4450676568264686 7.784091995670735 9.168914077090122 3.1161937563653814 7.890243355072464 0.0 
8.956911257203803 7.060641485390445 13.828944582580071 3.1413825847084946 1.0819030954274425 0.0 
3.0911216941640305 7.206351187137338 16.576571341634946 3.14910402890581 8.655208185827455 0.0 
7.34945390545662 3.138515813957545 3.8657092050050927 3.1637189492625875 16.302812273272167 0.0 
7.445034205761186 3.160924092269422 28.80693309905309 3.1856672559569152 16.511935014174504 0.0 
7.571473923445776 3.2178128412642906 8.205268712360898 3.1953240333812682 16.700519827178702 0.0 
7.5077606435688615 3.150989558629524 20.73485196718118 3.2233837272861545 16.758824653328418 0.0 
7.601195686343171 3.1831681751399294 39.51946631788637 3.240118694663592 16.943481878445837 0.0 
8.29409676241464 3.6857699200116407 10.531828765501729 3.2586102587520727 17.900909136490995 0.0 
8.729402967792954 4.192364968314935 24.804443567631928 3.273711191961206 18.654340474139666 0.0 
7.913759672203 3.3171771011981654 14.58816316000565 3.295453654549858 17.57139408759747 0.0 
3.669721168790133 8.3412053924838 19.74554813985432 3.303247208578256 7.775366619978609 0.0 
7.938912445015111 3.3109000959706236 6.160194482903798 3.315213381259987 17.69358483309072 0.0 
3.5019039517564234 8.228514437242652 26.136156899253024 3.3476499911503748 8.078440613635138 0.0 
8.409770063175609 3.6144693370536682 29.105213204073678 3.390832980439253 18.659217883835108 0.0 
3.594236384793753 8.412993791271209 34.380331385513614 3.4073798744729995 8.02333717778259 0.4429593184805253 
8.34421047309557 3.5269137880905337 37.41380588650989 3.407561907538536 18.642910272064885 0.9890800351992307 
3.6114136963231847 8.458171700782092 21.846468709453127 3.427528649134591 8.026718121710104 0.507455963527365 
8.986162662086372 4.286733513360982 31.110889833261346 3.4427386625590923 19.83810027428138 0.5644621427836644 
9.037331619230372 4.376763102434845 33.34011953603082 3.443875925580585 19.948223050458843 0.4342266102030554 
3.928145406929433 8.77599253788977 0.8977158319413974 3.463916284387845 7.66202908992036 0.7340600243032026 
3.953448737241448 8.797179046148322 7.28034346260295 3.4659172937780642 7.63350439714254 0.7431508433932638 
3.7033583040358984 8.59852485611681 30.126876597485698 3.4679813303271647 7.9576398497355925 0.6756971050545232 
8.649423232311271 3.756858172042559 2.0553109302547767 3.4714735666922394 19.37303600740004 0.8991951310327181 
8.86034807763025 3.980440920242966 6.156534714845748 3.5014582678981254 19.847694277107504 0.5666516533989036 
4.347376350234336 9.106038284152689 19.784294392015383 3.5183289713139327 7.246941542833689 0.0707139583668226 
6.3767478024991355 9.50814773790395 1.5969602335905222 3.5283196365477596 5.16480410305596 0.0 
9.199033509522563 4.37458363197187 20.966761284565607 3.588285630283912 20.858998018012745 0.7219004624876394 
4.340950929144503 9.188210587876561 21.819960305071085 3.5940409808674554 7.369964887677476 0.46640083546797106 
4.541992760301213 9.301440393646256 30.268425548355694 3.6090571876617887 7.1699912048083085 0.5165272227316745 
9.113304997539053 4.173449096428742 27.027185434227967 3.6095645459028196 20.76441215402834 0.7298602069830089 
9.293710083909229 4.490281150080852 29.10591588838556 3.623227445613444 21.208190488673562 0.9699052613772148 
4.6761949639041696 9.383361813558327 9.617807625668448 3.6331249545036775 7.061899373846035 0.5793751666485338 
4.718921766445643 9.406096002098856 7.501611284313096 3.639045399002401 7.025332681489555 0.4918148120708155 
9.395026526150495 4.6192447863092045 6.7679664847828995 3.6650634473907546 21.612574837476764 0.8959902380683488 
9.404585305193667 4.601240997947455 16.170344479608545 3.6807238209574615 21.691846559233753 0.8820294886417016 
9.652737600114158 5.500776852331075 7.225576058192054 3.686694417287142 22.66342265610956 0.3779390435990609 
4.683243402520834 9.450048023554956 27.888021137575933 3.6927874704402344 7.147005838329147 0.2459035013938759 
9.562832174174648 4.997665528657592 22.884220249496295 3.701141377166686 22.239947454470098 0.8565991954422532 
4.581759546837171 9.418908563558972 13.755846362153477 3.701397269811009 7.269600207182862 0.48856770546803713 
5.176289985739068 9.630761250798733 33.24346623601905 3.723026382916907 6.678698832102839 0.7961260048306612 
9.531664529071067 4.761219156869599 25.10919543655602 3.742623721830136 22.253004440209743 0.712656914293158 
9.618830303050059 7.038295929078883 1.2288335325122688 3.764836144988937 1.0519298742418393 0.0 
4.89202646776468 9.601298773801291 35.33383954314135 3.767885110551634 7.043176608797957 0.27707836686727566 
5.246182564664208 9.70602195510026 31.17184269667812 3.7819094988512596 6.699509821457694 0.6500029022149744 
5.511978509383333 9.754724640064333 13.965155383329616 3.7863071848451435 6.436900355757881 0.5960444205328629 
9.683164567765559 5.088487548600838 33.711662561065545 3.794279402244828 22.919644756512007 0.7289629899948904 
9.707010228074713 5.14538695891545 27.12685525221292 3.804246085762898 23.04081354925647 0.9999999999999999 
9.793693900280308 5.46531833753664 15.677856756578471 3.831187529891822 23.535628470480262 0.9769913315064979 
9.855507988545442 5.845048277366752 25.076168960791016 3.858620464114699 24.089434007171047 0.9722564563883008 
9.764036599289001 7.015028002732002 34.274680566321386 3.8984937305473846 1.0268606785437946 0.4579284062327823 
9.607167721335829 7.539218669719787 7.5227426226358105 3.921843072212485 1.581754256233335 0.23893401382376434 
6.085891890888163 9.936434775419002 25.36651479981611 3.937371732266125 6.098910349643681 0.9871786282184961 
9.95130798966674 5.9615528941000395 19.899375927550793 3.9514950346870332 24.789527830792707 0.9999999999999999 
9.958190223953048 6.33428587252361 29.686135939635854 3.9722810693059465 0.3346817042261865 0.7506051622261317 
9.971939272230559 6.20027335349268 3.3075131690667376 3.9769851644690117 0.20035809699096863 0.799975063236457 
6.6677579965735365 9.926298959677872 13.424314891308384 3.9826780264986823 5.585049124477216 0.9294169030034235 
9.983486513403532 6.2100655769349995 17.753082854776977 3.9890214776409607 0.2101627896784315 0.9063532315133799 
8.125015780972566 9.401385289213216 21.359114725248908 4.010625132701698 4.060263592952776 0.39609895687063124 
9.979919904739479 6.498572449643651 15.573605120655742 4.011026917845998 0.49986533315815507 0.7500973243700603 
7.403046481576748 9.762670236423356 8.129802066550873 4.015747344832726 4.874637181116677 0.6640725722043298 
9.518240231564508 7.953980188481163 19.67744631969766 4.024431997683151 2.040260947562885 0.5367004072229731 
9.857918544957277 7.169029471829283 32.142151967429754 4.031149390128171 1.1860683133086454 0.570447068476574 
9.816405817367094 7.324260100434257 17.66915382501216 4.039630945573558 1.349204685085276 0.4708994911652738 
9.829645414572855 7.28836359176673 9.568678476607687 4.0405525297846285 1.3112588381417218 0.47134624173730494 
8.949879567325784 8.7886413226302 33.33856334295689 4.059348456095735 3.0741771706928382 0.3243805004668808 
9.978187017122355 6.859860938972659 21.842541319419844 4.070053166430606 0.8663892944949438 0.6445665661520799 
7.268163331066045 9.873927210663082 33.34221370606471 4.07621764234644 5.1133404959034365 0.5426666251482877 
9.235187049318263 8.497360441145387 23.742175078735293 4.086960290616303 2.6867414282761466 0.5386875441356841 
9.760632156335918 7.613998873941279 15.584347521321796 4.092352206293033 1.6590732572073943 0.7747713983012758 
9.856076706053985 7.3890995219344 29.896808005641624 4.098649173180177 1.417169097172728 0.4060776585009239 
9.699733265566817 7.801776903380267 25.91189361380917 4.115145956815659 1.8649640387468036 0.451968588931431 
7.526286262845193 9.826337075766487 39.68938042580204 4.119515162435403 4.9073621918720605 0.5830537852025713 
8.00207621026981 9.622513697268204 4.900418760031954 4.138950910390706 4.411711761409329 0.4340851038859063 
8.227959471096867 9.49173268154094 33.6575061867127 4.1419802660311325 4.153808251162399 0.8443920931159502 
9.22901905033508 8.615181578553992 26.27804967515742 4.155206218256203 2.82864942549449 0.3067682775139769 
9.559211856131743 8.16840476792517 3.056317852448018 4.167729390734164 2.280514805540747 0.6373728047377375 
8.470590268824154 9.368092399060963 26.22104502610084 4.177063883282232 3.9177554238218164 0.6209255689340802 
8.77390193013062 9.128862335949243 30.839657387058452 4.181424570084236 3.5352290610095523 0.6975666003120368 
8.91453830679745 8.999927280921177 13.327748343911296 4.1825945575210675 3.345383303643942 0.5561521794352712 
9.314076856305622 8.561350865001305 15.338535909480619 4.188510912382047 2.7559481125552736 0.4201350460813568 
9.476798564931297 8.339796065167125 5.4067997469417435 4.190796330970986 2.4824463697144594 0.0 
