429

11.447368184313191 7.97185985128074 4.404127891814703 3.447483033487586 21.633034281550472 0.79838742362344 
7.028457066338728 11.307811338022688 4.582819756519257 3.4475370222665633 6.400263234771472 0.7884874360699379 
4.77145158349002 9.21105043631217 38.08569917434888 3.4482122958195314 9.595438152270688 0.8026625623103116 
5.649742816105206 10.523280918529132 28.900553863599022 3.4482829675451914 8.002453388777692 0.8669239694893452 
7.560213299738974 11.420429216467834 29.149730397853084 3.448586430204879 5.85801445208417 0.7015455184147369 
6.387816420117126 4.95086301793323 6.401973986055722 3.449111803153273 14.576011950943915 0.7769524424332822 
11.104437970381525 9.504831057087486 23.279657303124246 3.449935017115769 1.5571680041359564 0.7420467819696599 
11.317364461095584 8.948643583444213 14.523807875090164 3.450337898836844 0.9610212775642601 0.5950806439199551 
4.672733335482903 8.913650904185175 22.00050613363677 3.450429166281366 9.915163517079137 0.7300787365422668 
4.624219881372822 7.283348063111156 36.607866070061355 3.4510116499318064 11.56357825699746 0.7041269919970528 
5.207403753777111 5.972039217584509 32.697429197286986 3.451263352662826 13.010164160951014 0.7555538842992259 
9.394710622470658 4.842703111318791 11.803497231508551 3.4516287986555776 17.701175607358614 0.8272335816921377 
4.586084110924485 8.510238010378394 12.096541382126041 3.4518349504165373 10.332144708967341 0.7885066792024726 
7.22619300638965 4.635506953618975 0.14503101157352205 3.4523312011605363 15.488290294654433 0.7602140119294039 
9.956347504194689 10.844886151458567 32.47625543300783 3.4526327305303592 3.3435034473124787 0.7278551108749969 
6.559973570820858 11.13833348740497 17.633811693939847 3.4529426863042314 6.909290146960231 0.7835470438294027 
8.825266771977144 11.353489607043254 22.21824873672638 3.4535427881346266 4.591482387907703 0.7974138279332936 
10.369856716405785 10.512897725804159 2.2739338858292726 3.454109991972656 2.814011372016534 0.7828858912653923 
4.548620389729484 8.150383976741491 31.921890147767463 3.4546543321512844 10.702685158690436 0.7624455828395672 
9.243645438598374 11.223324814584487 26.4924877217223 3.4549206701837054 4.154775397869777 0.7577816608490022 
7.913740821209856 11.454252475581555 26.794999077061696 3.4553293346636123 5.513886767602042 0.858204983669508 
6.734670910276769 4.784366969413249 37.888447960058116 3.455626353166724 14.988795345063977 0.7521957535095266 
4.68817449017649 8.987432031412098 39.13271824006891 3.455894996115534 9.855627959615852 0.7800431199292075 
11.449852972973574 7.793723841603887 3.3938563277662652 3.456014379116105 21.50837993886691 0.7495148579372063 
5.701165977259208 10.58095922967233 7.313611300968766 3.456296921466875 7.9441041832582435 0.8696150109180395 
5.4372935212059375 10.319204369509928 9.667755846904477 3.4563236833385527 8.316024108271073 0.8182678101828645 
11.070258474043325 6.412398865664473 25.688795190818865 3.4564381173656624 20.067938191454218 0.8545922581647699 
5.928109694862764 10.767075277522713 6.143845745373312 3.45679548541696 7.651640456023042 0.7522391812958691 
9.187130236110718 4.753206113279852 22.355910893972478 3.457014425820585 17.502590979774176 0.7990821819164085 
4.662628308149701 8.901662191588052 28.623721825048932 3.4570282783487727 9.948363307503836 0.7770282631244386 
9.513406617883426 4.8918024730485765 13.074905649858444 3.4570639938537866 17.857492890164817 0.7782535091276547 
11.126667463053684 9.475337457926866 17.918563752433414 3.4572633743006405 1.524238837302864 0.8007081228205344 
11.433225077491079 7.590736250568742 18.30102359210624 3.4575325377083788 21.31409210429606 0.6957359498688525 
11.351482559725476 7.15011186106414 17.2160804638662 3.457563476907964 20.865824049876736 0.7287280177921119 
6.699674463231707 4.796065444816946 20.55656643482704 3.4577511673727743 14.961161524807942 0.7907882463776338 
4.701096309145431 6.963540687844434 3.0970750971385286 3.4578914770836713 11.915928654037103 0.8006944773974203 
11.08072961681762 6.429474475531396 29.860460942403165 3.4579539318713692 20.096716426905445 0.8653477601350856 
5.563712827001561 5.545143840810809 11.366384913322705 3.458585542042563 13.594963950962121 0.8276874317966341 
11.198812769703745 9.315459065897176 28.583228791126686 3.4587332492793954 1.349434417951361 0.6953883996239297 
8.271440195318345 4.551537512652169 17.854844801939386 3.4591289808678205 16.572480833399755 0.7591264377498214 
5.573254579888566 5.53476363270239 36.3463379240735 3.4592605684854876 13.611701976596311 0.820205476412488 
8.883770117288858 4.655471467152159 26.843701622027595 3.4593237384272237 17.19535657717473 0.8097609611340266 
7.141007562678659 11.351162667199135 15.368222287450806 3.459502743083819 6.302247418304287 0.826406988109823 
11.458423841201657 8.087469879268738 11.114127984730416 3.459529801168261 0.08747920139846244 0.7260399588084635 
9.151386939040854 4.73752468367506 16.09601134581645 3.4596874241791546 17.47716861946273 0.8362592576704768 
6.9970679215241205 4.688580728242412 16.257078935393245 3.4599668130494416 15.287173254377294 0.8296919470936868 
11.264421649141642 6.853133143405026 32.160476495293 3.4600220071757732 20.570980364770723 0.7980865279117012 
9.203841615578458 11.244375770119866 38.33235603556852 3.4605214597137524 4.206225174454467 0.7513123851274156 
5.4901553502868445 10.382811318656437 8.484024858660561 3.4607961433766885 8.244145023259321 0.7928906065396071 
9.750782768063791 5.014032236345296 2.1065314926555914 3.4613933302261675 18.147051742102832 0.8204923498571395 
8.589293426104543 4.588778526938963 36.28977426788528 3.461747922700716 16.905280073365102 0.8800556538030436 
10.089414219516843 10.760284808234916 20.693641139239553 3.4619104557009672 3.194852469648108 0.8179078428184846 
7.462033700906996 11.41991157474359 18.378914880129642 3.461965181515408 5.978197412569568 0.7587030915427381 
4.7081649263527545 9.07289842115842 27.373640404477165 3.4622664793771145 9.786173787977962 0.8030092790583513 
11.435713849245293 8.429060863916803 12.218355275106369 3.462401316837914 0.4301666444858725 0.5992505400800457 
4.540621873397452 7.8422113930976725 27.820020966929583 3.462974771390103 11.037099357375762 0.7989420006468329 
4.612282754541608 8.718306622908695 17.709648937395997 3.4630322752886222 10.155877092310792 0.8522913538988439 
6.149021701228865 10.926980592353491 26.457644805267947 3.4631396233094147 7.392724354326646 0.8196312223135873 
4.549195486763425 7.707874261144948 28.93694977786744 3.463147302075891 11.172271405956554 0.7285675977542045 
7.160409697135904 4.639980549864259 34.759328739892645 3.463328252123082 15.47251054754063 0.7762311865462904 
5.521216910567629 10.419082855793501 24.51106392007673 3.4635714901889845 8.203063546846735 0.8449173729702254 
9.859889802708661 5.0780047685581895 14.078096163880097 3.463704117096081 18.285673206636737 0.802093569891249 
9.097480604648867 4.714077916751929 32.02218499059059 3.464353852417186 17.442102410920896 0.818846474905654 
11.460568452438602 8.162729327448798 34.90628695924673 3.4643924211938333 0.16278922700804443 0.6828473140976161 
7.5729553685231625 11.438155297702929 34.62095317096899 3.4645748611331637 5.870274913819284 0.7761520127574022 
10.880445985767379 6.074603480367166 28.71323905034413 3.4646963553445276 19.727835967878416 0.7996510437346127 
11.03060912502166 6.320838089675377 33.9382994820173 3.464704372634066 20.016375500217396 0.760617166570263 
7.427103153390355 4.582733876623827 23.98792595337347 3.4649557796355324 15.752679690223353 0.828217734487199 
9.05911945632296 4.700871077476368 38.633634791082144 3.464965464502321 17.404611608698524 0.8470327870510059 
11.162773767835695 6.584746980436071 2.8797718814882245 3.4649789344084634 20.31321576225728 0.773251178139652 
5.854070614715095 10.721326130190219 17.056856975687346 3.4656354155457954 7.757903655008995 0.8680983576868428 
6.639692964172363 11.187615759327565 33.87893762833603 3.4657364961629136 6.841870483644321 0.864504230619424 
6.066067387737769 5.123065207651029 17.0660679020012 3.46653272712078 14.284027416600079 0.8747340922680248 
5.238858277190948 10.096118474609197 16.15380421762891 3.4666433726351094 8.639782637525332 0.8646494252210245 
10.961119349597785 6.197258288704083 11.273674241561345 3.4667139311181265 19.886171143387628 0.7916015467518839 
5.393850830132315 10.286463579179497 1.885534551997182 3.4669769532715846 8.395084317388413 0.7890953410043872 
11.27431064417702 6.8590140498855625 21.33115215848092 3.4674138969741466 20.62375389383641 0.8479762728231119 
10.912650601756408 6.118614270995078 16.707408800341256 3.4674408126477583 19.797951010846965 0.8269986250035023 
10.475893128344634 10.427862775735338 35.55670337643353 3.467645374138692 2.6895191771285702 0.8499805771678586 
6.0282106329866245 10.85257622209652 11.578242115166994 3.467728999033445 7.54443573410488 0.8731681191250396 
11.284299300064728 6.8865829262966525 4.06701802375764 3.467898423025068 20.6559565503808 0.8870917592392789 
4.586537772780321 7.387292348352698 5.26704488068669 3.4680160096289465 11.511034364337526 0.7763532991163703 
8.1969936740477 4.537566275079055 10.222036725833306 3.468033132351065 16.5398208795687 0.7760144035935536 
6.725747671858345 11.225522477606948 12.29320335543855 3.468099515487134 6.75249652735971 0.8643957588419512 
9.276832326902193 11.225023091809586 25.21964771690586 3.46858396665376 4.1408551141340695 0.7877366767032908 
6.287562406647448 11.01641291989107 9.288161666951126 3.468600497954879 7.239427671886514 0.8410717238852674 
6.6276163689834195 4.8141606974896 14.084271883903888 3.4688627663979736 14.935660618952618 0.8042031400107345 
4.767857903104765 6.740237455876052 28.20088095796804 3.4689687519636094 12.18732379583416 0.8396542131262476 
8.258702537050377 11.459346485285149 9.615891032100407 3.469006357435947 5.190159509440274 0.7898851887829194 
8.537787896194919 4.572856068893071 36.394481816088955 3.469082205110859 16.88763031954668 0.8267375879935115 
6.327161601245187 11.03912792895479 36.19291009216431 3.4691046217866663 7.194827389969518 0.8556358276912157 
11.199717926433816 6.659646358124647 30.828345239535956 3.4691126666671517 20.420914083513132 0.8522365226494435 
10.031278557626159 10.81229133772773 37.919834690442954 3.4691605824651983 3.279291332614651 0.7255838692546859 
4.541828248218433 7.718787986734837 39.6665538121252 3.469586727727762 11.181548991315239 0.7791794915774465 
4.707642547535697 6.9052204167400895 39.0117102766389 3.469605154872811 12.013897710861439 0.8908658952834495 
11.014376557982716 6.281482046822088 0.5928875396141748 3.469837170345394 20.003735601360095 0.7820970930127292 
5.342422791743575 10.23102549082031 25.849069778710017 3.4698978887762717 8.47775302294604 0.8647878314978134 
11.33978696109797 8.941534321811274 14.57719478793787 3.4699659688055497 0.9534880777864885 0.6510257771262064 
8.787531495283629 4.62027503614871 20.093873912792283 3.470266083075371 17.147696471765794 0.8307494161183588 
4.847953342165036 6.548137216568497 34.6308297552538 3.47034633359295 12.400360796853032 0.8975448681430541 
9.112676441644092 11.28760837517152 27.520741024333503 3.4707949654636296 4.319237218087615 0.8974107513890481 
4.556119894102219 7.568166792162145 18.190271490309023 3.470848614271448 11.3369476525267 0.8437222331956277 
5.811729126865998 5.305621277665008 14.765198225102374 3.4710525944701835 13.98930103930389 0.9027455534415311 
10.281575017087764 10.616219068705933 3.316659598737232 3.4713378939624357 2.9631951253521898 0.7846133497222509 
10.624665212484356 5.727909727283498 19.823846236494212 3.471492717117311 19.33505096126055 0.890259239751378 
6.953482673686722 4.6899715580856896 32.5141184266878 3.471525140418196 15.29612323629675 0.8433423948910779 
9.752355614571243 10.996830607768995 22.975431896698616 3.4715621687621283 3.6162421297433767 0.8126700507704845 
8.379883333180505 11.450733478073802 3.017402825140607 3.4715807470844844 5.072500705876546 0.8190007013047241 
11.264018485754686 6.817579496963566 37.62137104496416 3.4715896821700056 20.60607612986948 0.8811249123338567 
10.895590917948523 6.084532001877019 23.364864244337653 3.471809962532399 19.78501121413878 0.8434257676214487 
4.712905759516904 6.882602259067793 21.692400534715397 3.4718246293926693 12.044706475906128 0.9022386861065169 
6.895476258659048 4.7085457636653825 21.617153763144167 3.471835780256738 15.236581575177233 0.8234487417614551 
5.9786372165510535 10.823025220863544 15.790476347234723 3.47208567001797 7.611499243929352 0.7860675193359642 
10.806670772888081 10.044117641140094 38.68940660007347 3.472148867517685 2.1856216976016825 0.8652005549048906 
5.927144533799138 5.214327921906014 15.851376638337179 3.4722757250010066 14.141419489384912 0.8917270012353166 
10.691345213155216 5.805755129659611 20.914760307106583 3.472470245716819 19.443008369232672 0.869229747453172 
4.52762716521838 8.04015853059666 14.547514219695323 3.472605046835737 10.869351078207767 0.8382682475640687 
4.870228598606069 6.4949468740752305 0.09492257382368052 3.4728452221254056 12.46692342054179 0.9015453666394991 
5.963856279788308 5.186446273754635 21.233971831327047 3.4730340942505418 14.190606432970228 0.8755184416575799 
10.13425133056279 5.2600141386507655 9.913261680896987 3.4731183772515943 18.665053366115707 0.8727908909153835 
10.370958976817223 5.462024540899142 12.27606248698796 3.473149277060866 18.976514186779756 0.8145267003041197 
9.924003308429965 5.108389266644764 27.27644730135603 3.473211966480693 18.406273953818665 0.7700978772330027 
10.938467935455293 9.85168112610707 9.540271832337268 3.4732285845420603 1.9529807020595236 0.8238733381022884 
11.406681433843287 7.322465660089035 22.568949144402943 3.4734033991822972 21.142130911418253 0.82659173007099 
7.6985916371340934 4.539641211033931 13.288474545739952 3.4734608029428276 16.066510501744943 0.8430427284422599 
6.566263807399986 11.16393259317402 23.14047182838093 3.4736247529230955 6.934281566703657 0.8621837601099754 
4.926934108038582 6.380620948644575 23.808063045549694 3.4736324630428888 12.59738504361863 0.9167228951547636 
6.040990963416865 5.13131965108405 38.56636101617665 3.4737650107154505 14.288411790632377 0.8769030651766404 
5.227353254184161 5.907212359355865 32.70379306802073 3.4738062821516134 13.1593245719713 0.8734143259417061 
10.020748103960836 10.825601289382371 27.130922469533054 3.4738229008141177 3.300028404338999 0.7317211356712126 
8.756358289242428 4.609256920970491 1.7444183632716914 3.474077789815917 17.13367054855332 0.8135383429603439 
9.606730807750562 4.9196520083430535 0.9045363397570085 3.474208922658475 18.042165638623956 0.8927887809018767 
8.94465074291472 4.656611418259599 21.32001051320556 3.474278663924559 17.328847872784902 0.8370424188856979 
6.467025195098103 11.117843502053143 29.596176096916437 3.4743286913818388 7.045119110417954 0.8787242794950567 
9.91834413321423 5.103276308102293 27.279282598196026 3.4743420039827573 18.40471870128971 0.7601488763408144 
11.362605762011988 7.125910076172193 39.87841841772977 3.47435615699564 20.94643986579114 0.7709879780482892 
11.473644992001297 8.075850875860088 11.107586090684656 3.474473037141667 0.07585690209164753 0.7232036145555527 
5.027425931096246 6.2009352336581 15.431214160601606 3.4745979089114543 12.80682033182321 0.8396907185910082 
11.114264356130326 6.459157124001235 7.1662824714376825 3.4745991493091664 20.23513037285102 0.8785750333688566 
5.1103167332884585 6.070498747363102 31.61535488717385 3.4746574602167684 12.961600194134203 0.8407011445712227 
6.143646389674352 10.937250960521181 14.578845263972958 3.4746930701360785 7.416441172192631 0.8509310934490143 
10.752184340148887 5.878808859331697 8.962935931293991 3.4747619339187064 19.550916350821886 0.8935779346166123 
4.598087066161003 8.708056118329415 8.124885975725768 3.474817272336026 10.203410508382184 0.8157057370580646 
8.896517413044112 4.6428120423321015 26.842378730325102 3.474831572177516 17.281531928918312 0.8501487647361629 
11.215471899829929 9.317446164923647 11.431437522585277 3.4748991260276774 1.3512433866316798 0.7555244013627296 
8.749698623871865 4.606817616743992 31.018061097736755 3.4750157859604447 17.131265621982685 0.8094768018716949 
10.959175074283207 6.178109741080153 5.954075168286636 3.4750541342266974 19.91664619750868 0.7666638578553774 
4.581963029713847 8.6273534524235 35.062450772221126 3.4751329592564684 10.286640203769277 0.8617884942005284 
6.459396402566297 4.885009746236747 19.308133008290277 3.47514369853474 14.780095094297977 0.8781435074635686 
7.037000375271543 11.33909328884705 4.68010741266265 3.475185213603808 6.434578763528304 0.8519123557653419 
10.60281478793463 10.30266913564262 29.04549811663658 3.4751877601839487 2.5170389063649274 0.7952235139351829 
8.143336323145437 4.52772885744678 32.85290031969083 3.475228365005773 16.520004845592858 0.7780522206687159 
6.131112090850095 5.069935885405506 33.248712903706334 3.4753442610194916 14.403965724181944 0.8882697153749266 
8.762490449821641 11.39100536072197 33.98524553470701 3.4756738976081096 4.690832869694454 0.9279648398882875 
6.024358456180881 5.140383776841167 9.4939566836469 3.4757106400586903 14.277567528453432 0.9019373304980276 
5.75230365357837 5.348663242470838 37.345246912814844 3.4758776542827845 13.935478222444111 0.9038324306155116 
10.86791101961702 9.964106031697082 32.14393704718366 3.4760072094559273 2.087306613566689 0.852241394721988 
11.054821288012416 9.65867676557758 13.696730972880836 3.4760813733801967 1.7291071407945395 0.8315896218409355 
4.533167174791437 8.253426971530606 37.4409307332379 3.476083294146267 10.666785724475115 0.8043967250350341 
11.39904867544206 8.72823941412486 26.298342445626453 3.476185343492105 0.7336742366981248 0.7815777557700814 
9.160676127502157 4.723295457926239 38.591264734815006 3.4761993223922327 17.5646053149505 0.8186310038755903 
11.339219882903581 8.966847899598857 3.6741964227168538 3.476375164929316 0.9797672052561097 0.7289155065369203 
8.112819712295266 4.525316485383705 22.0293070096647 3.4765146072221 16.495528649203667 0.812428049179613 
11.466126631562929 7.731444948719595 8.734140510556522 3.4765148700383808 21.574764288766698 0.8770458041732677 
5.38703311239583 10.293306720286669 19.228052101375063 3.4766149727900295 8.417774460512845 0.7850136498231457 
11.32295922781619 6.977808784043194 10.761470421679313 3.4766266569345676 20.806766564834692 0.8933209362039872 
5.047959952080117 6.163569135025002 2.5206965488901787 3.4766390043194955 12.856943880003016 0.8457176133835907 
11.463514018193973 7.697835399520793 2.2108965125385254 3.4766697858739652 21.54201420651067 0.8856985266514741 
5.773530620423383 10.670243877952514 33.03654629866843 3.4766892679581174 7.87753252221928 0.8600822585325463 
4.525957981050837 7.862449079658143 10.498706354919719 3.4767640421966046 11.060163201875568 0.7769070062700961 
5.478015287005938 10.393357165782227 12.731175280101802 3.4768614317480133 8.283125536358476 0.8547295879855926 
4.95417213804844 6.323062589668419 30.502975104952988 3.4769507391980685 12.673041654677455 0.8885882781223465 
10.083402716299453 10.783654536509514 4.649251441366111 3.4769669910590086 3.2276454134009107 0.7328918851053702 
11.232419838174929 9.28092945120553 6.064432802309746 3.4769696963293413 1.3118316713802614 0.7440621938079499 
8.998848020945804 11.330584441937736 21.012674818752494 3.477138204590816 4.448753872151272 0.8973062513049904 
4.728175449693039 9.17747246202064 11.133254207762889 3.477251398275408 9.722885476372262 0.834870771368124 
6.292071428171045 4.970729753545154 39.76174055948464 3.4775707372426368 14.602340450720718 0.897362125965163 
6.847773819895604 4.718847974234597 3.1849782016938804 3.4775830380168298 15.21330100164295 0.8550626176428909 
4.647695829795325 7.074435199425258 37.64816825990969 3.4777310778199357 11.862469306075756 0.8272548754848535 
11.401248811783411 8.725399883375607 35.88638471600468 3.4777433014038586 0.730765618118582 0.7933323914772124 
8.432723546551662 4.549150226059393 24.32814037045656 3.4778749014371098 16.82294724128401 0.8446741136132594 
9.742480510281263 11.009890460824073 12.18860410026906 3.4778842584062186 3.6379447207166145 0.8437091539128381 
7.682390407665913 11.463502617503883 17.27577910976143 3.4780348236610346 5.781337012465126 0.8566924580889326 
8.841149990271388 11.374817894381938 28.723247486416696 3.478063991126976 4.613756887852194 0.9294179681819497 
7.150831416490643 11.372836102400102 9.897334493334476 3.478090087515389 6.321210616677817 0.8230307768423303 
9.926831486557726 10.895628587425701 21.758698007524707 3.4781237030771686 3.421263184539079 0.7901164651192845 
5.825789968635622 5.285127454464666 26.54133350275613 3.478177999899804 14.04185321285641 0.8887892701183719 
4.78331017917893 9.323507906711347 36.99342374614959 3.4783281303668496 9.569765881480382 0.7899285434268344 
6.529833335536441 11.152400575011894 6.9410079195473315 3.478364472943459 6.9816863982081365 0.8459943150794206 
5.010289996305676 6.222172390296693 37.07728208267278 3.478366989840676 12.793670988212277 0.8875835010438805 
5.034536661074647 6.1820032371843805 15.439191770426135 3.478373908037829 12.840616571557614 0.8828646404128585 
6.45518637486067 11.116519362506928 24.14932371570135 3.478382105706145 7.0645468391723405 0.8586585451727166 
5.5379780387119695 5.54264764112378 29.610992255605886 3.478524508112466 13.65683189199602 0.9156971499585529 
7.698793511204208 11.465469282474164 17.288043119962744 3.4785345616602275 5.765653476091742 0.8168800805663289 
5.003280568258004 6.233283937609777 37.06434124305048 3.4787372705750146 12.781899741067932 0.9005348147676041 
6.9089980789748395 4.69669643454262 27.008973890329614 3.4788072147280626 15.283765652064126 0.8426588792756806 
8.977994416427883 11.338639197188861 6.112199549025398 3.4789344299037905 4.473340660647924 0.8289568222391368 
10.658214803230933 10.244375070781572 21.493126697201497 3.4789833857697348 2.4394121165093985 0.8078337996601171 
10.7974810442706 10.068347581800872 27.88838295733136 3.4790748644136507 2.214977785820551 0.8333998399828011 
9.658005983977112 4.941123089264369 36.74803576189383 3.479326342546134 18.124135694887606 0.8741506659263767 
11.395961752612909 8.757908157694184 7.998739792689065 3.479508729793492 0.7640331051626781 0.8026233789604952 
5.934829687332417 5.199490001500731 8.266444668778767 3.4796242141958227 14.186370819515616 0.9042861225891623 
8.860254322675456 4.6283519850373604 31.0404784411841 3.479662029060195 17.266788539423708 0.8154449239625529 
5.2755337717390525 10.164663846332061 4.275145085799338 3.4797249599000737 8.595607573627174 0.8923535397261464 
10.125817255090663 5.245070743044524 16.361236579486416 3.4797606545379582 18.684913345868168 0.8448673931540908 
6.668016912738281 11.214787632410562 21.804654349895642 3.4798043718363227 6.8329258530337995 0.8679076377318967 
10.709741620692128 10.183367648482509 15.991065888288496 3.4799129212311155 2.3602012737317857 0.8799880992604159 
11.1349801385476 9.510648096071684 29.725053485163542 3.4799652497191618 1.5626347522472734 0.8406750691642572 
11.34603720107668 8.956306481158691 3.6809519797999712 3.480012505278565 0.9687707626047057 0.7111434602494638 
10.34706657488302 5.430578597063487 39.054426494417825 3.480035610852469 18.97521289488067 0.8182774298900463 
8.982800636417796 11.338396718600185 11.318730403228287 3.480055996920696 4.47010224642932 0.8292679689471059 
7.416852566490814 11.430912197472992 13.08511947270761 3.480117733062673 6.0524676062872516 0.8503247474181981 
8.69300641609513 11.410486888412649 29.79104674488177 3.480183717676933 4.768989777864885 0.9220079648604164 
10.22032183759659 5.320053607412682 10.917858668403504 3.4802215058312114 18.80803916024383 0.8735158794099446 
6.2078178052711195 5.01662519951412 34.25109742611671 3.480293409940805 14.517828006159608 0.8460471235715683 
10.947015223073603 6.148500970498297 4.844302961163926 3.4803659838116583 19.915501257451506 0.7807022332454759 
4.519556928117769 8.001777478828371 21.184382879438488 3.480443525765648 10.932358332873878 0.8328240080197774 
6.4402713665172335 11.111394081414543 24.14073329046854 3.4804491865228337 7.084384708213033 0.9036995892847016 
7.639660429984854 11.461820734148578 33.387225196851745 3.480524012429694 5.828180746428279 0.8794402869820027 
11.36313438056474 8.89659123380116 25.166988448246194 3.4805960268703493 0.9068153072605014 0.7535059731547619 
5.727051751279733 5.363951176412614 25.40856375676907 3.480667628731155 13.925534106733299 0.8930340054836418 
4.650891611965971 8.948101346045286 32.74793467526071 3.48072164316148 9.974774590057976 0.8013146852698517 
7.348223581278731 11.419448831652657 14.242001435068047 3.4810117512429986 6.123606578268255 0.847542134978579 
5.642565119985896 10.56131128051824 23.303876104207426 3.4810651658963656 8.057862938844632 0.8941236317327464 
5.3733702397522 5.715420233010445 17.788276713416053 3.48116196250009 13.428430173936821 0.9168364810637422 
4.996310812771545 9.759644751288802 7.7180611747769845 3.4811633664927806 9.091611771632937 0.8463601519066635 
9.516029680001196 4.866286332292615 23.534223079780702 3.4811646530752616 17.973173137270134 0.8840653027987089 
5.452478153097534 5.627432679026088 33.80368950226424 3.4812272624749303 13.547009906677584 0.9003624185656822 
11.159234359882566 9.462739285081582 7.196117627370768 3.481431883117001 1.5096030853416877 0.84770266205344 
4.667449661292878 9.007515529852197 5.933833254429437 3.4815196829704 9.915380523122522 0.7894625275680179 
11.44448092701785 7.492833812864665 7.5847856817476895 3.4816183590340772 21.366676136459432 0.8061331123376961 
7.332901958775391 4.582818245484372 5.453149764176807 3.481687944086924 15.735819247190562 0.9013698850039581 
6.000195692095334 10.850274176713238 27.79893961049369 3.4818501048081325 7.59951223131311 0.7961011956772049 
5.382821910321537 10.296538577940009 31.294010243158603 3.481911916326967 8.430948573081636 0.8099969135082846 
9.395777480726347 11.189918818664047 19.81620288063033 3.4819214300971573 4.0332364026469065 0.8732527723946442 
10.507600525638138 5.584268162610741 6.692801731627384 3.4819277284798376 19.207862242729927 0.8775441704529192 
4.525830802646189 8.23250786694813 19.856108531356718 3.4819407691738236 10.706158535955765 0.7946592095548369 
7.735899253118452 11.471948656947898 1.1957754864442904 3.481978845568379 5.7338342095813175 0.8480494670331158 
11.482164762923533 8.013046457960424 4.491708234851657 3.48218920310365 0.013046488483240637 0.8478910621949933 
6.038103474168588 10.876924940209253 38.35129927106536 3.482202620421076 7.553941717145385 0.8522845290754714 
7.68415065547846 11.467888512949823 23.7778711058533 3.482242315905657 5.786177477166859 0.8185509363595587 
10.75992789834462 5.876546372295705 14.32769436340731 3.4822776042514882 19.59613873780676 0.8686330166718689 
11.20712712171271 9.356859718599534 22.09693452989029 3.482345857433361 1.3937747768066728 0.8012439228310624 
8.05408345297736 11.481941976678787 27.955797527052837 3.482361978434136 5.415995776907863 0.8557385166224165 
4.8963702221678265 9.579366239794478 34.66026574428167 3.4823721106810432 9.300958254168354 0.7393813116680742 
4.517803880269179 8.059497364560446 38.540346035293936 3.4827043734227616 10.881738215161498 0.816118088558808 
11.411070132947465 7.297160804516402 34.25864025445748 3.482726286487971 21.174915171340245 0.8253364029939629 
4.957884940443764 6.304401430886596 35.98610963070927 3.4827458338440747 12.712302083068305 0.887047734197811 
11.145513773662225 6.504862932364482 1.7674104099563124 3.4827707003643655 20.337545260373055 0.8065469689133125 
5.073618498323793 6.111452329368287 20.823196489689565 3.4828610362173724 12.937762333229426 0.8532325785315759 
5.447638461699947 10.369852931470916 12.726833210930323 3.482922959095523 8.335526507936649 0.8525325383034782 
5.179285375792187 10.043199562243963 26.995975919828517 3.482972213838886 8.758655225711529 0.8293612111773151 
7.746036044509308 11.473719789641873 17.285740394208858 3.4829910806141973 5.725259131584725 0.8489841158210574 
5.090874005828034 6.084679411044366 27.45003780093886 3.4830255538029546 12.970225775202422 0.869373173769844 
10.341445505890164 10.578737902201986 19.47147603459196 3.4831388466879036 2.9035068788248566 0.7907072930905962 
9.287198348165566 11.236611495817709 2.595786273040005 3.4831786578324553 4.152906223615798 0.8433229588457913 
9.88342068015755 5.069905234292339 3.198935945119004 3.4832066827095605 18.404133264244923 0.7793355252418608 
11.22062161131617 9.327398471889968 28.54581857006321 3.4834451720175807 1.3618234641455587 0.8159845889897172 
7.207406861345197 11.392122019742235 26.076694457596048 3.483489009637147 6.271447939358048 0.845004203988762 
9.882620258324998 10.93095056157458 39.097835112304224 3.483493968912535 3.4829229929222123 0.8255029440068656 
4.847949233506117 9.48301410266948 25.11258609002057 3.4834975044158196 9.411814608108227 0.8552701430487888 
7.443847448231015 11.438839908471127 18.394827095463015 3.483522007528134 6.030446260735598 0.8015068058870338 
6.312849232598705 4.952226833741339 11.758582140556449 3.4835899564829833 14.654802043090228 0.8728913062459813 
10.681778990256117 10.22348622965269 11.769791037327913 3.483651757284911 2.4115225712718633 0.8766696065544417 
8.12041288211885 4.518409780925074 3.503459974948221 3.483671872570429 16.536853815500592 0.8394792895740023 
6.434660858074579 4.8877702750407686 35.46665593377223 3.483713606220181 14.793147670734378 0.897983628630256 
5.763317598647445 5.32912831371889 32.0434016242398 3.4837198120828137 13.987952718662896 0.9298828504371757 
4.518769535513792 8.1343843801196 9.536257919425054 3.483823288929418 10.810335922475105 0.8680294715849581 
9.061443784127578 11.318267263826653 31.781560466090767 3.4839001910282525 4.393906102494238 0.8952124642332439 
9.790245852912838 5.01124054044111 20.431630244492155 3.48391494169625 18.297757049609686 0.8460657009204672 
5.201235475126287 10.074917675329797 20.332536338418585 3.4840158187194823 8.722715132429563 0.8263185347487465 
6.267369609040355 11.022767430261023 25.27626874954195 3.4841255730991967 7.286253737539912 0.8337306289148868 
5.226261621106515 5.891498298435442 39.37099549281752 3.4841647521389274 13.21044876196045 0.9207470659073179 
11.14074449082164 6.491625248967001 19.08071646478931 3.484174270351629 20.331738099375016 0.8456632343021302 
8.620896493782771 11.42840760406244 23.384075696551186 3.4841772566252813 4.848702182361727 0.9492808449885913 
4.95968413369188 6.298183371380077 25.095440632667703 3.4842072849318515 12.723943811636069 0.9176664990100393 
11.421768600044098 7.343277454834061 24.845066117073507 3.484219403765637 21.231321594066557 0.8241066530231553 
10.946295049584663 6.139857620582806 39.4682826027401 3.4843628098851824 19.930670147394395 0.8122441183511698 
7.49938236022779 11.448571193953773 30.330789634308694 3.484718252745672 5.976138457925902 0.8122488281787792 
7.838468439588155 11.481008062887856 5.276086056933629 3.484753876373387 5.635428051654799 0.8838437108704739 
5.2216576691296215 5.896535005822365 9.02815863411784 3.4847885286250815 13.206017973534294 0.8964043333383199 
8.623448902524945 4.571387787911885 25.517475852911083 3.4848343195823994 17.048718312342224 0.9469331108436937 
10.632732442906219 10.28322699809606 23.712109253080556 3.4848824428903877 2.4896749778953406 0.8403688769041476 
4.911942415136442 6.384676114995923 1.178238493558645 3.4850209326341237 12.62810961059752 0.9159808374973623 
11.354734924956079 7.055561782126002 33.158197669158824 3.4851413119271215 20.941391678564173 0.8545251667384369 
6.724321435311756 4.756559742437389 2.0256927423073776 3.4852920257537785 15.118021664463384 0.8685471729485029 
6.577726805928897 11.181936765841595 0.5123941366516291 3.48533823615265 6.939792504556365 0.8698421983702918 
11.367519736567063 7.101034795908074 15.990998606510473 3.4854451099302577 20.990454643190603 0.8566020424008082 
7.638537251121168 4.5333033521079695 26.2118034508428 3.485490061287347 16.062871145789835 0.8895611303128713 
4.833120656652621 6.544071886886815 17.371200456365038 3.485520254692784 12.452067791803572 0.9140290194229513 
10.364268304354663 5.438794889680068 5.618754251460899 3.485618486309854 19.023896079983473 0.8525446164095192 
4.961622213501341 6.29181931612734 19.71273165420125 3.485630620453658 12.735641579766131 0.905899215781196 
4.602524300287058 8.779048279333503 6.94732103451129 3.4856502050080183 10.164808552848882 0.8439378882745867 
7.718110760201508 4.5257242525093115 19.706349284079757 3.4856926877044336 16.143742402923237 0.8671742280549721 
7.700062932923547 11.472769033498412 23.783320572227268 3.485697491784382 5.775629256892149 0.8068085961196166 
11.188372753982847 6.591064735342341 8.289352686065385 3.485802547238744 20.45151542418418 0.859147299138753 
11.049128244754378 9.689346346177365 24.419183405603505 3.4858390855433554 1.763630608009727 0.8903931606411231 
5.394217143296935 5.684518893295918 23.189667571672288 3.4859083539001925 13.483736935927674 0.9048186249596513 
11.212520579223856 6.646749005494733 20.311160544771617 3.485911175871563 20.512849145804438 0.894148176577014 
8.388785617852184 11.46417536421814 13.807178792081537 3.4859238676001767 5.086080227718941 0.8929892742282602 
9.760268043452728 11.0088767971287 17.656288707400215 3.485955129530548 3.6304851209915796 0.8601782659145344 
9.707362760398984 4.960739452561494 19.354150524987034 3.485999465119503 18.21163882094031 0.8434132292076609 
7.230338304634673 11.399987087031317 36.84912333581905 3.4860136714150056 6.251873473246537 0.8344744180277934 
10.42870857969254 5.499248997636119 35.929298992651255 3.4860265261320245 19.114488319434216 0.8753448596822999 
11.14403097957705 6.494185488037747 36.35930532704716 3.486030428004945 20.34630029495924 0.8483125840274137 
5.926380003403359 5.197748503933978 8.248871281921637 3.486045515693925 14.206783374268 0.8862325125352382 
8.353261769061676 4.531855206051535 5.902447153400978 3.4860898137128387 16.781680393583116 0.8414605858451829 
4.567564445127179 8.609313350546227 1.5781926176965086 3.4860976173235545 10.33943951613822 0.8494208954783575 
10.681684306676026 5.772521187630244 36.92991875865686 3.4861285949070586 19.487620832654535 0.896217741566131 
9.357403069467917 11.211024799005303 37.2165010286834 3.4861473509919154 4.081749447121105 0.8248769282629377 
4.705156717499545 9.13917734865365 26.30017048778563 3.486218192816385 9.79178643259241 0.8048162968381549 
10.058213206663766 10.813867427007892 37.93575795781936 3.4862718627297498 3.27455411581308 0.7396331996914729 
6.345807182878666 11.068874136454841 35.03778336100511 3.48630783804547 7.199827496289327 0.8543021600248896 
4.557532067638192 8.551964143700221 18.884601315825492 3.486437993320706 10.398671663891417 0.8717831698801795 
8.783965389078308 11.397222570718128 12.694317639071159 3.486505833390985 4.685863868243665 0.9015058863426059 
8.305642756162605 4.526884545578534 23.13996421214742 3.4865381762051455 16.735959670793846 0.8624713356944229 
4.910164913216034 9.61523931627302 35.842622178330956 3.4865568850020816 9.273906614972933 0.8350993694901179 
11.468394866997466 8.356356247960694 39.04255650378295 3.4866535143135424 0.356979600501937 0.6805914521919043 
7.359625680922683 4.57265640396507 5.49713445118649 3.4866550437081374 15.786444464807076 0.897404610003657 
4.5741523895347225 7.351205895942272 24.730210423928888 3.486741407043361 11.606518807271922 0.8644376343067601 
5.704365470268865 5.375552633580266 1.670832347794061 3.4867838867932983 13.925246742341606 0.9108169184023298 
10.495437646990865 10.435372213466128 7.697251343994395 3.486867773251836 2.696105819407613 0.8237254852890513 
4.524359434175032 7.7195175984759565 22.355682556173335 3.4869395923033704 11.235329558422292 0.8470018175008638 
10.498087846918263 5.56722197759793 18.670998351117547 3.4869545160789324 19.21671607939222 0.8906257042136088 
11.449291599166251 8.51164071030321 30.478244231823865 3.4870315101126392 0.5134945562464814 0.7771102024070123 
11.424729533641628 8.656686765746821 13.30818239388185 3.4871205724643684 0.6606314584628947 0.8787129937642624 
4.5724302352381585 7.35762323282416 35.40984432626581 3.4872456757901107 11.601571680723357 0.8835384902231603 
5.823437815341265 5.275375183044206 8.344228969451123 3.4872630151535455 14.082790779671157 0.8939378281911928 
10.286142149765903 10.633507970318668 26.010085686963336 3.487378694473576 2.984809083488301 0.8274242444259995 
8.044964264325401 4.512873875169106 8.911211780137794 3.487416005518189 16.479026264626476 0.8280978114188995 
4.760742720555079 9.292052892659093 15.453459831276682 3.4874329240668764 9.63249214498314 0.8168084382204999 
8.2040893979622 11.481478280475507 14.91087713336492 3.487455160971 5.2738756877401265 0.8529660718679163 
10.812152001440797 5.937347611884761 3.5978906786968494 3.4875111115815747 19.70563130176365 0.8756230211204143 
6.989441023416315 4.661984338757014 28.11120403085927 3.487632148013506 15.40981699822694 0.7818489542368733 
7.517812358285159 4.5457807938668715 25.112337750405345 3.487712035968779 15.951718671988708 0.8943897170025304 
10.947948143419591 6.136150510576927 15.703393608021699 3.4877404111420978 19.947738004354605 0.771421966505276 
11.449050018394445 8.518198055161552 30.455230649207508 3.4877607793195793 0.5201237725424299 0.8277245370078476 
8.967745126305548 11.350852298047748 15.767368050470573 3.4877989840040984 4.49800835978974 0.8725515498910674 
8.788164760991645 11.39772841615769 17.955637171786307 3.48794525192619 4.683820355405313 0.9031413064653766 
8.657090564459484 11.425666926850901 7.283191222475033 3.4881172433881558 4.818081430375631 0.9537537312366882 
5.451021489686671 10.381161114770233 36.56659246505742 3.4881541967827268 8.337457418535347 0.8169313831245437 
4.520415612425101 8.244624258477922 25.39809012264365 3.4881726646040443 10.71359239693404 0.8671495049528561 
9.201815938310961 4.725283728675734 17.103553075337018 3.488284421783029 17.665112689168886 0.8648157407837418 
8.137156040750245 11.48566070846521 32.259104177433706 3.488358117231148 5.342308712963948 0.8603681558229515 
10.778843459699926 10.10875970909477 5.383827890338509 3.4883862292209704 2.2644822025997016 0.8555655926916779 
6.452280242284068 11.126290612669456 8.194145089984843 3.488427932936183 7.083213987530893 0.8199017970284889 
10.312252440670594 5.387985630121941 34.82399976309352 3.4884280726190378 18.96654067075547 0.8930523778746472 
5.159048749386546 5.975443531908834 7.8795287289609135 3.48852875878241 13.119474478218514 0.9219943126574641 
5.589385904086745 5.478339192199996 30.800373565447067 3.488528851680927 13.777949280208269 0.8925570119451552 
6.050322043307711 5.107131565759495 3.875079254713789 3.488542949805397 14.37054351348884 0.8888483379218876 
6.327057136545964 11.061294120618143 1.610918690390406 3.4885899038598653 7.224642060011291 0.8401588668739517 
9.243825703494206 4.740636110436501 33.25281945222083 3.4886323029610544 17.711602715176546 0.7800208497760704 
10.42123677372135 10.511669523525367 12.998513455768666 3.4886775875432656 2.8039501617402998 0.8836876549827011 
9.780013741463105 4.9995704338073335 7.453448461791496 3.488699829661557 18.308112894785214 0.8134767886203591 
4.6166742849152005 8.85100392704265 0.385416258531329 3.4887104463105105 10.10042942532181 0.8421690416348947 
10.997739525487393 6.215434490777984 22.089092103176768 3.4887127023264908 20.046932003252756 0.8028883957928974 
5.804028443642888 5.289072176557543 2.7477484578595153 3.4887563314516434 14.065107516475607 0.8716277620860289 
11.288709211965742 9.164589253499186 15.590548083268402 3.488821636345735 1.1873792365454108 0.8368069290850646 
9.375823249846498 11.206122819181582 19.83450685131431 3.4888555640059185 4.066045093009372 0.8455638301160693 
4.643433904927637 7.048087346525257 32.3168900102221 3.488935890846185 11.924952216751443 0.890270367867935 
11.411572194553678 7.269276168299074 22.561314421421862 3.488951440887001 21.185554128138918 0.8235934958896096 
7.03498620707281 11.352919334330782 38.107169962937874 3.489028472665262 6.458314637815043 0.871129071206442 
11.48752471005457 8.104207960274188 28.142998786051322 3.489081240416408 0.10422345927357668 0.7472934955750191 
6.519518409493918 4.840547692756161 12.813960288077638 3.4891208952364847 14.913148911680512 0.8351723640399557 
6.329552429264915 4.936723490568806 5.1622819486045834 3.489134285149787 14.70024814590267 0.9215202813374962 
4.699976457768848 6.866486868368494 21.709848802011237 3.489270324704136 12.11632702307195 0.8949745870269403 
4.548516261242691 7.487810427015848 11.598418417542234 3.489280464161604 11.475944882981175 0.8402990250573251 
11.391466937857146 8.820451275329564 26.322806436326523 3.489296245056879 0.8282059697405266 0.7695067734549047 
6.829660000708522 11.287178097782204 39.20262615021485 3.4893030192977816 6.674459426681057 0.8445697865511305 
5.362578123681635 10.284831146201899 14.97532221789514 3.4894766828762416 8.471417645825028 0.8500010352004678 
4.9292951956540065 6.342402925991475 19.659847588599355 3.4895352205122085 12.689969732226967 0.916813804421051 
6.284677123777325 11.038858173685272 13.476412685766824 3.4895546376961355 7.274589708387957 0.7851224256612356 
8.250383860427494 4.519383749097164 16.752303656599743 3.4896105174663092 16.695001347370273 0.8167489508384412 
5.547730049614799 5.517292513338747 4.699201356257113 3.4896223827064827 13.725237776397819 0.8978164952815102 
4.597901595008899 8.776896980549461 33.984345272905166 3.489676557451974 10.179680211250512 0.8216484780098682 
11.45740375949224 7.526294579047848 30.113865535409907 3.489704512131445 21.451287722015138 0.9043503256001545 
10.38950238857488 10.543305238089625 8.744897097871899 3.4897167792099038 2.8495897989346695 0.8677745538820592 
11.453543948634849 8.50121760749365 22.827696344728444 3.4897256189010126 0.5029570408429969 0.77945017717333 
11.354887408250207 8.960847331019345 37.22138751145064 3.4897703528402517 0.9734211653898299 0.8119025872708014 
7.224461041835692 4.597427961692569 22.79307087066416 3.4898362642826326 15.663397459251328 0.8629632334533085 
10.793621811834253 5.908424767838419 3.5997283975628207 3.4898438044342126 19.684529860413484 0.890271614972527 
6.860823105393205 11.298734480992769 11.224397884272648 3.4898958685463106 6.642358925059945 0.8687871567380727 
5.179430366879286 10.055390711853324 37.651954121913064 3.4900206351332126 8.766421766345161 0.807535177226874 
11.3454295608235 7.0057518376674555 38.66702010628747 3.4900470419083693 20.920399468297056 0.8599627251932235 
5.890716431901927 10.780589122618348 10.432321017425693 3.4900935574096015 7.747178689985482 0.8729812497626471 
10.115745551839769 10.77570373592206 15.326015700394429 3.490116111211982 3.209193505709898 0.7562509047267295 
11.45447086766162 7.502392522708794 0.9538610731595156 3.4901263840982835 21.429801846744184 0.9028556574073492 
10.32927609597517 10.599305332060037 36.90443104973647 3.490260067753844 2.9322787196952405 0.7624334451274503 
7.766018789562322 4.517453631576753 37.188327786905745 3.4903977445351155 16.21395505926374 0.9252957955669336 
10.40905200323813 5.474230600826376 29.432462791319374 3.4904215522064854 19.107055381513696 0.8655432968983 
4.521332265429988 8.286255735881918 30.851048333921078 3.490425698086662 10.678918131208114 0.8651944547540166 
11.4876673959571 8.140166520551462 16.384559346276163 3.49048284887717 0.14020421921438597 0.8306449974438972 
9.8742504868605 10.944621853803877 29.469737699616523 3.490503222945972 3.5043618339216387 0.8388378479829697 
11.3742894785569 8.893260323285315 2.60594914103946 3.4905219509774734 0.9033093291182723 0.7653317349773452 
5.805310017787514 10.714349515118426 21.16893668060805 3.490609890584666 7.856418936431734 0.8770957265962344 
11.257546750580271 9.254095207441653 11.453722705684179 3.4906110670689503 1.2827741661799514 0.7536847686143463 
11.45345801631702 8.507935207985861 18.701855590597816 3.4906117581272107 0.5097450539916117 0.7751884696539507 
11.470541204544993 8.375966192722869 0.1917406288832666 3.490846148216098 0.3766968444535763 0.7344978248507267 
5.023092003105557 6.1765051844616945 38.13596457157562 3.491004807253803 12.885949954482324 0.8943827738751556 
8.540495467281236 11.448979091767326 35.325978013691916 3.4910732054197458 4.941086601388285 0.9154680786813941 
5.604513202142215 10.539536085116561 28.87230425176468 3.4910744085911554 8.123777601290982 0.8516461239410015 
9.12100346338391 11.306207036596268 32.891030950550864 3.4910820290788664 4.342558372659067 0.8945985839537691 
11.195583830235005 6.59430366229571 13.745561469297343 3.4910941279052703 20.488438829233875 0.8545307058107294 
7.14075528048431 4.616281708303065 9.793506419414854 3.4911102769147857 15.583304450693891 0.8827419369504762 
9.062478085408983 11.32551364923606 5.040929879079105 3.491117401811301 4.404231108173072 0.8710060967775374 
6.230376444781395 4.990614238799333 23.55502998552236 3.4911273518595487 14.595753686505205 0.8773279378240566 
8.332001511319259 4.524677160608391 0.4913364348796847 3.49114506165459 16.784137494594564 0.8255896250618038 
7.564284340734048 11.46385859334529 7.729407772497964 3.4911551799399487 5.9207485445039865 0.8323806563286682 
4.775954983823041 6.660700665230534 22.693317774143395 3.491158686517904 12.342335923368609 0.9229095771928484 
5.551917779741089 5.510915114713685 18.943470370713037 3.491224731137853 13.739001054975972 0.8807414696660835 
7.888004736052604 4.510513068519186 15.577992962404117 3.491283715787366 16.34027242903392 0.8794859101084557 
11.481948014239176 7.744782579862164 31.226695133626045 3.4912888602070677 21.680969596540972 0.8829160178693048 
4.7260945702211 6.787024458688885 16.31194287908057 3.4913846002631614 12.207314017383045 0.9011865404726045 
9.809296936743838 10.9860990449155 0.3092425164210937 3.4914671574219223 3.58240276240457 0.8342518602803223 
10.835786198012748 10.036905408235864 10.675265625532916 3.4915135690614334 2.1748403681229576 0.8506643307239499 
11.382605279372662 8.865291298141354 31.62121902241337 3.4915250975295824 0.8744028228857879 0.7751509021280277 
11.12045611771584 6.433577463204649 17.90974750754163 3.491550650695273 20.31367012499529 0.8412833231179216 
5.558928234458037 5.503525056306064 12.535936738759851 3.4915925462484614 13.750628650774836 0.8872903947267572 
8.830225685769996 4.608542632413521 20.099986914837835 3.491598167812106 17.292023702799323 0.801055159997174 
9.768982460362515 4.989662341825028 25.979453427360518 3.49162308408233 18.308910900791933 0.8218921166344316 
4.564693429329111 7.373840646630647 35.404934602087245 3.4919058936784806 11.599710424042495 0.840518851799533 
7.994561270392207 11.49191349465238 38.73331963740362 3.4919177301183817 5.490530275746664 0.8942786099485578 
9.893324006702628 5.065856059329288 31.450309506197414 3.491973146937295 18.45659370916988 0.8419431309027666 
4.772288140751783 6.667407713249144 33.484896777281584 3.4919802475156505 12.3376398136149 0.9222462613530374 
6.826815040681478 11.289122731629373 5.760946360708061 3.4920898173575488 6.681818024759416 0.8540687525764729 
11.329400173989061 9.053501765514776 27.355022926328488 3.4921012998624668 1.0701741970247944 0.7671063765343543 
5.13633488153015 9.998550403205197 5.339819121737989 3.4921027511934115 8.842974357133897 0.853719263501257 
4.5111259829983865 8.150461700617267 15.792444066800371 3.4921169267167462 10.820300589747426 0.8219877194750631 
11.485159278505868 8.221042155552748 21.689609891876586 3.4921619136413087 0.22119002194800075 0.80047732388656 
