430

9.348420883167485 5.159431866214758 33.33292403250926 2.9824350705791693 16.047997979849566 0.9034194487681546 
6.54445837317113 10.325321820808957 23.04117374373427 2.9825330160355317 5.657644773587688 0.9244901599365274 
7.246226825536178 10.471719046325573 0.7255970333267356 2.9825349812486066 4.9390353762206765 0.8628189416912468 
6.369666027626392 4.739951027051257 15.749085929764824 2.982536709275734 12.895566319837599 0.8937775591402634 
5.123570492815507 9.302262077638481 20.572340624086188 2.982543511687785 7.434714694680736 0.9583033920518836 
10.220376643909736 8.722781975947017 27.201181727541694 2.982556763153132 1.2599205334914814 0.8861831870534149 
10.418607352124251 8.114760751319682 36.63094804231983 2.982649771132522 0.6191988687038261 0.9419463287976118 
6.465269076184748 10.297450993559714 17.7729202247545 2.9826833801239796 5.741885502254949 0.8881859173863323 
9.12536115918549 4.999042465294377 17.016231465253604 2.9827147849215536 15.774656142568048 0.9364403012540813 
4.653294040271442 8.390648065903564 24.356874670065217 2.9827820568140466 8.466242100475643 0.9107035533024928 
6.077584277527505 10.121798878090347 25.03352403083546 2.9828000007866335 6.168101167544112 0.9422091584338118 
9.797016551461091 5.597147051303363 5.380063305126143 2.982806460709394 16.67795795657529 0.8457722278486278 
4.543430644440704 7.104101788044778 28.40381713457913 2.982957885800879 9.768308367409588 0.944407437224573 
6.904288803771893 4.577079713853182 37.96897400487222 2.9830076815992457 13.457348974017435 0.891030329906834 
6.902267305890179 10.422605667959859 39.67344688204679 2.98310379705415 5.287654972631795 0.908586612706659 
5.433822171047302 9.651736125408048 8.620379921237067 2.983129091112509 6.968329328518994 0.8795162837951174 
10.433848575041177 8.04012290300395 33.57128336694177 2.9831527301867324 0.5431183483570461 0.8775921630330719 
10.402053723244414 8.190906015548324 3.6972758518059976 2.983163913518268 0.6972366742396652 0.8818069634893541 
6.833999582712462 10.407927618404425 14.718450870321035 2.9832196683627585 5.357691052262389 0.9094427280054286 
5.844452900678485 5.018286823542152 5.46523443097562 2.9832426130431275 12.303153526697056 0.8472443203822264 
4.56867675248334 8.05419089432373 14.755837752745826 2.9832504971562392 8.814728930778294 0.9187313514330421 
6.0966601905987545 4.867389422053307 4.2680465087038115 2.9832869583342387 12.597359844028688 0.8826295553668624 
4.528394140071356 7.764754151312735 26.310855336159882 2.9833766351903326 9.107451226477398 0.9098526174668337 
4.573247276763805 6.921267272344082 14.565123329558787 2.9834230462726112 9.955125078634598 0.8843189322654769 
4.8817541536926115 8.93025981968443 5.306550548271595 2.9834299830077495 7.881089573949417 0.8744720418131132 
4.568448134579851 8.054072546675318 23.273065431588954 2.983453154756688 8.815486488680172 0.9180935155542569 
8.585006187376884 10.279298377584038 13.271653625617581 2.9835780362322297 3.576125786093616 0.8761362141354803 
8.895833100966811 4.863070126130422 38.51535455367528 2.9835799311331432 15.51232528636693 0.9340968696835105 
10.480167636084053 7.356371185332279 14.197713725828848 2.983626715185007 18.60299519299873 0.9231854771609334 
10.453694798457965 7.921862228336419 7.89200127167539 2.9836690000961217 0.42328061805477546 0.874423447648283 
9.197852818970375 5.046282459966358 21.113652057812587 2.9838622557273653 15.867262300056183 0.9587162089225676 
8.753891205599963 4.792374294050825 2.6044443455178055 2.9838699902974493 15.35523424100926 0.9046816604689406 
10.259554797966414 8.635061610074882 5.660937595669594 2.9838745854417623 1.1643890898982399 0.9639742242556648 
10.482583434373625 7.589290476301798 1.780505055463042 2.9839196926455904 0.08930380737039556 0.7998316439058972 
4.7018029009380005 8.53649484868064 25.598845203615845 2.9839954049127617 8.315940269803768 0.8594219896077382 
5.8386318662879955 9.978816165513551 19.62387431641808 2.9840699821091667 6.449349124093928 0.9064810154851476 
6.657067552577615 10.362645936360304 27.181899616672425 2.9841710520473934 5.5420893883283355 0.9552494115022286 
9.331372632897097 5.143858237608898 7.630523418165744 2.9841799082843328 16.03435518775123 0.9315986135373083 
6.896147186037009 10.422449071834283 28.308370109298068 2.984182768932905 5.295594871626946 0.8871309127749716 
7.451469784858427 10.483929773276685 18.09053864559489 2.984324391487751 4.736298146423611 0.8831018622196165 
8.90944885220566 4.869274292400146 31.30134293156668 2.9845039479971542 15.532065866271836 0.9477442384612029 
9.987882791369673 5.8513748135135035 16.859608365182503 2.984547836626343 17.005835228865948 0.8420390657086692 
10.322001267503007 8.47200531578785 9.813316253938666 2.9847086101843137 0.9900621938689262 0.8853886229985146 
6.562267044579544 4.666384519746234 18.79166497043471 2.984747859638292 13.111404949680743 0.9487886572565579 
6.692202889736974 10.373374431324246 31.366825643660036 2.9847641102668794 5.506454898598275 0.9413638256453635 
4.68505488472371 6.506981593715164 7.847570203791292 2.984962572167082 10.389848636629054 0.9219014701828991 
9.371291834507884 5.174240812371094 20.013454032131676 2.985111208771987 16.08952510656784 0.9253748666094166 
10.25272406371606 8.654921677895446 31.38593986275737 2.9851857317484134 1.1858663492696806 0.9562893140510849 
4.782803388271578 8.736486340209332 33.979266968569924 2.9853066670465678 8.103731838502064 0.9264583499155332 
10.483261635457874 7.6109417868305815 8.979188409549273 2.9853237790330125 0.11096733862338226 0.8131453607284809 
4.522749093074863 7.2805763001256505 6.977142165717986 2.985325731449267 9.598299135898564 0.9304838092094397 
9.066526087531054 10.041517962807937 15.347266976337217 2.985517968157413 3.040522846022384 0.8628819568830192 
10.410905438924715 8.164007717342617 16.06802121227038 2.985678603442106 0.669606972509122 0.8863166472195204 
9.075048391043305 4.963329777222903 17.030179692192178 2.985878974984101 15.729738952009214 0.9020355053365706 
4.563070530193057 6.961239741216648 14.578149082712834 2.985936591266598 9.922323699447503 0.9020608811605809 
10.202088901742762 8.770671329725289 23.153844610761325 2.98594877067696 1.3125331566640597 0.8811052617714868 
9.851267806542438 5.6594569864148205 5.362131266114311 2.9859770399217904 16.778289415937813 0.8965582264010917 
6.302115054659408 10.235190938525403 4.657590506973371 2.9860003034938076 5.922991048579338 0.9052186600300642 
10.150616225466605 6.125033449504585 28.84984003218439 2.986017312355721 17.332822821642957 0.9049219240397113 
7.975146197837974 10.447987667994557 24.477143443032602 2.986033355468064 4.213275707873205 0.9029370844702956 
4.551998152483105 7.97646071870976 34.75496599500542 2.986256805674363 8.903096699999502 0.9345914267868503 
9.675772309610108 9.545527580462515 9.477236061089286 2.9863302271682763 2.2533467397595395 0.9331237281738386 
5.823592953496281 9.971573070153948 19.65578504493682 2.986471835908977 6.471065368581957 0.9177455846884763 
10.445027514133091 7.995892401540489 7.894190280475428 2.98648561572068 0.49819986271409533 0.866308230172225 
9.517475293928218 5.297871052945899 14.79647605934715 2.9865663329422896 16.28889450895543 0.9084549285097198 
9.663625931039732 9.558764790459813 9.471778930137177 2.9866016861819036 2.2715158362699874 0.9514704640248167 
8.071409903165367 4.56847116079334 37.72030837825956 2.9866989490967777 14.649441671335143 0.8727518550981571 
4.52894382778106 7.194047286864837 15.583670467901953 2.9867677916361406 9.689698075483964 0.9309284173913904 
6.42480539677044 4.7134624517449595 28.83060476651889 2.98677668108099 12.974967798215843 0.9353907807915557 
9.480249318566631 9.735976890758643 12.518407502281278 2.9868009675387284 2.5267653421568745 0.9075317765488546 
10.389990616377194 8.254435088971789 10.908300540095297 2.9868408170205663 0.7626966889619773 0.8450789091381723 
6.618377249750351 4.646237609080304 18.79233621763263 2.986840882535503 13.180201864857054 0.8976241715521344 
4.527058938796511 7.211209540034316 15.653030271913394 2.986934629876743 9.672974184119415 0.9463099949532043 
4.5768900493259554 6.885789498562534 38.639042863768736 2.9869426381846846 10.002380641806308 0.9209737938023707 
9.575077312813686 5.351521285954721 25.089516901760533 2.9869560825127226 16.369743508650338 0.910197286505796 
8.067379782541272 4.56741328977623 30.48112878667522 2.9869691378749885 14.646608850813543 0.8795866011352226 
8.048078118101502 10.43642844270794 20.350088160364365 2.987139371151915 4.140986750750329 0.9118026198846202 
4.636488961071441 8.350782245147322 28.634093490757273 2.9872271253996803 8.521925403630544 0.9090785554412273 
5.5856721595582535 5.20667128269092 19.135158983996497 2.987307765585071 11.999485032717047 0.8787245515080692 
7.0467229746000015 10.452729234272612 6.755872468664471 2.9873181940803666 5.147503052113713 0.9226192065291445 
10.00545944781266 9.126955189311827 29.190413865084224 2.987358403784589 1.7205033394603078 0.8782158527833879 
9.382772629817831 9.819560436036276 4.402259863221275 2.98750621623051 2.6557903490516566 0.9180269365568732 
10.486085395299673 7.5963143194701175 13.084273512395264 2.987638270634012 0.09633100993706023 0.8286793884459405 
10.475682717311374 7.767264824140932 4.868559583447315 2.98766097814473 0.2676225745306482 0.8320099695900779 
6.8941648620975595 10.425608298452515 15.788106316035936 2.98767804997317 5.303099480788756 0.8501195782567907 
9.614541612973797 5.389071159071342 18.976630523043895 2.9878599037542313 16.429172382205387 0.9157418055943524 
9.739783831056515 9.47756404534629 23.9855924541029 2.9878740206555867 2.1611341651006732 0.9259678969813893 
6.702213164529839 10.379436265415118 5.738892687272212 2.9879118195551304 5.500984663837389 0.9394359790926378 
10.367617775062401 6.660604134824224 5.085554611115185 2.98794530109372 17.922965685400747 0.826525602705406 
7.162417060233565 10.468883563499837 36.64719301008176 2.9880147012424225 5.031867779458011 0.8865733308636177 
9.669856251708376 5.445736380147698 24.08013722907974 2.988021949873628 16.50925519220653 0.9784348541740998 
9.475118824914036 9.74245455464372 17.670622247818052 2.988259828423917 2.536134993561415 0.8938460418341743 
5.004763457698013 5.855745068705003 38.385138364541156 2.9882736958195575 11.129045926337394 0.8872006189155203 
9.36136703843876 9.837771785031352 4.427142233253015 2.9882878326350943 2.6845824024217286 0.9136752609311687 
7.544516306206402 4.512021182827263 19.666579197657114 2.988310411150629 14.126599004319228 0.9211390298830349 
6.309053277093886 10.240739652974407 26.160660287841218 2.988311888372276 5.91899485899507 0.9144110116307764 
10.180914246649978 6.179874998974801 3.20519541868849 2.9883157825475215 17.40880206588354 0.9512301544464825 
9.80274429826495 5.595417110830537 38.18535602770681 2.9883218174936963 16.711118085654974 0.8873457913601718 
4.866302168334622 8.912083839869233 38.06057843625336 2.9883682904452624 7.917493810349953 0.8999200622889232 
4.6289338416986325 6.670878802494755 17.58290961358054 2.9883880011631523 10.228442517220017 0.9263431674357052 
4.603297220359588 6.765209524101094 1.6861395070421423 2.9884450868383436 10.130880283216339 0.9569085620020715 
10.142280079360647 8.896125110913042 22.086990650576617 2.988445974600856 1.4526601487737665 0.9316269134780055 
10.17167823417334 6.160865531670458 19.93983357104841 2.9885022521697775 17.388754065360846 0.9632760065839273 
6.727652468235343 10.387002789335552 31.368637533243124 2.988529038750371 5.475584631981025 0.9583989772660491 
7.663006363381632 4.515919061751241 2.9197051585233353 2.988529759015709 14.246202001004637 0.8847957910133193 
9.617620494593645 9.60894444292616 18.739184830462733 2.988639025120324 2.341136702110962 0.9598163438292805 
9.075384087418412 4.960261848641922 8.731362921453723 2.9886627277688764 15.743070744702845 0.8875218610665093 
6.956191957659076 4.561199912947911 30.74068394616134 2.988690873705749 13.537019582074691 0.9344078993326511 
6.226836071857342 10.203958740700472 21.992918101333295 2.988701935512155 6.009845315776978 0.943136668719051 
8.803362411986264 4.810424392768045 9.910172339433906 2.988740625078694 15.432777885763665 0.9414364754174623 
9.613294509419456 9.613440556151108 18.740112530612627 2.9887530289280777 2.3474644104030062 0.9543781756681482 
9.993568271234535 9.147661520480632 0.4636992997605418 2.9887574691466914 1.7451515826992505 0.9362064790568901 
10.333803441116201 6.5499568757989035 38.02472681655637 2.9888164682234666 17.812471647947703 0.939080821342521 
4.511584972279875 7.446248666940944 36.717439943868804 2.9888983896594943 9.44365545406609 0.9436157835380286 
4.607126169918862 6.748109099604928 34.52703171982576 2.988989615717194 10.150243255497195 0.9525719833988918 
4.522365698308796 7.239685637997837 19.79309819494901 2.98899140207406 9.650837994867647 0.8925158223633146 
10.048758997616916 9.061428673606791 16.900369178549653 2.9890185564319665 1.6429126620363022 0.9056677602943078 
4.517557448651896 7.699497814312444 22.099462825857664 2.9891073834854494 9.19091157620987 0.9577667748625531 
10.07891954877775 9.011325869506647 26.15814874866635 2.989135648127741 1.5844947233780964 0.9269585963803771 
10.327736084867494 8.468976065874061 35.49957716583598 2.989148036129783 0.9868030756643904 0.9385126581021193 
10.115949729314565 6.0536662453277525 0.1804565209195843 2.9891594665064747 17.271738869150045 0.9299432903039868 
5.364146359732224 9.59126257658558 13.115505454368957 2.9891888426247806 7.074641509386254 0.8937048955234892 
5.676653106010109 5.131169953448579 35.09571573129641 2.9893058868686215 12.125770006116795 0.966768421133156 
4.678581111110738 6.51201511932495 7.890730252620706 2.989401055566751 10.398397312569287 0.9398573064066511 
6.634220207697513 10.361369814428954 18.84838104229234 2.9894835446418724 5.574233144841166 0.9601103114359938 
4.732456412984503 8.630695575968529 21.302982882315135 2.9896103410888544 8.232587284496418 0.910371469399581 
10.386103465526109 6.7200401587320435 5.131397461786477 2.989637196669951 17.995354504050667 0.8612224542152775 
5.59797558436153 5.193413768826902 6.547271225633864 2.989654983358812 12.026854409410092 0.9386575236516 
4.627641530486853 8.329296951474278 7.274282109653321 2.989678345760367 8.552033732770859 0.9388687426193069 
4.622094656975605 6.6899217555024215 13.353006968377883 2.989743454816255 10.212888857532974 0.9397450507726213 
9.330859149440203 5.136399698683075 11.76227818178019 2.989757784415715 16.059343103562345 0.8848400897134594 
5.777000738882123 5.056602005066614 31.015828411817218 2.9898027051056792 12.252823908695994 0.9599436590459488 
8.032854326972673 4.558021522534192 13.230840410454945 2.989844660788505 14.625027288145816 0.9091782115399635 
4.770656090806478 8.720596728672872 1.0713666337470755 2.9898452382520895 8.135545971157224 0.9427437427220243 
6.143740492286268 10.164532826299725 33.35862663169873 2.989845319526198 6.104132939721609 0.8876961457050804 
4.518428091390115 7.277541107531999 6.9968062419975325 2.9898593620853933 9.615584869011677 0.962281299833707 
10.449185856132509 7.008352591443073 20.43853175354638 2.9898853470246616 18.292113223549464 0.898554137964467 
4.711045952895073 8.577814700978095 25.61106494801598 2.9899747835905672 8.290644848783117 0.8753635389492818 
8.241091032485208 4.603317979693237 29.315976864004895 2.9899803753868457 14.838847372905509 0.892253949889789 
10.414329651656232 6.831439511710176 16.430400066113073 2.9900318468245586 18.11266366479787 0.8569646750745743 
4.838151196333527 6.138054433203035 6.813195485522023 2.990039260695171 10.807556501043102 0.9128291195261717 
8.562125322889692 4.704963826952593 10.963271907428428 2.9900397004332597 15.176064934179731 0.9444558300847602 
7.434271950286613 4.51066010873736 39.80020837036696 2.9900624010233066 14.024603764909706 0.8826393730615985 
9.06903317079422 10.045323461285083 10.288350618935652 2.9900730114197613 3.045024352541489 0.9125878827481296 
4.819024635449406 6.176008033713305 32.323891622816646 2.9900808738425284 10.765205677990249 0.9301076039768692 
10.406002778668544 6.795772649052619 1.0170112627416898 2.9901151000340533 18.076541368952327 0.8727118146917598 
9.802668264129194 5.592470386143196 38.17315380355504 2.990142197683654 16.718978758724568 0.927861914340557 
9.762974164953333 5.545492652526155 23.010112140399897 2.990175754462517 16.65766269886597 0.8769640253926149 
6.378495002969798 10.271921766738549 26.122321472121143 2.9902046316736692 5.846619762549242 0.9646169606219892 
6.199371491915947 4.807398067898516 25.73122809036763 2.9902741815421523 12.745753585938004 0.9682368339989418 
5.050251920942943 5.785170481631562 5.611564907951845 2.990301979384604 11.220570593804403 0.9017535569075875 
10.3821892650422 8.296821012632558 6.790909595647705 2.990307456716999 0.8065654314176278 0.9482321040870084 
9.156371894219262 5.010298356878556 37.34934032543403 2.990348160954027 15.84716295705141 0.9507912202288751 
5.093202965998477 5.725297199115383 1.4602036025084075 2.990358171581831 11.294469814879726 0.9115385708642831 
10.463658192642198 7.1001968750241655 15.31590470410329 2.9905037069958027 18.388885181899234 0.8600731305593847 
5.769864895261351 9.939234703417847 9.561390740092527 2.99052393720682 6.542467403868692 0.9177534239140639 
5.242859947868521 5.5381052988149815 4.614089178938805 2.990603957978046 11.535134352941512 0.8983972863313046 
7.663826534902293 10.486149141863615 1.8204002184421313 2.990639702637365 4.533777278201551 0.9357286903535278 
4.6443454629400485 8.388486542001282 28.63820930269471 2.990680720228839 8.49339636691711 0.9342750280961779 
8.271756869962674 10.389391323917325 25.559162904334826 2.9906840169204303 3.917165834971115 0.8971626248103242 
7.212495296279371 10.476885895853702 29.414618902541292 2.9907371318111826 4.98578827637585 0.9155347404304711 
9.860753174327378 9.33615572388651 32.21614470409406 2.9907563244868305 1.9770303778932075 0.9421834836317278 
4.646929085135904 6.602995037608048 30.42108133183755 2.990757687911081 10.306771201486981 0.9614489983737725 
6.647545495995306 10.3667196694088 38.57613544742049 2.990779220265716 5.562345426273733 0.9486974902990453 
6.071058998290717 4.872639985673301 29.8670171811875 2.9908014028431777 12.604028660050538 0.8831619775281837 
7.192907108116486 4.524965379486057 16.68091331643909 2.9908421953526605 13.786376736522293 0.9389893501696758 
8.519807617576108 4.688392312279072 32.34076534298648 2.9908435877721335 15.134698953292641 0.9294353671522146 
9.832717282465843 5.628135342281562 31.102834479543084 2.990894049733324 16.769819084762375 0.8989876787564499 
8.67633475975569 4.750056326340664 35.460203017147165 2.9909787152884384 15.30364421811431 0.9331735278353236 
9.785523522962126 5.57063249982882 17.854738429606236 2.990999285310849 16.696016282054025 0.8719278406392975 
7.037761209242241 4.544911850243629 12.468507568392326 2.991021677038085 13.630758777756569 0.9595492824271982 
10.104141700290548 8.971283470133566 11.666581764682526 2.991024748256091 1.538194502431466 0.895025723026338 
4.515516252903083 7.6978796002726195 22.09548809825847 2.9910365382070645 9.198594182525373 0.9690580960478101 
6.670504644837777 4.626283176067446 18.815506549480226 2.9910384364612757 13.254422659698584 0.9149141584919237 
4.833497154089796 6.144960547308845 39.48568471333319 2.991048201817676 10.802935348655843 0.9057547201562264 
9.491124554977795 5.267992925018701 10.678767323889545 2.991058771773315 16.273782604051064 0.9085089494995844 
6.912022685945338 4.567278741064047 17.65688401586631 2.991081962176531 13.503310146289152 0.9608248810109611 
6.814556231020644 4.588512162023013 13.487722588913911 2.9910858548561485 13.403570497877212 0.9137360583339817 
10.46578269361266 7.888297538503409 26.42520187706456 2.991093773879407 0.38939653652792217 0.9357039947822785 
5.451457028320805 5.320403120102718 3.4532179523574627 2.9911821853030265 11.839028911316213 0.9725895274625519 
7.108699470935861 4.534519396701121 12.456035305356558 2.991185603166036 13.703204787238537 0.9298944561530332 
10.343032887921371 6.5702528483517995 17.471176438897132 2.9911980489095775 17.8488424375934 0.9166722565792276 
4.809540140060502 6.1925463585718425 15.247118050932556 2.9913223300790257 10.750646844618522 0.940365951533381 
10.199839348699197 6.212000956076816 10.425400801164045 2.9913331552890536 17.463562725215514 0.9395822046171435 
9.82161278571823 5.6136762895690655 26.89466766701384 2.9913380062012838 16.754081227096858 0.9242579253386433 
10.35818068232589 8.382589511136919 28.37777261242308 2.9913476992803414 0.895924128715933 0.9681009769296531 
10.095468047597226 8.987220976017044 4.582188024734116 2.9913676834523812 1.5565135615613777 0.9145816618328584 
4.661830188807359 6.554827676378485 4.793587171941944 2.9914141469387623 10.359454966293349 0.9297133688421831 
4.973988587600255 5.897492195974456 14.284451027981817 2.9914486319401377 11.089074884504672 0.9054867685404029 
10.480284196170363 7.758261982464761 37.68192352040359 2.991453349382109 0.2585838864858303 0.8115965606927258 
7.318834480904865 10.48600317274128 0.742847339904273 2.991493923264752 4.8803041071761655 0.9399635545050995 
5.308207110295957 5.464047778481962 0.4092269900262764 2.9914975379668007 11.63736243095218 0.9405614511882212 
8.023867525703292 4.55471377790181 17.358398053038847 2.991512679994509 14.62375406404492 0.9112611797362735 
5.018180513161042 5.829753168269249 5.600637747541668 2.991513403640405 11.170197855013637 0.8711247318605054 
8.919948264313817 10.133043519111068 27.79904890591618 2.9915165463123596 3.2195314806762667 0.8617906003371733 
7.400623557857596 4.510055496584966 25.222151623704256 2.99159552927107 13.998167078168663 0.8734265626631087 
10.445335477503669 8.024109432730073 0.7019509797001007 2.9916035453446046 0.5268282142262883 0.8466717456683226 
9.731229852898938 9.492971334856717 23.981394855828285 2.991708775604337 2.1811191915001533 0.943264653740241 
4.531106825608719 7.130559668267145 28.43386032892539 2.9917909084122205 9.769374071995227 0.9403756492762116 
9.698719253753403 9.528908236330613 2.416655160116587 2.991794609975108 2.229643210856974 0.9466839747564686 
7.03327287168387 10.45520759966437 6.772471138478409 2.9918365880208557 5.168207138015703 0.9394152293474626 
7.6403694536753335 10.488563144286944 34.69151407224154 2.991857825986283 4.559178281273429 0.9265378622104394 
5.573965892101246 5.210532339718926 10.796553128519363 2.9918672350661306 12.006338546104512 0.9263274598911424 
10.45886802773559 7.943260945872845 22.368138912459848 2.991885738408467 0.4448987506272424 0.8218897037411521 
7.487504255940635 10.491866774336033 37.7211012304266 2.991892868903481 4.71215010902521 0.870846459171304 
4.718883240286329 6.39680430188398 0.7033263961590137 2.9919310118219564 10.52928796164315 0.9219752905484521 
9.955883258995641 5.791042410050611 12.636719843640776 2.991972363853091 16.980165562133582 0.8738666753299582 
5.515347107431884 9.739051514504242 22.675229905662256 2.9920225247452144 6.869791447678416 0.9323333999721581 
5.564538930651459 5.218229499397255 15.029395437956829 2.9920705486977925 11.994985514416623 0.9281986913799362 
9.348171229781542 5.14688451857325 15.958900899503654 2.992137925217095 16.092235071422063 0.9173878127346988 
7.833412097920267 10.473517899273416 38.80306877941934 2.992151788318733 4.365955093935263 0.9368343066057964 
6.683397059772041 4.621430840811589 27.67507417245445 2.99215654106192 13.273109853323692 0.9103377401250609 
5.576144326288274 5.20831976906711 27.74872318610703 2.9921595769813862 12.010603073174568 0.908417761907179 
7.043579566097462 10.457185162815355 25.29474100470396 2.992200477852221 5.158346702992745 0.8898927607267674 
10.335610137410072 8.455365445657925 24.18109753685401 2.992224588185175 0.9723905195893039 0.9209833794625882 
4.750793706755616 8.681233607029405 11.820709927947824 2.9922312873824155 8.186082374457431 0.9118526610784812 
10.324681054518905 8.487386576949005 2.634402561136369 2.992282625705183 1.0062446980678352 0.9121283536100463 
4.619097205237052 6.691127080780152 13.316011238544363 2.9923028443525244 10.219659263842658 0.9189440723499733 
10.374233642721912 6.667530989389482 5.093509692242513 2.9923608884259445 17.95795874824751 0.9147559981829683 
5.812666849922696 5.028728284236857 38.13921353445941 2.992369805435269 12.308557444546135 0.9302584702943896 
4.664828111539414 8.457144459161427 32.818128397549344 2.9923778425894993 8.426566099495837 0.9413782480326084 
6.278191382200781 10.231592841928126 21.973444819581374 2.9923929809771708 5.959029356253776 0.9449935677312206 
8.146021285556756 10.421829756356168 28.60238431910389 2.992395800444981 4.049296544092904 0.9249389245715566 
6.394590809238785 10.280778493439506 12.478588274740908 2.9924335428869644 5.832735120642138 0.9356318629986484 
6.455392662687943 10.304187153205142 1.6060812333324535 2.992435476224498 5.767585215549744 0.8920523319616441 
4.637968798338244 8.374134732643412 24.40115668817073 2.9925464290632156 8.514293216801263 0.9104280951242087 
7.07732483816892 4.53742982878131 8.205246975399554 2.9925701849453215 13.678061496751226 0.956499294598759 
9.488755411641584 9.736237255182495 8.421351813856589 2.9926418343663888 2.5255113736259496 0.8836967622549777 
9.893226267990968 9.2968558188207 20.9158827775831 2.992694906506808 1.9273513849482704 0.9319973284787064 
6.338980555720404 10.258383721383986 37.46660161390687 2.9927657616979437 5.893336275232038 0.9233603097877351 
9.782641205421145 5.564470081471736 23.041480111268477 2.9927791328804294 16.69938336621813 0.8395167741750551 
8.592812546070778 4.713848737573006 25.069634532368937 2.9928043901954613 15.22193980837925 0.939405145345836 
9.035700050032808 4.931223906199218 1.603739194560788 2.9928222907070823 15.715949839713002 0.8824874201549462 
4.566462231900816 6.906797871379078 5.880788156452098 2.9929137311764804 9.999672131788692 0.9170836811301801 
9.103834776380928 10.026942631072853 28.913493223339735 2.992945881679495 3.00867845574615 0.8812086672781253 
6.781806152239335 4.594500024681366 24.229888735267537 2.992947127755158 13.378659764344526 0.9172945986345926 
9.741878723503085 5.517139331285197 9.585455097536205 2.992951159379643 16.63787633479576 0.9154129171435834 
9.994093700498098 5.84542493448037 29.949555552769077 2.993012200827722 17.052535918524754 0.8801515346633196 
10.491530721612596 7.594457016359446 13.098368439524663 2.99302158132739 0.09447270287341425 0.9050452757797028 
8.47742182408392 4.671046424143416 39.5646628391898 2.993047235936529 15.10008815887375 0.9308881086990328 
7.090579817260686 4.535022624769514 33.778267407367906 2.9931113780918603 13.693997256664424 0.940674852872144 
6.33937489088599 10.258932968451388 37.473084790010766 2.9931190701864616 5.893455479848431 0.922876416258952 
5.766194848720531 5.060141378109581 18.04671883324736 2.993157262393049 12.255700787753899 0.963195420428536 
10.293245886780504 6.4244386123180295 27.817398755191725 2.993168034489305 17.70646277503377 0.9200947972834925 
6.557123513526761 4.659217695289348 31.89479786921261 2.9931689179699283 13.145765534884838 0.9064220500519837 
4.983107641975714 5.880015851305133 38.3997673956844 2.9931748669103326 11.115116305255974 0.8968504779036004 
6.793966708796404 4.591266138304203 24.22842734629144 2.9931948961708983 13.392348604321572 0.9079187307379525 
9.051120203850866 4.939948539848423 12.959424478403513 2.993298743095746 15.736164054971226 0.8839146974218571 
5.824768915216229 5.019384161137408 9.59945951331975 2.9933015430193084 12.327653574890357 0.9311516872935471 
5.271642845704804 9.498574724300328 37.23821074147622 2.9933052860860534 7.215370033651027 0.9493325530823934 
8.698059744364825 4.756896705822896 24.06312485118606 2.993319701200119 15.338286832878264 0.9177696823988076 
8.68745404885138 10.2477160767541 5.181289113863826 2.9933243654148964 3.480866357276863 0.9239456977403111 
4.655942369644579 6.566464314986739 25.88111330159346 2.993351412710521 10.353262957710392 0.9212903256420595 
6.78159093367718 10.405914558566124 14.769445688527632 2.9934012441136875 5.427514468903407 0.8996373932104705 
9.533898446535412 5.303680890477171 6.574736448329169 2.9934195365291343 16.34230649614341 0.9326170440678613 
4.507111604384146 7.442325536264228 25.325762477833194 2.993444051987485 9.46185987525335 0.9441960799999225 
10.23884373727774 8.708093549360706 27.229482237386037 2.993452027548203 1.2435544994049224 0.8703974103446711 
10.03686437855963 9.089219232471606 33.250936143328566 2.9935428248251905 1.6753107552234887 0.8873168269412238 
6.020428020085225 10.102368776128477 29.150752459233786 2.993569189231707 6.249879036681428 0.9588599188891345 
4.706583387731246 8.576269448851775 4.206974274549751 2.9935818505981673 8.303696587147886 0.8498773368716491 
4.5781852784347965 8.151571404539782 38.84748381444467 2.9935842333846385 8.7477933579123 0.9324297802693848 
4.571640453441752 6.878207297271668 27.238576290518296 2.9936459040917014 10.031168567402062 0.903755462033577 
8.808613815924502 10.19249689916673 14.357214214212817 2.9936615826193433 3.34809073173329 0.890796281500261 
5.816894283055417 5.024273079469557 9.578566789336662 2.993671431445124 12.319914898132996 0.9316440669968189 
10.488985766723466 7.667831521992618 23.3848276489138 2.9936939278172434 0.16791955985702245 0.8923637440978697 
10.418067652505512 6.8311417440566 33.84723961415236 2.993741837758004 18.13568318702471 0.9117289155822917 
4.545439905077577 7.982769309692433 34.73289279144828 2.993742066526256 8.92023153005405 0.9470078790793028 
9.882932487515548 5.687776892616428 22.004697952970133 2.993746788055398 16.863767311973305 0.9502410182373714 
10.492056071269996 7.600613707250773 34.67473850347166 2.9937472591570584 0.10063265731865556 0.8532355715296042 
7.842793396123193 10.474060819587134 14.050775507139456 2.9937510035119783 4.359026172581476 0.9469023882475388 
10.038380104653333 9.087229427015874 7.595696060493843 2.9937720036243602 1.6729480889089245 0.9116776546812246 
7.940158836289237 10.461245407757207 2.870192867165244 2.9937792447217424 4.260857217899744 0.9366368643866376 
8.560201727514714 10.299773769672637 22.56374316883987 2.9937870439248178 3.6189150808870245 0.9108523814395304 
7.16908661535391 10.47546878046442 25.260620779702847 2.993813309419336 5.03426188345065 0.9131730678057429 
8.90278150360531 10.144840648138933 19.548390361216995 2.993823308230651 3.2427235060349275 0.8666387946861377 
4.544938169271479 7.019758161001901 35.62372904550082 2.9938307646480076 9.887722354100493 0.9039952440232115 
5.1405218518017755 5.6571468995052605 26.88335971608644 2.993867846420079 11.390669843924922 0.9118029119575155 
6.129532303660717 10.161851184417586 33.349269396132925 2.9939327705703063 6.126356725023669 0.922298957822254 
6.5885475340955715 4.648154614041369 6.261564770578175 2.9939551938893123 13.182528637638846 0.9399767333772356 
4.51608772574674 7.2549563953342595 6.983912791409168 2.993957051900854 9.651111494219201 0.902507224726048 
5.921827543750069 10.044271801706365 6.531463781209752 2.993985187442334 6.365205199530493 0.9429483965644623 
8.001422267397258 10.451709400134751 15.076515056840037 2.993996104387192 4.199161729594472 0.9487312060523441 
4.527073222173954 7.145318627849447 23.933576275134072 2.994009435867858 9.761474282378593 0.9639969242069667 
8.025081266016226 10.447642486551027 20.335784229951017 2.994045184101592 4.17522435506072 0.9446557983433723 
8.969319554909207 4.891272979470212 27.20826436785883 2.994053543622895 15.644931642424215 0.9095965604590215 
8.271398700468454 4.607013488903114 12.12712985695736 2.9940652812644153 14.889398615599092 0.8914810223695072 
10.476026408330329 7.171476077275855 39.89769708120899 2.994104398794666 18.483326048837824 0.9538711281228689 
8.844957950194726 4.8249348449382605 14.022353592053605 2.9941418589668523 15.504429276483215 0.8967345573098785 
6.6141191596452575 4.639904737690168 31.897889984341887 2.9941492569333894 13.210252838076041 0.9265891902707223 
7.409348158118863 4.507201741819371 15.512187803680568 2.994170865299014 14.019032094201549 0.8945868266943068 
4.711208578034036 6.410181200679428 7.873926926143298 2.9941714397448047 10.52190829319791 0.9192587037256325 
10.022362676016476 9.11337039349055 15.802649537623111 2.9942073234752566 1.7038485430194719 0.9137462588116808 
6.557820096990168 4.657883847413032 14.609962708815672 2.9942156225681815 13.151443874311962 0.894244429345597 
8.949407166235359 10.12004386390446 6.210490430533966 2.9942296141608455 3.190351484732652 0.9401283547509898 
4.62720649482376 8.34412911976601 35.83315859905434 2.994243893576428 8.550964063080865 0.9325117653859656 
4.550109310272735 6.986537413130611 31.490048088995046 2.9942442968893177 9.922708890602351 0.9009907499730789 
6.354554963810093 10.266498568704684 30.306648725414632 2.994254274702996 5.878764576887637 0.943889204768159 
10.105632769217713 8.97521481292203 11.687877618825759 2.9942579835888776 1.5425466344328065 0.8924386088259477 
9.334382610858746 9.866699461014047 11.419880205145269 2.9943656927277797 2.7291725850796063 0.9731870702542956 
10.425169012724446 6.859990029916165 16.4384711792207 2.9943657950908436 18.169169175440427 0.8982845256341918 
4.515216339963478 7.2598815105136545 39.77354204312252 2.9944265538186463 9.647645034785484 0.9358742784451207 
10.346839495685309 6.571435231305541 17.47065110640723 2.9944494725832946 17.870551092393413 0.875661334529056 
10.44519764249236 8.041017902215843 20.228673630282643 2.99447650247261 0.5440053459582082 0.8338409751528985 
9.421437076852794 9.796746676706876 16.56218638366078 2.994489228110309 2.6175989347500597 0.926686372547731 
7.1663038075644 4.524126666368145 29.597719079669304 2.9945242103992395 13.77697217785948 0.9343325545769897 
7.511292288924896 10.494511270888681 4.861065792347759 2.9945325623990993 4.692508433796036 0.9197859332297934 
5.777054821684496 9.949223080839095 28.157389739481808 2.9945339849792276 6.539597123765734 0.922290271201734 
10.393247620140436 8.272252125218696 10.914597257365372 2.994537549664901 0.7810787826610035 0.8756009912030711 
9.403531454142357 9.811679792790212 29.977532201869458 2.994544282742187 2.6409626984542953 0.9213979974525036 
8.093691635416558 4.564880304800546 26.201431284944803 2.994561300610046 14.709188997932976 0.8880531311977948 
7.236303264670536 10.482956805830542 17.012907045118865 2.994589666995159 4.96792917036375 0.8880244792035452 
9.592349241850204 5.357648043413583 39.3529892350899 2.994594673033525 16.428286014021342 0.9057174718768131 
7.553477938060485 4.505820894800403 35.73055452900711 2.994656642066509 14.165467740935608 0.894719598696042 
6.584255953328794 10.351219937105489 18.83025771419618 2.994668978161291 5.634666945174057 0.8988224071381379 
4.540892098946127 7.960261066994805 34.74961809895712 2.99468860148608 8.945999107376231 0.970891709592833 
7.668236666928003 10.489964200623154 1.8519692630138138 2.9946935564606734 4.535728353130253 0.949697725338547 
8.303377090059634 4.615063937372041 0.7692550210194966 2.994707136646921 14.92556415659024 0.9099469378104176 
9.941136405068768 5.7653158442582555 34.13434190202599 2.9947080105301622 16.966150429323914 0.9093981320528894 
7.376040053685449 4.507845241819592 7.0214021075657485 2.994721383566753 13.98829667550024 0.8946949955107578 
5.535233343872152 5.23985737134608 39.21974603232964 2.9947541994111053 11.969404284544783 0.9552293856670059 
6.795543840042491 4.589272197612605 34.93470347989252 2.9947612293625383 13.40135975297187 0.9170733760505236 
4.70753720736262 8.582082526300065 37.06236143509331 2.9947873116446995 8.301273021567571 0.8346814864607176 
4.553658879780226 6.963283994610153 18.78186448799339 2.994827218244746 9.948158549697133 0.926932541871216 
4.5181813896066405 7.779202387761925 4.929692919820859 2.9948616326334916 9.129026887201135 0.957858443694934 
10.370602052480255 8.353778962942433 39.630217686551305 2.99487807118535 0.8657880582510202 0.9531660888216353 
5.251339948146876 5.521849080787762 21.472429659537077 2.9949212156549825 11.569618989597029 0.9367727258130412 
10.379183503991026 6.675387361978162 38.0116446438322 2.994943013220685 17.982378057714044 0.8946646772383156 
7.911146584069874 10.46660200702114 15.09475491870564 2.9949572587357904 4.292018810301389 0.9459233093564164 
5.889574354476199 10.025139024861938 32.17622700030989 2.994962078998907 6.40477678776697 0.9365881404136265 
10.494691448231428 7.540319589260358 27.505407349440674 2.9949628611033847 0.04032080726680398 0.9766576689845251 
6.274980509278613 4.7669828402872945 7.362343818685282 2.9950050998172597 12.851591451956804 0.9362048544099684 
10.483174498122622 7.766053616159903 4.872831353855744 2.9950149603834872 0.26640477610207824 0.8101365087076864 
9.377595897050865 5.166597946812331 20.01634236467443 2.9950177786521825 16.143041271662263 0.936590369224589 
5.797745982622999 5.035755249051682 13.870735547290742 2.995024362547402 12.303191523732604 0.9231010212663645 
8.820715220300949 10.188164379631713 2.0887884971030957 2.9950820397871096 3.336901462566118 0.9052072326562653 
6.550161822940851 4.659515589382943 31.838560748520955 2.9950866848152473 13.147487112230671 0.8897845461604527 
9.362951654802798 9.845206659722006 37.11306503563507 2.995093178005806 2.694087534938845 0.9382644494416729 
6.934872923324727 4.558695515798222 37.989483078055514 2.9951027831406756 13.545554153598953 0.9470713372920426 
10.113859186905598 8.962382781508895 37.46021515031524 2.9951332605786454 1.5277779219298715 0.9088401738555845 
4.74901235617158 8.684438767764073 17.10755124677332 2.995134088998205 8.191782173033317 0.902669535804371 
10.494945852470492 7.533796352239365 27.498606264459312 2.995136533224304 0.03379706945520056 0.9806238602660928 
8.417131814426392 4.648722439434682 3.8329634704330715 2.9951484925486347 15.04640935460569 0.8993925876299644 
9.89674853162346 9.296270330277043 20.91780895802391 2.995161201550395 1.926356699439392 0.9283947521650316 
6.1426302388883816 10.169953285902638 0.4762434244244602 2.9951799974763618 6.113554945532336 0.8946713196008539 
6.852311786964165 4.575632651787835 13.547443109548354 2.995233615028217 13.461860799147583 0.951054311912718 
8.915002706378374 4.859998273280013 22.068436689667223 2.9953032861703055 15.588783038445527 0.9044064573432776 
10.49521769930082 7.5253059073198205 18.304479782878317 2.995324599296405 0.025306208371226546 0.9843789273190204 
8.55449139597443 10.303584393572434 22.566254914441295 2.9953359671440896 3.6274771811216446 0.9270215506741544 
4.764950833287378 6.278709725316228 24.886091854919933 2.995337022669166 10.668072090329801 0.9544276451615937 
4.548523024055147 8.010761602090954 6.255523299126622 2.9953453479862877 8.896885183260611 0.9695286583423296 
4.520971947770743 7.812282336137281 37.77297557274824 2.9953511302403597 9.097322272344611 0.9658710761528495 
8.84173393606818 4.8219434434909125 9.88700575337026 2.995369238517734 15.506560791468901 0.8949832295950787 
5.021226589546046 9.181646207280027 39.113585352766194 2.995371694269816 7.6247129655835835 0.9089153848912542 
5.201482234356101 5.579304715603726 37.329905946786155 2.9953721462420506 11.49528258525632 0.9310789175893792 
7.8746825195983945 4.528104251158075 27.47307667223057 2.9954217286514617 14.491258873580328 0.8912946081998095 
10.4919271902261 7.355152802763941 2.9139556841710146 2.995431358279037 18.67594659276137 0.9592433427508125 
6.0037405940146265 10.094964122877188 3.527638089292026 2.995435028342207 6.271941047604484 0.959807464359164 
10.484958133233567 7.750369322999896 30.51002582764474 2.995439843337978 0.2506617650138878 0.8269099900884388 
8.353816119302493 10.371202344503603 17.328790709289088 2.9954640489686635 3.8394419834023576 0.9390714839362208 
4.52246603908007 7.827582561073621 13.662605709849217 2.9954997617678214 9.082401006394361 0.9435183903120037 
10.424724983262996 6.852647389674656 8.154650889892423 2.995510245320118 18.168845581538434 0.8956768698594586 
5.547703091188623 9.77192365514963 26.99388101912504 2.9955133641803227 6.831786860534017 0.9441003990019731 
6.156467679538862 10.177352773493661 11.489671776315625 2.9955461889041053 6.098614059085428 0.9354052112743405 
4.9115370770156055 9.007727881682515 23.550688241802654 2.9955606601882985 7.830860255244087 0.9115765582146469 
7.557059905257342 4.504978112920128 35.68988126565293 2.995565378501269 14.173332636010002 0.8898736882805005 
8.92633658573669 10.134229079883948 31.9353409510016 2.9955965851758486 3.2188624263812375 0.8843954713806282 
4.799029044135043 6.204424312431085 10.9949355732235 2.9956235522250982 10.75082763204512 0.9132366299941346 
8.151262977033818 10.423984543768913 16.240008824679087 2.9956350040441264 4.049026926933498 0.9299826763708762 
7.048356152873637 4.5386057639433 33.74667111130513 2.9956364909643076 13.66323176498889 0.9578464999733994 
10.302313827504289 6.441267549922523 27.79597804334489 2.9956430342530465 17.740067422943888 0.9293690014551516 
5.402551090429901 5.361163452726153 36.18506501213089 2.9956491290221394 11.793152565398486 0.9646536165930917 
9.75915504446142 9.467307212518895 28.088402563455375 2.9956767488072438 2.14626786232704 0.9315028895832315 
4.833057679343 6.135632028593813 32.3116688439021 2.9956771026114235 10.827771043967175 0.8893124074383318 
6.8128735803605345 10.415809570314037 9.868116242649442 2.995678248227182 5.398899246119051 0.8959727581075227 
8.356169402184598 10.370740645343473 36.8489393120019 2.9956932249588233 3.837348467923711 0.9485496987265022 
4.638934779936623 8.388029871458299 28.637002889514932 2.9957121433907066 8.509728863959209 0.8807091453168687 
8.751703296999699 10.221683359212188 23.674185233725375 2.9957171848377904 3.4143380601756004 0.9549185527246018 
6.956479786338326 4.553991582514586 26.5710041691206 2.995726926566196 13.570483399114618 0.9652499865949903 
4.535014515280119 7.071742073427192 2.8680446681859806 2.995754291705517 9.841169836043992 0.9425800359388136 
4.506083785509798 7.605620756243976 7.997974683481516 2.9957787040328756 9.30587371837678 0.9482940961480795 
8.138477482082997 4.573025918640198 21.5056942325243 2.995802191079896 14.76079773899998 0.88604377199882 
9.808437043467798 5.59054666237221 38.18452559731182 2.9958126831015743 16.752883215064603 0.8727555212669879 
7.280358804616029 10.487788083414417 7.903225422920691 2.9958504445487373 4.925709312696657 0.9199874238493062 
10.490429757095068 7.680166044008031 23.384082269377373 2.9958521217732326 0.1802748203850939 0.9128073942997317 
7.917939519866602 10.466582167428552 2.888258538402013 2.995877700836834 4.286606527353804 0.948459716962344 
9.763711386540775 9.46238016295079 19.866804418955354 2.995884701636084 2.139708947769238 0.9479480484501589 
9.079093461827824 10.045954722964677 20.653493287985015 2.9959008015242294 3.0427265850804055 0.9217802354969216 
7.389108167779696 4.506128641633106 15.530375939960322 2.9959243496628547 14.007043722288167 0.9283737527578648 
10.493371937931418 7.3759767543740935 10.090778522835237 2.9959401402983454 18.699988374216616 0.9418518360349876 
7.143101375828985 10.474655546442674 36.6819542754164 2.9959893604479486 5.0638372604713915 0.8924547448796014 
9.57090509235295 9.665072505962518 26.98075354560485 2.9960285141513934 2.4196671921313175 0.9647268811058501 
5.086523482443646 9.275199036516486 24.634691582707866 2.9960307942417748 7.512286280784618 0.954123922802555 
4.576228875706763 8.154130664974332 10.53281598773546 2.996051487226262 8.752931037808327 0.9355001021918085 
4.536469480374404 7.059644051104806 2.8298669834325807 2.9960685076412625 9.85438384159956 0.9386338332169459 
9.831985561088192 5.618939571353032 26.83942642357836 2.996088281967897 16.791312822743215 0.8800977418607648 
4.851659898440698 8.90102125858423 13.925559606419611 2.9960917643710574 7.95462525206592 0.8680867181023993 
4.504413974222434 7.5554972014524555 33.69381776076292 2.996100061280145 9.357025566415643 0.9966249687925831 
5.023010744528383 9.18564528818484 27.816995769013936 2.9961434894379773 7.622366538689032 0.917605681205337 
4.624763750723737 8.34257627730521 7.254567433080119 2.996150575693709 8.558587676525057 0.9311053031946969 
6.371493913396913 4.724495990246936 19.949414930245396 2.9961556193988907 12.96199902770272 0.9317134030566465 
8.704051332474753 4.756418355257134 28.246961964408634 2.9961608522581358 15.35814466852311 0.9158051966154487 
6.99449131459243 4.546763851808331 22.128066831116676 2.996188041163047 13.611265310414332 0.9593360458475879 
4.514317232510432 7.249250070735176 19.76905239231867 2.996193771288912 9.663863902140811 0.902021677668047 
6.89061263178839 4.5663999119359495 5.154176442439237 2.996224698053415 13.50570742831421 0.9478335867879072 
5.3693776606576495 9.606620194618852 17.552484999531742 2.99623099865158 7.076675140426524 0.8902973722501166 
4.617932560110054 8.319265591497974 16.02168874015984 2.9962491280743517 8.583160471712464 0.9621316807133238 
8.342577255632893 4.624649477447123 36.52325573039244 2.996260512581469 14.973642125067133 0.9373405585021098 
6.132102151236056 4.834174955791472 37.08112076633619 2.996292324020211 12.699178761528497 0.9517364975877859 
7.679296318319738 4.509020376692913 38.746471068586885 2.9963488242861853 14.2993646706543 0.8927015480067071 
10.433869294232087 8.108814803693036 29.44841039782453 2.9963718896081093 0.6130836186748212 0.8800280125801404 
4.755666959799367 6.297113559261298 20.648565283091088 2.9963810880543655 10.651200527868316 0.9304680079637893 
6.698674454559956 4.612737200954953 23.105896923431466 2.996399355981145 13.309000994930475 0.890802277482309 
5.950330474987448 4.935433460785639 8.509012001388172 2.9964107146401955 12.49156198013143 0.919530975139625 
4.842520129692174 8.884347205097171 18.181820065849017 2.996433954778855 7.974546522242836 0.9349379988619092 
7.486632012466114 10.496411788618001 12.039685910221849 2.9964416079843166 4.720167503155473 0.8801766754550209 
9.968772951308239 5.801769138778496 37.15417596333196 2.9964692461489304 17.021853638235854 0.823555484145604 
8.866635167363325 4.833321510203065 18.13456970223573 2.996475571170213 15.539648464270705 0.9134631596883489 
7.62528083163104 10.493861056257039 34.65094542014222 2.9964811547791608 4.581544231986538 0.9392979257723647 
6.257786542079675 4.773089607056862 32.87417331035267 2.9965204097719202 12.839905827205968 0.9599679880244986 
9.940247525278712 9.239104579308469 3.4779744771903864 2.9965467996346336 1.855409153881805 0.9520128249544086 
9.623582276884548 9.614180664071212 31.088123780834913 2.9965582869403264 2.3468434254485473 0.9275917094064777 
6.044240203708334 10.119189525355848 20.764263023457367 2.9965630903141287 6.227115096501027 0.9500838269305797 
5.335025244051147 5.428182171566068 7.667011445335078 2.996588862041721 11.701699742093624 0.9516129669012442 
10.49277029366764 7.348222631743974 35.755912278554646 2.9966164920079814 18.676454376112822 0.9658727690906022 
6.053536320938932 10.124409075277683 25.069704396112186 2.9966281332929445 6.216589123866658 0.9495596128868878 
10.18723069419676 8.826122509539465 12.814063374003723 2.996633062979258 1.373735614053608 0.8627170772721008 
8.598350366273502 10.288107914513814 37.9875001390805 2.996651342760401 3.5825686182139194 0.9252440379726011 
4.504904320106601 7.596574285679827 16.77055347562179 2.9966522528265904 9.317669692259926 0.9904334539352884 
5.180707443189014 5.602416392327919 17.27481804540085 2.9966550539200587 11.469149297588704 0.9515111110548143 
5.131592549173355 5.664048853311934 26.88256624999616 2.99667657016175 11.39042025706756 0.912519891256944 
