100

7.849803353519363 7.021529741347221 36.48332351967271 1.4470529929072449 0.5335363235066524 0.0 
5.8615089765652755 5.114487925365395 22.957192468659485 1.5255538325359106 6.5302279784365105 0.0 
8.090190427965947 6.523653116016906 32.55521568607459 1.5903663310985394 0.02365398810974817 0.0 
5.3174100219654505 7.6017401225632995 9.292529825949558 1.616276694694801 3.865443651372722 0.0 
8.121262570818942 6.674928780711776 5.754716761811871 1.6306723772296363 0.17526603521151252 0.0 
6.39437332877181 4.870976699353331 19.20752413082366 1.6324441514871226 7.587011315819833 0.0 
8.074907327666464 7.01356361997315 13.927532771847368 1.656526692358877 0.5221681075402778 0.31871279269957675 
8.177982347624628 6.807200748946796 23.99523588471874 1.7058713489279713 0.30888589851728554 0.30693491577385 
8.068446149682106 7.231784421610202 10.914196749177584 1.730760458343094 0.7555546483629936 0.216021262978823 
8.138189884835295 7.100792324308172 3.653650449325802 1.7448832384214998 0.6133453302879346 0.3836492631279831 
8.242063763718335 6.7142586367815 9.998339704344943 1.7551902803673312 0.21479436408149688 0.40191114536814837 
8.26598171003284 6.504786310077543 28.415626281597255 1.7659881961481732 0.00478631593726675 0.36095521696205124 
6.392856933995697 4.696335521389228 7.841768725819236 1.8068439855159253 8.40734572972425 0.27735996059025375 
8.303033174847053 6.831638074037977 39.6718681869889 1.8332791499798018 0.33347401635826657 0.3963699524288811 
4.863703585178591 7.35084213560072 5.253033479870027 1.844288018957721 4.909658397412267 0.5038111156237914 
5.200852227696531 7.828208113972741 16.373850356376835 1.8579348019519115 4.35710655988132 0.5127258483933502 
4.833137622817372 7.32673159378645 37.23653420720639 1.8606222917700432 4.988636556218475 0.6323897756837946 
8.047889563458826 7.56079188812676 19.10927456708221 1.876497143770884 1.1274034200484682 0.26860596934825065 
6.458930030895944 4.621393989099621 18.092959784787062 1.8790548918414387 8.813764326080538 0.32165879433822675 
8.062712859061282 7.552098221237266 32.22779541087233 1.883874238638583 1.1162844916347883 0.3094110614799894 
5.219977806213219 7.883804680625216 13.267081169048865 1.8850390475284537 4.368114767896669 0.5606061862047631 
8.392230534970732 6.599731574722741 16.06081110243487 1.8948569298161557 0.09977767843278151 0.3390364167946432 
8.210249358708271 7.322527514183461 18.04377427867344 1.897762993777376 0.8507363365788336 0.24397100734002244 
4.666625784899466 7.015584920338645 16.113002434748324 1.9044917491751188 5.461037290762501 0.9598569304913666 
8.391973080389945 6.719610612321253 2.734852328217535 1.904676076912905 0.22010014025534907 0.4807586458798125 
6.0122070328159225 4.654287130860784 35.31792448283027 1.9090830191849608 8.503078846760786 0.6100456363046477 
5.779224844509763 8.269964504478915 21.591293435576496 1.911096850472856 3.741003144966953 0.9797223053602616 
5.598639267932008 8.185342588648188 24.692568423856805 1.9112380308128876 3.9408066526827596 0.6152761245391521 
5.60952401693816 8.20137077773346 12.359595416713482 1.9203150782450555 3.9423651928792793 0.5835037466549857 
5.097913450822762 7.816388386490173 30.109459815425765 1.923206976763015 4.592057465491699 0.7287019189545697 
8.419902849192814 6.648317114147805 35.621482149290784 1.9256232540888745 0.14846415630652743 0.3169473895296882 
6.498802957114806 4.572358921407464 3.7414276029989466 1.9276414502674148 9.0825992854108 0.9280055981684378 
8.02104513819565 7.685448608301298 6.815869337043452 1.9284363394605757 1.2766847712943061 0.8242379141254185 
5.5342136689968715 4.8281815894553475 18.563654103666124 1.930730440788806 8.08693846644977 0.5305250523453485 
8.215519971096526 7.386578471811001 27.928580248304485 1.93106969265994 0.9211126490166137 0.2596201008579439 
8.23809551106256 7.351868924066361 38.6182571557504 1.9356282363526844 0.8820840283537486 0.3565786637027749 
4.890442031120418 5.42005355075179 22.94134037890847 1.9382882108777268 7.23477816647083 0.9749393041142456 
8.412792923842726 6.855109697502 15.012035143531449 1.9454767196660994 0.35711175909730386 0.3376588036893993 
5.207224754757549 7.9543658833736774 25.800321507899177 1.9458797386870992 4.470543517835406 0.5756239019181966 
7.830848696400184 7.920616455527476 14.778753524817098 1.9466148479926684 1.5923543718172066 0.942453329496461 
6.052804542267928 4.604362194421492 9.896396264067121 1.947672063606884 8.726967417040182 0.43391638094233326 
8.443553556599326 6.6607206275702655 25.018679485629917 1.9501875672602529 0.16090311861078455 0.0 
8.44262098807372 6.67355793831133 27.228165455754947 1.950358598118663 0.1737878205455079 0.0 
4.772486299244891 7.406828647613045 2.195706717833538 1.951061706463513 5.186308938114363 0.0 
7.4739478080017925 8.191100240487396 18.52367050156522 1.9515107881044422 2.0457038953882574 0.0 
6.226664579740253 4.567088198190085 34.32097994888444 1.9521424859739687 8.925018218656668 0.0 
5.105651507230861 7.872173950590055 33.10981174374439 1.9562896181203573 4.625078756466024 0.0 
4.652443128406906 7.160011884372416 38.29218803342731 1.9619077657432533 5.490373459108977 0.0 
5.9827522257296994 4.607363213567681 4.758072483793974 1.9620446644621612 8.722482985468256 0.0 
6.142583198689829 4.569792714592636 26.875965688546515 1.9630198507652603 8.891091451437438 0.0 
6.342751551496791 4.543131939700304 39.49890562056379 1.9631759167170326 9.093831473549983 0.0 
5.283435620187374 4.958433248476364 25.98395092751781 1.963786378309007 7.942110249675586 0.0 
8.372134114933905 7.094170264695887 7.746804513364957 1.9641599852731286 0.6036271980957277 0.0 
6.467781523218884 4.535653983241434 15.027212699114358 1.964610216760908 9.225787615113815 0.0 
5.095949215019031 7.874377178151645 20.911489734925794 1.9647572966220932 4.650333124336317 0.0 
6.486619306547716 4.534407451897405 29.988241197636448 1.9656380918454235 9.24947048664017 0.0 
5.062370288611055 5.158663162997179 31.540544607606613 1.966205405691124 7.653167611582292 0.0 
5.526510899759026 4.789919727505309 30.150777606743546 1.9677539395624393 8.25448234649543 0.0 
4.667181644648481 7.216275842594373 20.22793957125392 1.967809494437337 5.4489381792112415 0.0 
5.200811417801095 7.978290460293893 1.4839411857252003 1.9680532658218195 4.510384541705122 0.0 
6.0976428005072805 8.427324554676956 25.938137033786866 1.9688756321932446 3.497914365791827 0.0 
5.43385500174718 8.155293343356755 34.0207557373858 1.9689238710170276 4.219404169886637 0.0 
7.85379644501451 7.929871087168907 2.9534607034094194 1.9690851023903253 1.600315411636526 0.0 
4.738159593069749 7.380572991992615 12.374268989911343 1.9696422044927284 5.274904136517959 0.0 
5.399464673078771 8.134278398090068 28.990541060089562 1.970290305580741 4.262626831802953 0.0 
8.468291597384765 6.599964937872993 23.014769376741526 1.9708284555332107 0.10000785172324456 0.0 
8.46513178572089 6.655952164887502 31.47122646991341 1.9713102274841678 0.15611529682296243 0.0 
8.471179085169815 6.543587896372815 20.988226954245448 1.9716609471511877 0.04359144759250988 0.0 
8.44721189012034 6.812475373975412 21.99830663667842 1.972124490078428 0.3137978265256045 0.0 
5.936588661240833 4.6091753360583745 31.24493578348024 1.9729800420714758 8.726085251774569 0.0 
5.238241808111509 4.98275601467115 27.069586048150306 1.9733380465126316 7.930189429695387 0.0 
6.36382701051647 4.531135335554174 25.877374343794717 1.9735681265079892 9.163939421605113 0.0 
8.471140314543735 6.625986082767984 11.92281617262434 1.9751624319713041 0.12607166964150096 0.0 
6.4705699661483 4.523641129225757 0.5738406031113001 1.976577980495723 9.284973172789357 0.0 
5.512710923101189 4.785151857842051 3.8057929485796826 1.978748056733418 8.290967127984104 0.0 
5.922472342062552 4.60704862491443 36.378268186138804 1.9790914845254295 8.7401936131677 0.0 
5.415976467439414 4.842518848953734 10.896873493004549 1.9804925612631776 8.185759785008598 0.0 
5.872937620088277 8.37872107736857 22.835188982919334 1.980605996873046 3.749169539664539 0.0 
4.6150105117912705 7.109378729997136 33.93430560095653 1.9810421013270592 5.604204755881645 0.0 
4.768441431897653 7.464884244203089 17.21207074284645 1.9822453630870265 5.219672406465861 0.0 
5.283737140935531 8.06531708673812 8.17746732862107 1.9822999077773233 4.423223278493056 0.0 
4.897396536912827 7.669080907003595 34.920277581753886 1.983705630132493 4.981776384557186 0.0 
6.017263573261498 8.425696603491454 29.85170124970744 1.9852813066159603 3.606097239188882 0.0 
7.914304778879061 7.893277365427633 39.69017381283968 1.9853160515578148 1.544394815015247 0.0 
5.309404399344505 4.909292382544091 14.01836447717995 1.9869244093655087 8.086520721297497 0.0 
6.374992947247684 4.516832096018183 37.427080574100636 1.9871038469645863 9.23891661748053 0.0 
5.450365898214505 4.812619602385418 0.5726364830379147 1.9872051614981752 8.258654149301393 0.0 
6.317692130989747 4.518304043861452 22.219207030440103 1.9900640747671756 9.19539218482193 0.0 
7.9536011373348545 7.86059489491835 35.63369426054914 1.991023539423644 1.4979689217731824 0.0 
6.039206385287473 4.562645318144666 17.18366441526649 1.9913999896220282 8.919243419591274 0.0 
4.7038500532922685 7.363447281380568 28.831954434074568 1.9929113976245107 5.367880397718633 0.0 
6.383022691094725 4.509991297168243 10.934092359553635 1.9934438362153202 9.276838219170658 0.0 
8.489923449132657 6.624889281939607 6.826011744322322 1.993838676059676 0.124971093017189 0.0 
5.948081441611933 8.417844591879092 9.057588953228475 1.9956808296150559 3.6940158949191435 0.0 
5.364516984243032 8.143257964289003 38.08311630626853 1.9974029178590333 4.345256282481685 0.0 
5.368760746090415 4.853685444994386 22.09278242021675 1.9975119182646328 8.210473075125533 0.0 
6.3679346882332615 4.505232109539147 13.940524728725542 1.9991348587290663 9.28853952027359 0.0 
5.4119939394776555 8.177155729109517 5.101640576079902 1.9991519520582286 4.29072359156045 0.0 
4.577194701841877 7.047854217903016 8.584002748598351 1.9993310027854494 5.7261307441686515 0.0 
5.9562036677254335 4.575553260441031 6.878711317225466 1.9998024163387786 8.873115530091718 0.0 
