431

5.643009101027445 4.772832265061101 37.575364144730486 1.9280927844727158 8.197864520742334 0.6957913898917266 
4.944130051071436 5.360025858126502 38.1618776895961 1.9288007523119626 7.279148592681924 0.6860060938100885 
6.93861477554278 4.6217022025176 25.007776837285995 1.9288300955116997 9.531883395991281 0.8260606713270453 
8.11279349635253 7.558252153768901 31.098141642638247 1.9289894978546502 1.1201528685797637 0.7419464381959817 
5.249861089495214 7.969843691295962 9.172888068117672 1.929582279251299 4.3909480628244175 0.7604549259551872 
4.580392264612897 6.295713703745763 11.885501885382766 1.9304472923639413 6.269348548162672 0.8235129394831631 
7.924088081721315 5.196677453653194 6.648415413976203 1.9304601845976082 10.698681187106985 0.7212087605545383 
8.068419258029223 7.6267128687648595 6.187863907121148 1.9311708514777466 1.2030265315483941 0.7354429550102031 
8.237588484598692 7.3456736328083245 33.574499023054756 1.9324537860029694 0.8752974808666796 0.6569515735836609 
6.758941059299287 4.584785206928423 2.7169391368918028 1.9326402085725227 9.367074535726491 0.8463375472919836 
6.439183544928872 8.431949970379058 19.68860316409438 1.9329069634245346 3.0970296520984633 0.7602320634400634 
8.004888243526569 7.714118305430976 11.521216898822068 1.933590412959027 1.312643522521114 0.8463144346156306 
8.250103235870476 7.322808991141898 15.451888534399707 1.9338758936674971 0.8499051603201284 0.6953791639593572 
4.945454959743056 5.349163912328343 20.942886542579735 1.9341752720151455 7.308976525333179 0.7316255693965366 
8.062217664586504 5.359114081763792 37.192180643536766 1.934462382672711 10.934379460943333 0.7309022705160078 
5.3218489984113795 4.964691123948427 1.2964459753043869 1.9352553132408674 7.853000964620534 0.7990172568058445 
6.657183950278743 4.5710153551948025 3.9611270735404602 1.9353781424102803 9.277611895562842 0.8182474322525924 
4.782205695773417 5.605438069411168 0.5323118154261302 1.9367649106931133 7.014403825285539 0.7875001786284889 
7.761507434456824 5.029635502675664 0.9583637140697547 1.937362320832553 10.50337800875883 0.7545023440245903 
8.392588444551627 6.9146098563004035 30.35671074730346 1.9374706071039618 0.41784134555572017 0.5971162748935588 
4.6543410178334845 7.092956733117328 21.842167977446508 1.9385702891051226 5.487582998897148 0.788840155237584 
8.432033808403656 6.659831596420705 23.32384923331155 1.938633739526143 0.1600132219482191 0.6602647917117694 
7.55853282612965 4.874215265674959 10.36998871979798 1.9400174603230667 10.261781243500247 0.7910111989796038 
5.290531950186207 8.017796752449861 0.9785275582815913 1.9407524173030735 4.354307642373847 0.8493277385169482 
4.614073174127093 6.961351994187947 6.154026643764446 1.9415369311677433 5.633710344180695 0.7254114769368043 
6.114077038308086 8.402855216231593 1.4958224156074564 1.941595865853871 3.4383620513416293 0.751584269061922 
8.441552940985549 6.527994012949083 9.361925551569954 1.9417547444027636 0.027994982780169764 0.7455084009664924 
6.22142282444589 4.578169861712828 10.45979941188098 1.941915632350849 8.871520206129114 0.7590469458923205 
6.09047523699134 4.601696478807426 9.037987908327509 1.941974971540423 8.73871899047312 0.8169281310893632 
8.437150263286554 6.637777338087814 23.321204508017956 1.9420437012183134 0.13789317569982806 0.6634120933683822 
4.940093017475142 5.341799678952201 20.94612645513186 1.9428684406837824 7.344555246800871 0.7924827065298811 
6.539124914789841 4.556805173654901 29.821439211737157 1.9435886632957267 9.198073356997472 0.72125599654092 
4.7351927329159516 7.3145006712111815 23.803028028079076 1.9436964869434055 5.265856518693605 0.7531831542330856 
5.064700266621935 7.810895106923763 6.7408190445391725 1.9438444654837526 4.668073027550539 0.8316382706093659 
5.028042382654645 7.769598317948063 22.760215852536923 1.9438464744412196 4.723299527653978 0.7673638938867198 
8.431573770957389 6.721386306402014 21.368405576500315 1.944219413881281 0.22186754086581573 0.681745601837744 
4.650177586026006 5.901139425697448 28.970861616799034 1.9443448641366483 6.717097183992841 0.7640938909848282 
8.394266708394536 6.938506350346026 26.318261345114777 1.9443595814112336 0.4423113627988613 0.6491162096961228 
5.830159649633625 4.674532727707463 3.232740503787305 1.944483699389147 8.47931323934844 0.7982521482983003 
5.169710213761239 7.918568873140231 8.049058864943639 1.944738687642509 4.519749115717715 0.828603268259037 
4.577100919218563 6.208824697886554 38.6593879163842 1.9448197683669701 6.402105731892192 0.7643998473864603 
5.061440591770405 7.809349492967961 31.451820471189023 1.945211881965905 4.674696352886954 0.8210311360273097 
5.263485394148326 4.997836240812742 34.28513591631747 1.9456269760414295 7.8285946333381595 0.8476809079481238 
5.268155509565917 8.006181330862525 26.841113650180773 1.945770554318165 4.39030562722748 0.800176213669843 
8.436732637482224 6.693343771508568 39.861321671092526 1.946359453716094 0.19366316698142505 0.6484065033848394 
7.980321786647148 7.763767458714668 5.04091886548126 1.9463968715882023 1.375411094865143 0.7779709831424582 
7.778981033027252 7.967283937672434 28.54829370966543 1.946462081982329 1.6620020687445791 0.7865834997800404 
5.769754860482548 4.695643011818966 4.48835094367071 1.9465256496092203 8.424226348275964 0.7708796348238782 
4.8640160635465755 5.444749606390262 15.958545830112229 1.9467914201442194 7.231283712844146 0.8013895571675146 
8.434424486260273 6.72244103374201 39.879045683896514 1.9471718225507326 0.22292771854055715 0.7047252911981472 
4.55717865674935 6.3642701577936975 8.163191043356015 1.947556767299891 6.254269989546316 0.8224801076547572 
6.019508490877385 4.612568518785972 23.073706365215443 1.9476318149528942 8.692494578572568 0.8365864648137687 
4.827003728582351 5.5018684470762 39.37677531188048 1.948122973818499 7.1681537268493365 0.8598726026937211 
8.197541581710556 5.543837339244529 16.318958184162256 1.9483055344219917 11.242144341961659 0.8628701589113317 
6.523057171540238 4.551760055541912 5.208527672454544 1.9483763790247213 9.204565087904115 0.7286026590791208 
7.852293671033429 5.09644801969166 39.67937312454975 1.9490141954702451 10.679017999364188 0.7707571415857575 
4.828649812273829 5.496282010870424 39.36376672410827 1.9495797628500935 7.179154879425884 0.8526719558830795 
5.023815480690187 7.7737462753621 22.754579871187396 1.9497564742933327 4.737279823924668 0.7755448643308782 
4.85271448400001 5.455880440086574 15.928642895713296 1.9503166990561212 7.228898307924204 0.798004940709277 
7.024325359187789 8.378731934991 11.56525523969679 1.9505257665158975 2.533024095889221 0.7835935614737163 
8.314305002657445 5.783244329052284 0.4368761617259196 1.9507540425444556 11.522999838455375 0.6747407366350081 
6.237189114076493 8.433102787729329 35.7167199545318 1.9508859396917069 3.328056821229538 0.7882546075504746 
5.509565006484314 8.180908830489738 36.50312032991026 1.9510038372076042 4.103460557559757 0.8372787686106502 
8.445163869214705 6.66250575865719 16.412316700372536 1.9519402141702675 0.16269407154875637 0.6785312315758951 
7.6891040378088 4.9518174664086185 2.1876368398989285 1.9521366678720569 10.477803632124592 0.7642346419453343 
5.3169280853634415 4.946644301713684 1.2818790650445706 1.952581132911096 7.9303894455238595 0.8587577440336351 
8.201664282783037 7.457745877839155 32.40390848682175 1.9526747035329264 1.0010177747015643 0.8156827835251824 
8.428086654177601 6.190102982766469 36.61266313530396 1.9528323807505916 11.958795058770761 0.696827516133886 
8.081558753920085 5.354104572574499 37.18548170302776 1.9530500307713392 11.046805769140711 0.821780906840338 
5.930191941734858 4.6318474512282215 35.05519621073245 1.9531193431908822 8.625640684790875 0.8225536492333476 
8.13369173491023 7.5706208866945275 7.468083673298388 1.9532480046682685 1.1331160505773443 0.7985886395031334 
4.608849224829244 6.9891860743213385 37.842474302876894 1.9533955743112743 5.642324007704403 0.8009252323705215 
6.755904374070523 8.437254428581218 32.4258452959084 1.9540833579266674 2.8128254146971727 0.8452842418252363 
4.9259204581376785 5.3415149060155045 6.3128544975827054 1.9544344750064562 7.380057850095298 0.8085940046032739 
7.909618680901708 7.85432166399473 3.8480158615538187 1.95479205930261 1.496186589695876 0.818692356576479 
4.9364132788618225 7.675224377263612 30.164670326348585 1.9560050540410885 4.884252217588241 0.8160959493960714 
4.610903034362293 7.00729381299935 6.134992192467983 1.9560251425503228 5.631874110439341 0.7556558967452761 
4.892112809867086 5.386013176537682 38.16259795142173 1.9560848292037794 7.330404293509773 0.7992890855354303 
5.2313821680140045 7.9905845592467735 33.98018872638846 1.9573537063846553 4.454783150665758 0.8628935823810105 
7.531485362578779 4.836183334717351 17.191384642919992 1.9576128189421296 10.311431009605869 0.7445090083344027 
5.023767411076092 7.785976690677575 15.8061190347576 1.9578045626586513 4.74760565641072 0.7961021923604436 
8.2623962107047 7.3528246140460904 1.8675784064776195 1.957894334694583 0.8823942941456728 0.7571339599661021 
8.457550013862132 6.5634031599641 8.042491157869591 1.9585765283657073 0.06341423908371979 0.7699390834863931 
5.045831706957532 5.187697476127921 12.049591047061782 1.9587606639533768 7.591676990356273 0.8449822677445099 
7.205565701390437 4.672684139333754 38.94351082340452 1.9588022395384896 9.952427499085005 0.8323530436429222 
6.660219724197544 8.452376322826865 39.54792247482105 1.9589394237589113 2.9166959570703472 0.8488603661945574 
5.182496475903795 5.049696948978722 2.5547565374172407 1.9593862497750536 7.788431239248208 0.8464598916045645 
5.374913258104927 4.8952947430621165 15.040225403143637 1.9598212006282998 8.037057202785963 0.8365007326099838 
5.68674761479911 8.283626286252947 37.70066272709535 1.9602811459194889 3.9178001555414994 0.8663703219719976 
7.943800361313151 7.826907805256223 3.8208489573936717 1.960929322280094 1.4574302736232134 0.8244401887814159 
6.55856079316316 8.46030962270245 26.671852824874037 1.9611841278563633 3.0220513252724768 0.8105866946851144 
6.4036025042522375 4.541139238347506 24.045290428019293 1.961231235914885 9.145648112106628 0.8215791025828324 
7.648482526396707 8.090176913504447 12.593071658587888 1.961549063796541 1.854257102607777 0.8786468157172979 
6.195845489484009 4.561922142959876 19.02162844774709 1.9617991095462528 8.939374131954814 0.822848097894322 
7.885244407962695 7.889425648617255 9.557564567551324 1.9619902402477452 1.5439001160338996 0.8180391682288587 
4.792224598515924 5.534078161912422 24.923435348185357 1.9620147347073076 7.173784511598965 0.8507417731936077 
4.916673610032813 7.658966092794442 13.867049912394805 1.9621735044113044 4.9245125151934594 0.7875974118440845 
4.807722083219804 7.493292009577914 2.934251995523386 1.962252166239917 5.1230868822593045 0.7763135684615351 
4.547771266730342 6.300458493837203 25.983263021650558 1.96240002030304 6.3649484565774905 0.7864086546815329 
4.706784005675395 5.702829980728334 12.879785773423187 1.962422900887362 6.986035547325637 0.8031678237123846 
6.368660533374642 4.5418381483736 6.503388049772994 1.9625615640428624 9.116915786461165 0.8548885086413246 
8.329454253935722 5.789112726114272 0.4385001843575367 1.9627184167414813 11.604696949137912 0.646243744600586 
6.530741867637817 8.462488279698276 30.1107687155638 1.9627290466029585 3.0523044521686824 0.7736522743355267 
5.15813463721021 7.932606749196134 32.744837330541074 1.9628970298253783 4.560791884520778 0.8216320655176739 
8.461584437287698 6.427112403047058 18.345691283968165 1.9629381310675267 12.260599667381664 0.9144017384570027 
5.5882310356794935 4.761633762228412 5.7630728637818365 1.9629670962403407 8.302047183641953 0.7921246777770635 
7.56817065770672 4.852984347939866 10.367760473996526 1.963071346669975 10.380217987334632 0.815673081443707 
8.448791551416845 6.736809899850149 6.836992512111124 1.9631269545143295 0.2373880102601511 0.6290051285749906 
8.346938343218367 5.833998377425367 7.356428537807943 1.96334902778957 11.656600981624797 0.6716707541751735 
4.565647316858447 6.83710563691605 28.388487906671585 1.9635071971392148 5.82975570719926 0.8598129595865996 
6.02431325698401 4.594952153965252 28.0238924622235 1.9635389410864217 8.772492167661136 0.8924877205864987 
5.495953810788983 4.812564914913549 20.049107431983167 1.9635544088336034 8.199104766937122 0.7894173685190793 
8.373718167808178 7.087146992914295 36.102542984436816 1.9635583423119203 0.5962688854730995 0.8035879377424806 
6.3228602472616675 4.544399234828624 12.105032574869163 1.9636071003994326 9.075899561398565 0.8824908898317433 
4.641757390556354 7.136039325669863 32.204089746889046 1.964080349514883 5.522624310183135 0.8295039446713534 
6.4371897554293 4.536774201415728 15.129393316229432 1.9642302978647603 9.193396256867498 0.8426746465458912 
5.791599610951069 8.332136047370899 25.745749983045805 1.9643201386944382 3.8102776956052775 0.8464990006028128 
8.387121234025058 7.045294626028664 4.301436989019919 1.9643250192073618 0.552552759365728 0.8203229073778503 
6.392134763231683 4.5380546327705105 31.259709871563004 1.9649082760516694 9.1514926209453 0.8239887130440476 
6.183326173683319 8.439267876461415 2.716756367465152 1.9649534877317596 3.4046026420681716 0.8472179723548457 
8.344004738083695 5.820695394951668 19.303812673321033 1.96514839656322 11.653774556362578 0.6733981653021943 
5.6425006618605735 4.7313114581313584 30.534903106747926 1.9655951447454718 8.375316845892584 0.8300457728715713 
6.214189796612505 4.55517883468144 26.072650521047457 1.9657102628392222 8.976364444188661 0.861504474412469 
7.377236595229871 8.25922664502777 5.782418633575972 1.9658134277153974 2.1785736258402437 0.8563468737715847 
8.245345065233506 5.5953241890796335 21.2838840278634 1.9658758148976176 11.41186280084763 0.8658580852596854 
8.176107090830536 7.527661277807139 7.513319483010449 1.9660678222880812 1.081363971262796 0.8437155257718264 
7.28839121160539 4.698435137978002 5.890959887589723 1.9665189179382334 10.078204277845138 0.87119567256221 
6.056758526143957 4.583964970717549 33.80300491622987 1.9666350036505194 8.820466668030921 0.8323692764031669 
8.438728477001241 6.83039368501878 38.62352273372501 1.966679459046604 0.3319678525614762 0.7445322292994131 
7.9338820996891215 7.846551424490652 16.56568940633102 1.967032947005891 1.4831418034420274 0.8377806796537353 
6.118119492710095 8.429691199039276 15.676738272554829 1.9671148531536329 3.474257586637208 0.8707124587308018 
4.56363784292942 6.1504812806833105 16.90649565029709 1.9676538665344097 6.532950323481867 0.8106564691895477 
8.265696224165978 5.630640736005837 1.6267368777128368 1.96811297590521 11.46557252562522 0.7190402054298352 
5.055021401706567 5.163653372228676 12.044274160321322 1.968193450624671 7.652243689975265 0.8258016440056047 
4.565854890477434 6.865010657007945 36.70324567592123 1.9682860778909737 5.816417238488004 0.8367304796394752 
5.946441916047048 8.388850205774773 33.37829106249739 1.9682940969695202 3.652917111162232 0.8385690040089195 
6.505399358928486 4.531622128997174 29.8383195238836 1.9683852763446628 9.281196451097603 0.7879838744683915 
8.347024281292502 7.180721420402701 17.442007102901528 1.9684715765992524 0.6950756126282815 0.7465195349283721 
5.839688799848718 8.35451365206314 7.278679998873251 1.9685608364319864 3.765573917675642 0.8327820331524707 
7.431745239876388 4.765772757195741 36.47745927516746 1.9686780645186182 10.247766282337947 0.8191796275896068 
5.83343602700962 4.647590850078753 24.999766718618964 1.9686866659782793 8.597212077634747 0.8605367132683331 
6.504289789674033 8.468722165918162 36.95393359171979 1.9687268395775328 3.088179095002296 0.76026325617986 
5.586045048647431 4.756047308650388 5.742335937724263 1.9689298216969122 8.327924508404708 0.8515109937731129 
4.759838419293166 7.4211837536033975 34.72375410149197 1.9689443452954574 5.227012766291676 0.8498556760449848 
8.218291840834787 7.462715541448883 0.599931179433753 1.9696060682346153 1.005872815935657 0.8573100985569369 
7.755414644148763 4.982301928666674 15.22054679373452 1.9696378764818836 10.642912247366866 0.8286395087808288 
8.403905052323214 7.004699085772206 19.422270536055372 1.9696638331048155 0.5103917732507348 0.7965944658692902 
5.990565509339287 8.402672328619612 8.525144651056145 1.9696917247045358 3.6092767098579603 0.8536930640417816 
5.370227006571014 4.885937935686982 8.257842487526446 1.97017343503964 8.081045229790366 0.8408843963747668 
8.470176255222407 6.517367952884509 25.400133207331343 1.9702528067305454 0.017368177824112152 0.8374574235971656 
8.447806879963085 6.2033929416241484 36.60836217902936 1.9702607413004825 12.08177437112699 0.8442746601829644 
7.927930700788419 5.142018785703286 27.187970120738193 1.9705580591895502 10.883175715324562 0.8378795962478901 
5.845525317180382 4.641235696611689 16.01374753686183 1.970619660412042 8.619180530537893 0.8898173639004882 
5.8147713182200125 8.348039965979906 18.695261311463263 1.9709870781395185 3.795861056005446 0.8819700180449945 
5.954365736143474 8.394005001626553 20.736799386512075 1.9710331544853923 3.6489467183509987 0.8467988532081321 
7.839135691341941 7.9463710979374795 28.58696327222082 1.9711097769466632 1.623951596695493 0.8203299354724634 
8.097480822638893 5.345227300930622 30.209063710191884 1.9711532069362365 11.151353715981813 0.8354606540246892 
4.567329254229838 6.888432924843585 4.911649480409665 1.9713184290363472 5.802088086579271 0.887159241520565 
8.062465016082804 5.297658324406502 18.28732103175596 1.9715279433352253 11.094400035379358 0.8112578234938382 
7.765615297582231 8.011704740773737 34.26135226711491 1.9715560617826593 1.722694744771359 0.8811778852380029 
5.6273812652420805 8.267985430349018 16.738163732157595 1.9716074503249652 4.000951578586269 0.9121737546226069 
5.3113669835927375 8.073097699476708 19.73716015046847 1.971670565736663 4.37291288598384 0.8763903009722829 
8.458616001779593 6.273158440922064 20.325171054849285 1.971708329178526 12.161263824458729 0.8810055895399345 
6.254410523466001 8.456380256752002 24.652059503487443 1.97173474382161 3.3434226547884123 0.8659063415720705 
6.486444428657126 4.528201719040446 15.139335761504014 1.9718448758230143 9.278544385739401 0.8207710340566898 
5.4745355381478795 4.815695583481066 6.979045351119364 1.9719175261726452 8.21401859896195 0.8116730106712673 
7.714266009757154 8.053728967740312 26.47862222611336 1.9719319581686723 1.7893850704642809 0.8745353668952117 
4.626712177722164 5.884118231805292 36.15161187703064 1.9719324576387185 6.821369984832369 0.8333267489364443 
8.464227697825365 6.325596830535968 35.393242477033176 1.9719550994947712 12.215527972096883 0.8893044250433618 
5.344330235450167 4.901885697859772 15.038744273415443 1.9721921628988934 8.0589632760584 0.8333414143487444 
5.911190162196972 4.617641202734502 23.06826594856897 1.9723011095510852 8.69632320896055 0.8539225357949657 
5.285360036945306 4.945796424328758 9.978130366077437 1.97253618331294 7.986836148845306 0.8873179972801091 
5.469837804302619 4.817671233500086 20.055857171616466 1.9726794539501804 8.212152448590967 0.8118678030581852 
7.959093563356102 5.172355212732185 13.333047829466366 1.9727125253788516 10.93853630683715 0.8659915723976558 
6.5194306748852995 8.472814193160168 10.704296007788422 1.9729098793053617 3.079608602489536 0.7783364888171136 
4.9748233066226675 5.248292270644368 36.88071829076009 1.9730525045598875 7.554476398074691 0.849711170157098 
5.668561333868487 8.289522192356294 30.77491150715843 1.9732409717199348 3.9578030459455675 0.9016397445962798 
5.040837280648786 5.171329446129555 18.986485732257044 1.9734541500290372 7.65743077627933 0.8314466468692232 
4.665940594172941 5.771451794331464 1.766695076857843 1.9734630455332955 6.946019739266408 0.8181803342515196 
7.028723383305616 4.598361365492853 8.456151084723238 1.9737725077385038 9.8364437969047 0.8690713027942508 
7.447056948831705 4.768194852747861 4.641332956885549 1.973845468211587 10.289299415447436 0.8334562515549567 
8.455679328561581 6.230899694345956 22.32110120983345 1.9741065347812878 12.133736428175702 0.8756659419652993 
4.593941880052075 7.0147753979467815 12.891039681165424 1.9743483144953642 5.681804268751435 0.8199627874226074 
7.092982890559098 4.616789179873027 16.155388960431047 1.974363619381984 9.906249833479876 0.8342043272731852 
5.501824859802525 4.79652380356902 6.965041398370957 1.9743821216560906 8.257565473353196 0.8268860100993776 
5.180725926706668 5.031053359828569 16.999325457729697 1.9744083448301464 7.8593686740840845 0.8825137311206356 
4.792711932379683 5.507747313105094 22.90488189901241 1.9746893275877289 7.243286406597342 0.7886276509011193 
6.66664459102895 4.532342902557282 3.9880999060466635 1.974701211028118 9.472403250985291 0.9358607550010203 
5.108242124678181 7.901047504945261 10.759089344045066 1.974822547631468 4.646497233622615 0.8075023396570977 
7.817515003306731 7.971188905455421 2.606384834262805 1.9749031823037433 1.6598040946757227 0.8408344093290152 
6.482966744060306 4.5249289885878206 20.08715190672553 1.9751444584962983 9.290615513811955 0.7725945795404661 
5.150628378600311 7.942598740219383 17.778350981120767 1.9753214669823687 4.58830778638098 0.8031547870184494 
4.798395234051739 5.496289927502019 32.342467883204634 1.9755740150983299 7.259293253305977 0.7901812967773074 
4.61071130516172 5.922442656139747 14.967672859474973 1.9755971901910165 6.7926393837620935 0.8523220998084045 
5.306712210626179 8.074723490927 2.2373484216104025 1.9757757517355 4.384751357444891 0.8550282461482088 
8.462280839863467 6.269457796300166 13.40535098369093 1.9757772653267518 12.183106101156472 0.8784200328322012 
5.761822765971473 4.667061465843226 36.25195255261517 1.9759983043603033 8.555148600856983 0.8603603861060483 
6.007744576994959 8.41371608805829 20.701575557644695 1.9760123145291881 3.601407422742268 0.8419471191058915 
6.678691420233793 4.532044978630683 27.18038663456229 1.9760510089058632 9.490856856043058 0.9459491260307238 
4.843745385796881 7.578122261308481 29.147699982093684 1.9762406122226204 5.068181612953312 0.7837883586883957 
4.529052261583919 6.353443043173316 39.87713279947302 1.9763891138036949 6.355701125415438 0.8239118686091462 
6.992893421365711 8.414316996669994 2.0124953147654736 1.976753269521826 2.606927500417319 0.8688765646688255 
4.893298041225545 5.348355457762954 38.1638265713929 1.976809635749998 7.439700957736468 0.8253345393205818 
4.541246437350615 6.767249295298555 24.85162147820762 1.9769010357196024 5.942547699505944 0.9317292795836709 
8.186889941235494 7.531272289511405 13.548558633330057 1.9771495160851111 1.0849013199891537 0.8115777468496596 
4.83818499258841 7.5713956871793044 27.762093770349153 1.977250069506839 5.079441310163954 0.8323880459153676 
6.980717128730902 8.418178713650134 18.64181416186716 1.9774980493936696 2.62066439980933 0.8789593474668563 
8.33669369784478 5.766123603156048 32.240407600105215 1.97788227798001 11.675547834640916 0.7009843731466306 
5.715589109806103 4.684239120233061 18.065341911545296 1.9779504587190215 8.514291923941762 0.8399576578099003 
4.897358583533379 7.6592440619780024 4.187455696055466 1.9779550816450302 4.975304168513794 0.8126683604148958 
7.37160782193639 4.72440043888246 37.74583268731003 1.9779924157340685 10.223678459896508 0.8050648695475658 
4.670600348894782 7.252868464690339 8.647930387274783 1.9782603490413189 5.442548333394335 0.7884236695286555 
4.538323198398087 6.243872353716506 27.542136535978628 1.978326880253573 6.471945811544185 0.8667281564015691 
7.54274882037231 4.818674075753609 3.4196146112752785 1.9784291662657065 10.421425239146 0.8359067641023111 
5.8818891232217325 8.379546878298203 20.72368452964976 1.9785746191923415 3.7365717578702693 0.90157857875535 
8.292682836586 5.661776324632095 1.6290206274588428 1.978972127781819 11.568690970331375 0.6776361428333681 
6.383642766015782 8.47559728611975 17.642868428018176 1.9790208798353246 3.2250631062793627 0.8078960004136944 
8.464921421434838 6.2639507660092555 13.405468437339522 1.9790491235138956 12.198119842772373 0.8505637172316689 
7.6200159919842925 4.86822792357534 24.137589735920884 1.9791705160748039 10.517144907275137 0.8866973246171043 
7.872792490919043 5.074299750304572 39.686472841685244 1.9791868090469154 10.84373413069293 0.8688624059302804 
7.93164409975231 7.866656315754284 30.007164274888808 1.9792307378743568 1.5085267540739942 0.8037588879041996 
8.46876134511652 6.703578076408899 31.645484072526486 1.9792587671194888 0.20393874830178582 0.6643986625853476 
7.139582573603709 8.373072804473617 20.621432683184366 1.979259356253294 2.457741726451747 0.8585944211638873 
8.356584136014147 7.186534854199007 24.360495725332107 1.9794531467376169 0.7011021044800749 0.8024996181227168 
5.820711207989019 8.359274787396362 38.99962087061028 1.9794787187538858 3.8027395592615285 0.9086053709759533 
5.072235964685142 5.128799407975118 25.915547286658217 1.979570964655715 7.733757883705678 0.8474655936901548 
7.9402883011504155 5.141893317532636 31.53393616074269 1.9796171729385603 10.941633371840119 0.8816473458813696 
4.553272585893149 6.139446553296732 18.918851092601535 1.979834945838858 6.5824116775122015 0.8214777889035625 
6.972412535622686 8.422650541358752 25.62015019926804 1.9798380509527924 2.6329080533222218 0.8995828947970267 
8.086601807960962 7.684501379350692 38.11973546551995 1.9799870743791959 1.2697638929398245 0.8465010328531275 
6.442966983643556 4.5206002722847725 22.012988558849123 1.9802212116412214 9.27453171218524 0.8239402964063088 
4.5257191843363564 6.346713320634997 32.852174680912505 1.980222599903419 6.374492951430973 0.8525294041454798 
8.306704725761112 7.310744115435158 22.41171160022037 1.9802747250824246 0.8352941341885423 0.7951669741224877 
7.81793280161631 5.021651270867956 22.155032804713684 1.980520596838758 10.774987379743031 0.8096121052098143 
8.480172653807273 6.5398340008046745 1.1069129057064515 1.9805732721881923 0.03983668681557262 0.6879201955098868 
4.5539206140199795 6.131481875072314 16.870710706915993 1.9806641777284184 6.593118173117594 0.853415643000877 
8.05076302521082 7.732234654261877 5.04261142068794 1.9807241613927216 1.3299353007059658 0.8604965385451693 
7.836152029326964 7.962281468098791 14.51771101635837 1.9808001760449538 1.644933964353962 0.851517794921321 
7.074035465437111 8.39589262261994 11.54687464556855 1.9808900908642857 2.529185475887944 0.8795119958817593 
6.856625514645684 4.551449276266245 9.679330222973498 1.9809168787860945 9.693431467581739 0.8951953606144264 
4.8392730158162 7.5802124952691265 29.138998662368337 1.98112926154044 5.081406907710104 0.8270285308576681 
6.903093607478997 8.439908660620496 0.7787305435414069 1.9813455195752299 2.7063629050733162 0.9051753273055503 
4.664113176492432 5.7548273709763595 10.16023852598785 1.9813537482677643 6.988568326914173 0.8362614297027042 
7.189999547406654 8.357365623138424 13.668227718689586 1.981390025572393 2.4075934573393027 0.852332484325556 
6.808402574783091 8.457259146187138 7.714136617127579 1.9814074577093008 2.8027259611310544 0.886762371014498 
4.984105467081854 5.2239320275185825 29.825194193061883 1.9814857317992385 7.611485579568445 0.8568868727734095 
7.864463890435903 7.936901436498346 14.530663796315238 1.9815265444889916 1.6075140947194573 0.8072820503320115 
4.719756200279807 7.370257203384044 9.914540597165363 1.9815689709126978 5.324300568918257 0.8807044299658986 
4.607028945078833 7.086297343888731 32.17315031163048 1.9816871575050221 5.630447619724858 0.8234266602104001 
4.519622088845946 6.42393800609457 13.730159442666867 1.9818380604640142 6.302208570713972 0.8495854424215981 
6.042958437432132 4.571332337260506 33.80437169792761 1.9820812150897102 8.879145857263326 0.8230645176404207 
4.849645304957875 7.597716046125106 35.954523420993894 1.982082525367731 5.063523329436194 0.8070201264496019 
8.30175607810888 5.673829068676685 1.6342390948051602 1.9821411081872877 11.601977633311666 0.6879927099981341 
7.680460553795376 8.09242991842367 33.02431454152387 1.982251286834668 1.8492217050233606 0.8719916165961674 
8.45940342221235 6.800490256237104 5.704000457359605 1.9823108144463395 0.3016531119454662 0.6534706831996373 
7.57094073086915 8.168233920106038 31.775967011696693 1.9824021946181654 1.9825872769038213 0.93615826072145 
4.933183402532087 5.285323116386129 31.102417943981727 1.9825120886609582 7.535647033831603 0.8404513275149218 
6.946294070935526 4.568109282654044 1.535889761084178 1.9827708242557114 9.79373854146305 0.8899748630028775 
5.535038004998643 4.767790130145832 38.82785715992376 1.982852159142783 8.336176229134242 0.7873499424544841 
6.491871159143434 4.5171022801828755 20.104351068965684 1.98291438173957 9.33613501793103 0.8757521511484623 
4.997808521692001 5.205628692145929 27.916331510516663 1.9829211583159385 7.639827283770776 0.8431443595125189 
6.222376406136448 4.536597297203318 7.687554527290743 1.9829334414495692 9.065815021365859 0.8635757348285391 
7.515459281524873 8.203232878221666 8.466938464803427 1.9829674202795828 2.0487606209749103 0.8568942064483067 
6.689995442899834 4.525866893535454 3.9844404618549945 1.9832548475579401 9.536155555810055 0.9404028202885857 
6.061037009321861 4.5658863547745785 9.063157235229212 1.9833013134247317 8.903458983446725 0.8392816466992383 
4.581790473457064 5.995456719857723 30.354307267362792 1.9834544888292258 6.741355416429641 0.824219635255317 
5.97716281727476 4.58668041545452 2.0222538682971773 1.9834693222344926 8.817789492760951 0.8374608584088965 
8.137732911066864 5.381028445242432 35.92075338391453 1.9834985324794456 11.273796202126826 0.8912043949045508 
8.00729150469683 5.21067411709126 38.444591363134 1.9835042002651877 11.059164380333458 0.8329891748921315 
5.356883210538836 4.878753194072907 33.11161412000112 1.9837230653689526 8.129809749464195 0.8509122387631582 
7.708978182467028 4.927192278284986 33.96532952863065 1.9837722588965845 10.648364643071131 0.8768278388814301 
4.674880318149103 5.722459061243676 12.917516899697006 1.9838426763535415 7.031390204130096 0.8175832182873206 
7.802100912684869 5.003235468957133 15.238562791736612 1.9838777301544426 10.76917883466002 0.8141875696463372 
8.393581333664088 5.9078327267610025 17.31584688245958 1.9840142002254841 11.864597145547052 0.9013125155855727 
8.349135769311296 7.219195305332292 10.508021203625901 1.9840728264251024 0.7359563660565165 0.7764394042604129 
4.559997517228844 6.084136444168953 23.834199241854968 1.9840746281898514 6.6521246391902835 0.8545106658815584 
7.481483393808858 8.224324855412913 7.006762327908866 1.9840881682317737 2.089905222774277 0.8963211150961776 
4.593134958260189 5.951835017706751 21.957382345948865 1.9840915138223676 6.7885969597345195 0.8488455856642452 
4.675373118650603 7.279331258350531 23.788620462921017 1.9840918492814414 5.4323031737729455 0.7767453205652655 
5.106847207181504 7.912832646711157 32.72549676827069 1.984180130872907 4.661198419689699 0.7997068929910871 
7.744508948351436 8.045375177333629 26.440921325357813 1.9841842054722978 1.7715289291986949 0.8850505182388858 
7.078958433300549 4.602008689897087 23.097994131856225 1.9843295796605958 9.938437031312624 0.9128083309453892 
5.15408738226593 7.958291996856985 24.729250877107148 1.98446373679967 4.596297050028355 0.8245309396493664 
8.026472268198512 5.231684518451697 5.38030660804904 1.9846263492945524 11.093856020785914 0.7909096307454276 
6.462569147001327 4.515580195032703 37.03213246532175 1.9847727908006645 9.315588355791904 0.796236742099162 
4.515046816872147 6.4971421529979345 1.070546454449321 1.9849552404270692 6.238778649019643 0.9427121551169775 
4.695720820391154 7.32778960217351 16.874795651058236 1.9851093127171977 5.382526742032837 0.8301624705658451 
4.9092018151199905 5.312510401443854 5.037945030837754 1.9851373785450144 7.509443873099899 0.8163182239929917 
8.054015665873271 7.735243412274031 4.9798351377440255 1.985142558444087 1.3332341125630105 0.8653884138040524 
8.38399227613595 7.125720916100576 36.140924303448145 1.985183508239395 0.6365742075991179 0.8235727340861334 
4.873176603010652 7.637742789003779 4.13632478881695 1.9851984835078988 5.025119462397701 0.7861887855917493 
8.337057136518204 5.74687375612325 12.35198111364953 1.9854415282370739 11.702429397786226 0.7563299582894765 
7.013060969385286 4.581979413826383 18.12980727349516 1.985455748006577 9.875189471442589 0.8405459600540881 
4.515500403457491 6.435838119442954 13.794738728446482 1.9855365510596874 6.301920094734832 0.8329828127990623 
5.395923226684278 8.150295033324184 35.11752657030363 1.9855626956582673 4.289659050331952 0.8365350235549397 
5.241466830484782 4.9640541140474514 17.035751086686936 1.985707809156367 7.994337199172122 0.8536843964929122 
5.075441426096779 5.116571165544231 25.954482520172334 1.985759922670619 7.7689768235725225 0.8693352605113238 
8.484413360565659 6.573977061036452 8.027672351047833 1.9857917794046493 0.0739941826193995 0.7002420652695885 
4.5762062816196405 6.007304299280001 29.020475683960207 1.9858830087363404 6.736731025275962 0.8394496447068827 
7.349433176896703 8.295099339389772 27.556030549895205 1.985930099547922 2.2417600320584423 0.8690896327867582 
5.755633784875071 8.341210550479182 32.032735567055425 1.9859852349439218 3.8825766240014836 0.8648705606947735 
8.48306864714523 6.3911347730888295 18.37153537563863 1.986054605724837 12.369829299942511 0.9770591839985509 
7.108821914327619 8.390468467964936 11.583518693026434 1.986085383797796 2.500951341317643 0.8708461920152039 
6.010575512918237 4.574907937782806 14.077068931431626 1.9863322422411855 8.865853042631457 0.7949331363520585 
5.409460615982869 8.160580300161884 3.453826540679337 1.986656256471712 4.275050688985768 0.8359685337550978 
8.10338980725529 5.3268007919283775 28.362832469263452 1.9867700561036352 11.228230755354723 0.8681511494226454 
5.329383539484883 4.894261926556553 17.00691322840381 1.9871430894967814 8.112412917827633 0.8235390725100032 
5.898351763299534 8.39396854810202 13.648438724475618 1.9872336203688936 3.732780039322545 0.8486006011532085 
7.333849291705651 8.303855935086784 30.69901056024237 1.9872596397617082 2.2610929130433313 0.8699492603597404 
8.44954888669291 6.886326289877555 12.479965941664183 1.9874578898321646 0.38880146245490366 0.8037285869510948 
8.100045624544762 5.321054583914899 25.176486574549095 1.9874753570127395 11.22560461010697 0.8713562318518216 
7.262455270967779 4.664494890968692 30.7820975543534 1.98756560784961 10.148696881632553 0.8083785399308615 
4.56337214786832 6.947509456558034 19.872573320385072 1.9876599687474308 5.7930388734376415 0.846361215752227 
8.211380976025271 7.5111337216156215 20.426766458186385 1.9877666482989065 1.0607695210553771 0.7935952596698734 
5.360825757552041 8.128997299921151 35.16532074686319 1.9878003314737829 4.335510025372438 0.8202738643726467 
8.287355355081274 5.62988611157188 33.477925561887304 1.9878977197464691 11.589722208762408 0.6382404977085299 
5.526570510064305 4.766701846157215 13.027457369143242 1.9879354773209512 8.350679621802316 0.7725361889665481 
7.744975418841818 4.95010952962058 29.28097611695782 1.98799503613397 10.713541119759071 0.8462562316397958 
8.427354479907784 6.0125506138666935 37.91522371481795 1.9880397871426854 11.99875180185846 0.8587666895075768 
5.652878627630754 4.701331232447844 30.566874923926456 1.9881710074569416 8.493929445459937 0.8326624035259023 
6.381489699691771 8.48464706908324 19.665006794768445 1.9881822552522295 3.241609974894656 0.78847176190887 
5.312055798540509 4.905634491664898 33.070219747746215 1.988268794692981 8.096306738385412 0.8234125559781692 
7.478237431138838 4.769015917146106 36.47865711581195 1.988279247684955 10.39229196226723 0.8138187311743669 
8.35415390088584 7.217989213914093 29.358333212184327 1.9883146630921262 0.7345867394734746 0.7730210946790351 
8.43770545052541 6.0542168865057455 15.36667510068964 1.9883221563098168 12.04339173471132 0.788511853442583 
4.5143669000315505 6.607068060235278 2.342556115939132 1.9885176331159007 6.139992526650293 0.9023623531646057 
8.246976637013045 5.549846572906629 14.312176791100697 1.9886475065447589 11.504424179547474 0.7726948664036438 
6.484384289245824 8.488620659450431 21.627752912853275 1.988681969952818 3.139430204797261 0.8049761613984642 
4.6094826032094804 7.117332204259968 21.833284224866333 1.988757169184834 5.620162608381426 0.8323844392805517 
4.963972065390692 7.763281701550667 5.412017646656366 1.9887841696305029 4.879126576724758 0.8310305939899532 
8.000867166925978 7.805023390214837 23.442075709176137 1.9888912242162056 1.4234769122237925 0.8494198627450628 
4.516467898018849 6.646005547929821 22.9482301626744 1.9888984940453978 6.102171891737498 0.8948080763209055 
4.576030406300495 7.004265550830953 12.916954149934746 1.9889551888454098 5.738656667202843 0.8396617034577543 
8.299043133026881 7.3484085928407925 8.800020455474886 1.9890584040940775 0.8765013136480064 0.8261789581962388 
8.418971817697848 7.024097102069643 37.27208767054783 1.9892537820791925 0.5303579322067158 0.7388750839658886 
4.938420150296258 7.732641858060287 20.814630712978897 1.9894566035083756 4.920674137432851 0.814464953842861 
8.463750296816343 6.8191522856146065 14.430633138196875 1.989515873186064 0.3205372085506095 0.6827335455517257 
4.72398406368851 5.602954568207888 26.794386244185958 1.9897042777084926 7.1814453480930815 0.7699220696188847 
7.527275167081044 8.204025311975782 24.474851165733313 1.9897227276069291 2.045996788308459 0.8977202199907658 
7.506808796336047 8.216206092858485 17.59494408100032 1.9897304605258035 2.0698218067574654 0.8605339080719316 
5.484359309627537 8.211201660439643 21.677243628236518 1.9899088257082653 4.191625687233829 0.8794985446351467 
7.539588317945029 8.196771088153188 10.637120139675488 1.989918590395178 2.031907632007364 0.881119109431603 
7.758093485176914 4.958073661187234 15.245863327693577 1.9900593086059364 10.739880560130885 0.8175332053840478 
4.755842910756932 5.5416947982632205 0.5598704978127316 1.9900836192563918 7.251872374655434 0.7730585140130208 
5.221645618236547 4.974657841307398 34.21907081816187 1.9901906005352428 7.990331875689339 0.8231094248902132 
5.1409185656261815 7.953922043808797 24.74063682540816 1.9902240212430218 4.622279737929524 0.7588427996873499 
6.462832378809011 4.510118609466968 38.25335754037636 1.990228474435703 9.34156094943356 0.8360569281378087 
8.097867518070007 7.686611082904388 25.51655209722086 1.990283011879147 1.2713176451372785 0.8209976563767974 
8.415205482382156 5.958371569626317 10.366040660250924 1.9903199231117916 11.957002251791739 0.8752496540942791 
7.26650833943577 4.663157017406867 21.130392368791313 1.9903585549157252 10.166187693000744 0.798199191973973 
8.107509783676715 5.326258012009395 9.647705534578911 1.9904165290181093 11.250833625343425 0.8610292944027657 
6.185075777359225 8.465466310667233 34.514096583134716 1.9905363810726397 3.442980273254525 0.8014396453992539 
6.311399694479693 8.481650071294741 17.712551448965144 1.990604702170875 3.315718172505255 0.8274173597574007 
6.1032438687630375 4.549272922427928 21.039880948055668 1.9906661093330027 8.981362034573682 0.8470768901392408 
5.53468629892785 8.240955952545335 29.548589031017393 1.9906677699155728 4.134751313215723 0.9041130319161669 
4.849177098398243 5.387259725504006 9.018942605420044 1.9908307740584736 7.43513714205184 0.7886495722657434 
7.33929822766898 4.694730422690537 28.038752214845815 1.990833936250682 10.247971707313802 0.7651447941701842 
8.49009325499678 6.5566752928464105 34.18108236569209 1.9909001111062543 0.05668295039125226 0.6883948407007501 
4.51392533079817 6.358290753372511 25.935171635557985 1.9911238289531084 6.397129145401445 0.812826985031909 
4.8672774296869985 7.639666938218614 4.209471925909014 1.9911362890766893 5.041953886785695 0.730562044297747 
6.37385815510191 4.512786586744948 6.471823808674387 1.9912129255444015 9.257143479756653 0.7691305655368619 
8.488993181785606 6.594683961910679 32.94657738754688 1.991245572457785 0.0947196785522415 0.665358331600541 
7.663918102418869 8.11569585672001 12.57191602419816 1.9912755837805445 1.8847857173845952 0.8832880748341976 
4.530645247209787 6.7946731713032875 3.6946911760307444 1.9912785893047051 5.960026787281059 0.9029913220486689 
8.36167395509264 7.206692393846158 29.368514392205746 1.9912920565779104 0.7224365492165425 0.7102616371617636 
6.935048652491799 8.443329938241181 25.62110930617606 1.991431289022899 2.689547359914851 0.8618594222395594 
5.371905224250089 8.14110967668 28.40964559811834 1.9914413860234423 4.3274302178943636 0.8069654126939089 
8.072537582747826 5.278044595144461 11.255916818195061 1.9914942783272178 11.19735538042389 0.8529926295459916 
5.116820913301465 5.067210521170907 2.571276971866382 1.991499454311635 7.855681728163617 0.8415873062411757 
6.770148521316596 4.526390339951881 2.7047012312775465 1.9920128799294434 9.658123074765054 0.8956562734085486 
5.281016853913966 4.924451322307645 23.913012712740077 1.9920525962483846 8.075580220190478 0.8499653558853372 
7.963335438386885 5.148282464625542 31.525283035852304 1.9921071509027144 11.03112752208275 0.8245277371955209 
7.837099338401597 5.023168200887632 32.72756268852846 1.9922014967426027 10.853853454277878 0.8209299067991441 
7.859141540823336 7.9566186308165 21.49036221624803 1.9922358202866868 1.6336388239267787 0.8271858539704777 
4.651581378464664 5.756761479519197 19.90024513396179 1.9922487040440224 7.02049143137773 0.7890433084640803 
6.5821910896755575 8.490586026903067 6.528806462963402 1.9922821350711837 3.0472550379182515 0.7872146605660589 
5.160283397225037 7.974577432567383 39.6655996367217 1.992289933816838 4.598825107095479 0.7741844360386196 
6.454100170407857 4.508175977835691 17.074719702612633 1.992352812537828 9.342837548060377 0.8222316743122308 
5.418610675235444 4.826287534866008 0.030244836596772018 1.9926656236457867 8.247162264595449 0.8359636002421797 
4.513485133311277 6.656980427153787 20.846830415071896 1.992707748287414 6.103132773394982 0.8979068024554286 
4.584631348055874 7.050984171087913 30.87847748253 1.9930430576482012 5.703073984054075 0.8078234962792858 
5.310153122851132 8.09901939202204 12.798755772415646 1.9931378796067891 4.405865944150605 0.8118997792110862 
4.969173892743106 7.776465858064114 31.455174066507453 1.9931868094743779 4.876440627336203 0.8198034719126843 
6.502381897964778 8.493247340541316 12.699099105248578 1.9932487637053593 3.128605937885185 0.7943120875290198 
4.926549542381691 5.275771187932367 13.91730036346489 1.993610425051945 7.58131700639106 0.7634329451232915 
4.691104919745648 7.338322132771513 9.903604406365083 1.993711466000779 5.398202781403526 0.7803779613386284 
4.7658965215950655 7.484020499330821 18.790568167098733 1.993843328077554 5.234734753230402 0.8739389124272011 
7.438855086852358 8.25897562121392 38.80597551315689 1.9938515767562652 2.1543842317270148 0.9161457950523014 
4.796854325189274 5.462794000082868 7.561715143921369 1.994116715714148 7.355497665342135 0.8138697191337426 
6.048099206603032 4.5577168123085645 33.80411215782648 1.9941610537420527 8.941401828049113 0.7998651554585282 
8.216815260699077 7.51460386908618 27.394108746331348 1.9942105331518754 1.0644316372977194 0.7919403636240245 
4.656892330018751 7.261499139301584 33.427326286334626 1.994223363191987 5.483701084776284 0.785490373498096 
5.516048334558345 4.76536035138998 26.907742750328758 1.994275705727596 8.3687953746898 0.772430771187399 
8.253130899834378 7.450969247912697 32.43259073792382 1.9944449008257257 0.9912807445893144 0.8173281616940955 
4.846152103437241 7.6147540457385645 27.716385799258234 1.9944647019828552 5.082903495317865 0.8164599457429762 
5.59819222499574 8.279062544573076 23.825465386391514 1.9945728366146374 4.068827105258935 0.8838295008972711 
5.417460990140935 4.824757404837904 21.964512013922302 1.9945747568121073 8.254928422061994 0.8052756668984357 
7.260958052287178 8.343881821439599 29.43320954407252 1.994732395279153 2.3525781950060676 0.8768652188520594 
7.16729824576751 8.37981257815753 3.33728388575517 1.9947386489973193 2.4529116976157503 0.8159490200229723 
5.567636578360533 8.263490162665448 4.648479140981383 1.994792997739128 4.1035728252281825 0.863754184599717 
6.086797091848025 8.451549095102088 22.703543514734697 1.994813403278369 3.549661869696793 0.7599371729083322 
4.510140934761136 6.642689065484138 35.39363105298579 1.9949684882027632 6.124567340005598 0.8832335898151102 
6.946394846521546 4.555494843097158 11.158941271793786 1.9950861295249251 9.851827865041319 0.8000200581780799 
4.6940294486641925 7.347880481966419 16.880233781511052 1.9951017377546862 5.39206505256729 0.8002006288255512 
4.80028577825966 7.544704472771809 25.958138529745355 1.9951029725344482 5.168276941511287 0.8033941033721265 
6.6975404231222 8.485307254616451 9.669172127680028 1.9951108024367992 2.9360481024644685 0.8476116772766367 
6.312054566045449 4.5137593066047295 39.52940234937569 1.9951129236821892 9.213523629093139 0.8047886898242039 
4.556508960452426 6.951698482078518 26.802224274796956 1.9952916928393578 5.81274527763588 0.8494572672828086 
7.345123677808216 8.307677771185961 30.721717002358258 1.995478126974067 2.2618135922818876 0.8750605961721272 
5.855698786668366 4.6113835880316785 35.0081203643144 1.995493925086397 8.747487340155871 0.7936422988223462 
4.647033312596795 7.240941059298629 33.41762353855487 1.9956149924222812 5.510293217127952 0.8326170549558174 
8.15980745483623 5.39162298864937 4.157224511641786 1.9958608133886695 11.365262085480424 0.8486652032662678 
4.5047738391484184 6.447489109588986 9.367037755232552 1.9959170389969363 6.322875256944197 0.7942582497755781 
8.363333411469828 7.215470684092804 3.103242385231429 1.995973372090922 0.7317529020417339 0.7222254576104391 
7.980089987476422 5.160698992501766 20.260380420353446 1.9960945768459317 11.07369726231999 0.8063424687003978 
6.799905236926311 8.473572003926943 23.62356545038945 1.9962288460544872 2.834623901916183 0.8452622089171171 
4.720232344415159 5.595877479595223 33.543785810934956 1.9962490926157095 7.209693163086694 0.7741059892045897 
8.332394582734796 7.292291606188328 34.85105953479012 1.9963456354229585 0.8147192648122736 0.8051680922637241 
7.507202493197849 8.223672196753267 24.5236932512786 1.9963723861454796 2.080169379154686 0.8474701522415656 
7.98293307068602 7.836597902632232 36.87601758796121 1.9963928584963302 1.464442309201024 0.8414583626914133 
4.50374262875906 6.47402104718383 15.903666267446027 1.9964264069139168 6.29793821943948 0.8497483530563985 
5.670542112408441 4.683927252478864 11.335370705053094 1.9965271377010692 8.553024707709122 0.7807331338473631 
6.9366342699308206 4.551802170452411 25.051839603465297 1.9965280535800018 9.848608762830082 0.787143517714796 
5.92035271457674 8.41073994245672 0.2822489757754596 1.9967268474175572 3.7245651374802407 0.7928041598562205 
8.478146066529096 6.7718921835945 14.375752293131178 1.9967441548742073 0.27273949460684754 0.6430318116737194 
6.333893115974236 4.510167341293783 32.843618161033106 1.9967537420960557 9.243181262178393 0.7527088412739362 
6.593465203350938 8.494615763731678 38.294046932656414 1.996804394317163 3.043073641562989 0.7842990709576207 
8.237716960702432 7.483889935993914 27.363004428064293 1.9969225427299382 1.02880119943908 0.7796026305563597 
7.582955905006308 8.177944163778097 0.04702416053430625 1.9970703815702162 1.9923915062079054 0.9288715607280278 
8.337956348667126 5.718819907546207 26.2874492396246 1.997079336544222 11.745407209853692 0.7809030336027125 
8.309709514765553 5.6553916929887365 8.546234007256388 1.997100828727835 11.676096163862429 0.728719532777623 
