226

9.910477943642894 9.041348442826035 18.90170573925593 1.8394073391415322 0.8180499945447872 0.35976388910429874 
9.754281671656036 7.117640283297273 15.62143852459571 1.8828440922422027 10.615327302956283 0.08377613405667188 
8.060305388124796 10.157210917520237 26.579208408596507 1.916621384020031 3.2006275148554586 0.6316721225625628 
8.284727845417198 6.280168820513078 26.541546444778184 1.9701372792082648 9.318782848467215 0.8365109558299113 
8.09554014090336 10.219906459017063 0.9489377254328701 1.9759527588860273 3.2584369338057826 0.526743597177657 
6.3902880372582676 7.5625660904541565 34.5770721789604 1.9826986569719014 6.930841589201001 0.4739743122227465 
9.915449705113948 9.351145806356651 9.041531052951449 1.9965582403528792 1.1663648390454906 0.1782712141886749 
8.062876275184886 10.238507048992023 5.543364179294528 1.997292059834928 3.324737591666082 0.4473487425127839 
8.872219497078454 6.345630770941243 21.21618937133575 2.0034418541925305 10.073680591029293 0.34803349195907224 
10.199834524257469 8.718898475578115 34.157481965129676 2.0054227615108573 0.4732795495346167 0.2575930139489469 
6.401977280001045 7.458532571819813 8.506608589440042 2.0103752543996594 7.129266097445415 0.3781001166209968 
10.258382314078876 8.372489025654618 24.472309855850895 2.0121140824790773 0.12256480665428882 0.5840213232323347 
7.747462583678974 10.19874651352554 36.472673065261816 2.0125001437964034 3.6691400160313137 0.5865699009312471 
8.478451187538884 6.240343287387647 31.121052940206567 2.0225998238988883 9.76021686521247 0.665813844194594 
6.315843937818901 7.64676284203183 3.9083267836207938 2.0260441114707763 6.97753080352763 0.46901341456499984 
7.364621929649367 10.072551079948767 6.26025510652665 2.0262247571481833 4.099076764177548 0.59995754261227 
6.476128877189096 7.267933412727075 14.34864949440086 2.027578245636974 7.395019497177216 0.21904926883976508 
10.178494646078352 8.88701548984097 23.55316595422343 2.030980141274206 0.647951381743173 0.1250119546385215 
7.586003501078352 10.19411714459227 1.8244807566598524 2.0543813722086295 3.903151762742734 0.4394719126225278 
10.029721192576183 9.283223670171427 39.1855929393571 2.057901522402693 1.0824520720404571 0.28688762031323406 
6.887267580806846 9.792931355887417 15.444168855472299 2.0585618317895165 4.722870651027083 0.9150823125472891 
7.982552993056082 10.291298971380249 31.665888565090626 2.058744615556119 3.5020734986421544 0.5790854679649734 
10.173565600321261 8.989318966792432 8.08600398780899 2.0607515991497642 0.7561743662472757 0.5948851410470193 
10.240721549834507 8.802286100750495 29.379035913681705 2.065911959899962 0.5590854805926231 0.11348990046325044 
6.291150158347259 7.543461585481571 19.16792288087344 2.0823758626466025 7.2628258358199815 0.16217648735109327 
10.085169408718826 9.23665920402461 14.050741523954379 2.083589005438424 1.0278422282250297 0.3022338760003623 
6.2392898476688785 7.700649384536195 23.429281781941718 2.084404331073486 7.104267017943471 0.0911177352232058 
7.6914723742584385 10.258368830625923 21.497698550281875 2.084585922562618 3.8398956767259733 0.4710872076833964 
9.05569780287728 6.326971834360366 0.8567420805956445 2.084990713505606 10.652517914765184 0.32895319630238307 
9.467121466175406 6.551338218884675 11.121290403564338 2.089697707814903 11.146687751050772 0.5398308980882983 
6.373938717151919 7.31238864442814 38.46758302261383 2.097312802397127 7.560941537779852 0.5529004113671158 
9.324617362151344 6.44499817481713 5.261537315496859 2.1006746687554 11.027252709400624 0.41865840026749895 
7.187980867835821 10.067049492890188 16.36632527728603 2.104650445251006 4.41918043911323 0.7183189283002881 
6.144803565335497 8.192098888193762 33.83113876832303 2.105992537325937 6.674079092571294 0.6465475432903535 
6.1432901091292855 8.231201192230042 28.835094060555335 2.1067937629170252 6.637486865444776 0.777547444156724 
9.62906249312353 9.853830944233962 13.2658145748849 2.1152037863105497 1.820362402744193 0.6588981160851299 
6.443884742349994 7.138548770793587 12.868062566364308 2.1207018080863236 7.832273265604391 0.8055600188147071 
10.375159385653156 8.217868604238447 28.577928047690726 2.1254022774579138 13.322163741755919 0.0 
8.669952224126526 6.157401356177182 6.031671100182173 2.1343216614835505 10.480464174811063 0.41718836463416553 
6.1126069876832005 8.17987874730153 24.299171160522747 2.1385429336772024 6.788564593588074 0.3818743099116513 
6.517829242492951 6.980242522625343 18.2054856948877 2.1477196242786 8.10582321186775 0.7574551533132399 
6.154912040876214 7.766691454116668 39.354787901898746 2.150111789416851 7.2422494259890335 0.056790825747005474 
9.546699694322944 6.521340976594805 16.494899848071555 2.1609470415670566 11.57395918458286 0.7607112951434257 
10.407792593398273 8.379400965179219 3.7155078549511558 2.161669143489297 0.1294783728671689 0.6271054883087642 
10.41918122441314 8.280951196074517 33.220831442596776 2.1694020284135775 0.030952246198939548 0.514828325177974 
6.983439856463622 10.042734130605462 10.880411739687013 2.1950103098237608 4.79800493178853 0.9070227077843855 
8.51177473564746 10.444922265256462 30.7355102782728 2.210477270351777 3.2098190760958794 0.0 
10.400705364113843 8.78203351810981 38.37594570259503 2.2155345241318947 0.5372843379286323 0.0 
6.808773863232776 6.556603886966645 13.61134443515148 2.2236733512225784 8.910847577250134 0.0 
9.033264814012025 6.162659876306879 36.44415187260324 2.2294601500920597 11.306428007020362 0.0 
6.122314981958919 6.671790628688658 3.128852220586751 2.6491108613441274 10.013089417581243 0.5462191473678711 
9.718180945372474 5.959843270407966 10.222025946370806 2.7203626843585593 14.370234868217722 0.2434061467759713 
7.706560583929377 10.919858964093656 35.485202465891135 2.724605161686806 4.826908527575185 0.5008133145867524 
9.666662202835308 5.898229890264265 32.04137271804016 2.7454971218321487 14.426372645478295 0.2200104030784548 
10.987711898135874 8.471783646593687 2.858308587338499 2.7466806190547737 0.22202535862931327 0.6408113352252406 
5.772962835861012 7.038819283014579 9.391844370444161 2.757294297263724 9.916256365932579 0.46513006226858494 
10.89256384151318 9.042806606297475 34.879339157063534 2.758928409992151 0.8041443048460373 0.32470984560630456 
7.9452254840474374 11.043540623056906 25.228451551312553 2.810116851350362 4.719496426226126 0.41620373478081035 
8.856306979380054 5.505925417173357 6.847004261488287 2.8102586125408773 13.854143677602558 0.38989548034242244 
9.220960188530032 5.609916856624601 1.6674165127296874 2.81297043917017 14.247165345071856 0.4370505160906114 
9.955073908140509 5.9957757809581445 15.489109364313762 2.826447215487389 15.149665256034439 0.5256294154228488 
6.625221504507628 10.563619389312745 1.7374793507122561 2.827143405987449 6.1717731705105034 0.47024532195953755 
5.424997573484934 8.103898503873513 33.032480146431844 2.8287778910664607 9.033034370801303 0.7334654239319702 
6.39310438831755 10.388791325395795 6.407455472401502 2.8323999799240656 6.47418995253091 0.6786298442404078 
8.445734520911149 5.423351457955178 27.670974438856476 2.833417368288766 13.548055318295898 0.39425176237665743 
7.2742760563578095 10.910386990760134 26.413995235287587 2.8336718502329155 5.447234064766366 0.3403188726098885 
8.575601331705496 5.432024968270701 30.17882463204093 2.8367233750681673 13.694064523018785 0.38406916588480855 
5.412592422050896 8.06439856534436 29.518639357914125 2.8434714093778433 9.118762372180687 0.6658528206589738 
6.590823429490349 10.562972905260942 20.943942395822376 2.846526049871913 6.242608302913833 0.49449934986830424 
8.397198356195382 11.093183537359518 26.149604867677027 2.846991391483083 4.324779602844989 0.5512648657412894 
5.548975291233942 7.348714042623893 13.303543623048768 2.847428814619979 9.862519170274563 0.5100961548189542 
8.777074703635698 11.051980974196464 1.9488085071551424 2.851123484342907 3.948410305673752 0.7357644812935019 
10.215406932712941 10.323491253340523 14.174364495251893 2.8569547404248 2.320283280628967 0.5349391505696883 
5.885187753087056 9.863455144173182 15.733818053820016 2.862791376507962 7.279680974933168 0.7572949087176455 
10.677995731534377 9.781545898678274 19.0750079945827 2.870678684929296 1.615472342707628 0.7029466963653139 
8.198184161317105 11.122271662523087 36.4209709040804 2.87273900389011 4.564306523842145 0.447590375529642 
10.992146479846976 9.125049372231034 7.341609373934318 2.8783812674451386 0.8891216186759117 0.4006062133610188 
6.418697232254324 6.023180360085117 12.828824702531975 2.8831225322319587 11.602108842390347 0.612863022674877 
7.221909513122959 10.943662187697111 0.8601025064351546 2.883190252244249 5.580132034677376 0.3361883735709183 
9.199320845028726 5.526245795091349 31.159268462710976 2.884449173683533 14.559998958059918 0.4832407650436568 
11.135852815355594 8.351048479109197 23.298289076723123 2.8876213856782047 0.1010691137551305 0.5456344156982041 
5.561051372428272 7.158302669381719 7.559507236491502 2.902110918521029 10.236487194941265 0.5384997182086091 
9.915301664345062 5.871650951192695 20.760972678943226 2.9034072795997887 15.455545340285628 0.6180234965243596 
9.821257709309297 5.805205752966682 17.259872304984697 2.9061778506125724 15.355115923438929 0.6376659135032018 
5.3767433808097564 8.714888191080066 2.9719261071810905 2.910622722017789 8.677103111065282 0.682932023731917 
9.000245410466167 5.43667907320447 20.76363383425808 2.9116391969251985 14.479582207063356 0.5707887396050335 
5.342335370869183 8.072242957938306 23.067106121018575 2.9130930574736182 9.329619287307914 0.836412700457568 
5.346026269742415 7.997640197889371 3.9165304264481478 2.914918334318726 9.410162146110645 0.7706763943223258 
8.848054028100073 5.397024931409501 25.662678047887873 2.9149846247494486 14.338872607403678 0.540124613284388 
11.118542871898438 7.713638138917302 24.155478244326105 2.918256714880209 17.796519222111034 0.7733375428719703 
11.025502238833434 9.155274516150687 22.688909740571354 2.9194065539697047 0.9204484868714182 0.45904112232952715 
11.169088720304638 8.35242799995726 25.079803221447996 2.9208852172218327 0.1024490046476334 0.5712180557021815 
9.535271766183023 5.627015573483391 21.66043604803623 2.9209537508656127 15.095510957578231 0.7174293953067423 
10.747718655648756 9.769431482687818 34.1864369290231 2.9235715338193358 1.5977912788823652 0.6051738265475717 
5.595217857133504 7.0248232900506125 17.766483589811827 2.9238546811846207 10.449760410478572 0.5336036842025648 
11.080303815622061 8.985832107872021 24.184158317937644 2.924392001715946 0.7438265403511615 0.44977903765887794 
8.817519566907327 5.380445024493131 10.361095413852269 2.9251366149769664 14.35552321451571 0.48555249366657216 
8.672571554792105 5.351853379407769 22.098546962232188 2.928791654141616 14.225657108919174 0.6364690174125547 
10.986399117100106 9.299800460746397 19.918697280253113 2.9308635477363327 1.0736530166726546 0.4048605254157747 
5.569013515934778 7.064570675585006 29.349528448227417 2.9313701934288985 10.429548663705944 0.566560952168738 
8.427470067246624 11.180492647937562 31.946651555888295 2.9358615063358537 4.434062142875568 0.6020240990785786 
11.176274519232098 7.997582231890608 39.353967805315065 2.937141006414975 18.201871698637028 0.30101532936860664 
7.704779249713889 5.362450001673519 35.65918378589452 2.9385728950253767 13.29930011343926 0.8363306103675546 
7.54003093514237 5.398201924450163 26.815557272960945 2.9388447282502983 13.131916725394708 0.886284535751405 
7.342802505226082 11.046741829970621 31.963559135875073 2.940199339846108 5.540700522263087 0.5870225054677212 
8.537859015732062 5.322067793947465 0.8965767304217209 2.9420485747481977 14.15239758077678 0.6503003855874355 
5.402463358000947 7.505867235719528 2.985597514499432 2.9431613102925476 9.998512004231157 0.5415910779932938 
5.344124429394094 7.782630394586132 8.505276623354916 2.943220545577397 9.715756472431988 0.7498986625310574 
9.33292055916615 5.5125189714652585 37.16414458038776 2.9438952629216186 14.981742056983686 0.6845728710518733 
10.876579864576055 6.9179371422068385 15.53422014629416 2.9450489371330435 17.122032206630116 0.9593914434793664 
8.412815776685765 11.19196679000693 0.5701180453068915 2.946468661065557 4.465403401053685 0.4544289860529618 
5.304961045329174 8.374888245404321 19.54942175643174 2.9476857903054743 9.135502384493982 0.6857654444536095 
7.851284562317673 5.328897518269905 25.865039631351692 2.948188207868679 13.4930686481883 0.7612062989133377 
7.027930588802025 10.93372447880698 21.831347289551644 2.9488693975714786 5.892139910764103 0.638152718335897 
6.5551984773171625 10.663697832557622 37.169587943166945 2.949286257415754 6.438204403810769 0.5941879430318325 
9.866559265517289 5.780407024708284 6.683954650933892 2.951635702884079 15.619999650406893 0.9149495450756348 
11.104143524134214 9.010003415468695 39.346012080699225 2.9535978818859814 0.7686503409904404 0.42960809403269395 
10.72979322287891 6.643715725010779 11.778108216488391 2.954576721006547 16.865887857021654 0.8471562115797342 
11.010393863729968 9.303860143525686 18.20391962464803 2.9547242654823194 1.0775895157627708 0.495380622166599 
9.404472406034778 5.529892423171804 16.25306595316711 2.954960535407181 15.110987398365072 0.7988375780787416 
10.417966423298266 10.257961821352126 12.670652663124187 2.954993923607363 2.2076787999636043 0.8654458684779192 
8.532154091085426 5.307734288086628 26.67218951391922 2.955763598567609 14.211292185711477 0.6532793054057473 
11.07768687821015 9.110864558935933 33.26379128607587 2.955824905171786 0.8735241421682396 0.477199863837942 
5.306883653684499 8.527781574554318 38.362222356679894 2.9561962775011024 9.008972517887457 0.6877737944855996 
8.093491468302176 5.297102167880663 31.192343610275756 2.957042530541164 13.778152940047473 0.6035504905149295 
8.002719287971106 11.19698058995053 6.2979113438913785 2.957337036606869 4.892943926077944 0.6574157971530026 
5.827948578507511 6.552683487468158 8.480145930710307 2.9575693452676735 11.09928309823405 0.7468157159097877 
5.310688089895557 7.919712369268527 34.87713058900816 2.9578107484922116 9.623214441408958 0.7116955753091171 
5.36978094081215 7.575509777753343 18.778096563309603 2.9581411205037678 9.973750124981187 0.561995524536652 
10.791388855569217 9.76512947002027 23.608274728700735 2.9587623470186513 1.5906518810263908 0.582483191112957 
5.638144749310584 6.858399535696577 34.820655022372435 2.959449222879722 10.74616217501681 0.736731156521914 
8.749387085361803 5.332595877114736 32.04349791313739 2.959836866662434 14.449689922914963 0.6054107028281652 
5.34418588582623 8.812993008071572 33.85527511430803 2.959850805913864 8.732201217514339 0.7226255335685251 
10.549865066725864 10.113942305173737 17.694442221648742 2.9603479934227934 2.016248211845287 0.8184224256632497 
5.7965361043393315 6.5924393248726325 13.938981725187531 2.960910751616659 11.061235754613177 0.7037982077111891 
6.767416344618157 10.813866032545636 5.482046349251313 2.9616656340726113 6.204920091608459 0.5860508064400339 
10.33010003108933 10.358431660652524 9.029694560032212 2.9618069158842526 2.3462313522210394 0.8802911812758469 
6.376244695026935 5.956118447582686 14.464195022051207 2.9618999847116996 11.928928511498682 0.7333093217602364 
5.37651042166801 7.530343662762498 33.894641081245894 2.9622369251139693 10.033072211283507 0.5626115286235233 
8.329676558770204 11.211925468646239 21.574965061314302 2.962996934833498 4.574578537283399 0.6522498381285325 
7.570611492552528 5.3655152807263065 32.04459043938384 2.963413713907519 13.279272898534721 0.7877338234836562 
7.561634288847971 11.132815592192564 22.65697194341635 2.9638611794209258 5.35033176782717 0.5758217863016678 
11.075969948825849 9.146610707516377 14.233640809490524 2.9647962682956495 0.9108727693311618 0.45141796868319 
7.773330935557228 11.177185619194407 1.6968107182490115 2.9657425792228285 5.137323106050939 0.6605193486078723 
11.122599296863656 8.98795986896408 37.70943773818129 2.9658744896814255 0.7457946683217518 0.34115484943690183 
11.169610579194654 7.723109029861682 3.734609187777167 2.9667726620957415 18.111081601374735 0.24344846675290546 
7.4278223453353664 11.101495977451812 16.25581795511944 2.967659920754685 5.4946653667387935 0.5897921662350377 
8.67758071415048 5.31228601546821 5.116810781942519 2.968667836257045 14.418590644676769 0.5470874654327565 
5.330460671863905 8.7878990740825 28.641041358597306 2.968677365836875 8.785488341411224 0.6610210951038034 
6.701231654941431 10.782987544082964 15.550567388680136 2.9689576091845646 6.292957143907589 0.7812995809220068 
5.760457695151334 6.6319739744246 24.032178747420687 2.9691461915962547 11.03904219179661 0.7049095240997456 
10.486759395509651 6.29667460388789 10.871218219804717 2.969608172216874 16.526844193241516 0.9323384619125837 
10.796793228481775 9.779504763049683 38.41364712723043 2.970781137820872 1.606693266102468 0.5561652833758737 
6.457332640063337 10.619977409066285 11.987581368565152 2.9716071716946066 6.592169616200074 0.6396796080974138 
5.286766721721126 8.005296717063402 25.047611925391166 2.973319888303193 9.585940285095795 0.6793865805904615 
9.055608498922988 5.38773558284219 35.53854388547025 2.973476525426877 14.827982839766285 0.7267849180617281 
6.951656728786874 10.925314512319312 31.0187400802296 2.9737187139557624 6.014699687740098 0.6523898315700348 
7.6916898800891556 11.17202268109097 5.279341833378979 2.974882642862561 5.234575356943235 0.5939434116950961 
5.603069777082441 9.608208154464425 11.85339048395079 2.9750578138664894 7.935965642556958 0.9196512155205376 
5.374454708621782 7.4859419503529185 38.50414769138139 2.9753227431655107 10.119967256591629 0.6531932693258603 
7.458153270633675 11.119088979351798 20.88520034573135 2.976355626306458 5.476747110656834 0.509111094253456 
5.542465366905725 7.011228069020191 19.631844325432766 2.9774653123736643 10.631602357442297 0.7804023734233544 
5.271858037088837 8.319081062603196 27.70183613428567 2.9789430582780128 9.28953837166815 0.6858700938624177 
10.777413452786854 9.827100620998715 13.501559721778051 2.9791047531234143 1.661978076170902 0.626967779412658 
5.522612220949698 7.051046496494269 23.14909092652225 2.9792840752237124 10.593626484416014 0.7611089125934434 
11.224725350664228 8.415021509357826 4.613576763895324 2.979299080393767 0.16510600658847707 0.8281377893098608 
5.269947097185762 8.228015500361805 39.45462583884883 2.980133993933142 9.38435176109746 0.7667378000655289 
6.965306192135502 5.560753603973575 13.687790016190434 2.9803497040626783 12.716340455159688 0.9520853826399333 
6.790469273012571 10.848897282225627 17.186633689060862 2.9806873412990167 6.2072781791010385 0.6285193924773266 
11.229799763036882 8.157193462827857 27.96343808952173 2.98124465301601 18.63889106765364 0.9611169107343757 
11.160510392361351 7.604393302820254 33.32493085569077 2.9812545599942952 18.081012504476583 0.5220262705927416 
7.217615553341089 11.047266638612422 10.76381300731433 2.9816972168879348 5.737850265360185 0.701385567169178 
6.007876705081424 10.215556189929638 11.062895529070268 2.9816988455220033 7.221165348341861 0.9296276585702608 
11.148514873638327 7.550389402274668 28.83713197443302 2.981751743715797 18.02870460000375 0.6057523260716444 
5.560711975151744 6.961358877180601 3.9427723704568223 2.982090881246491 10.701061248791245 0.6623792617541027 
6.218799925327961 6.066550007188946 9.264632548195898 2.98215150762906 11.81856193242443 0.792369368046615 
5.346740030255701 7.567792238023248 24.086639069622834 2.9823356421471074 10.05758569601742 0.5318619147028243 
8.702368434646996 11.198134090924551 5.53820366139135 2.9826383989240974 4.23099650372966 0.6137589820998685 
5.310936001563203 7.741103011956216 28.555648149670162 2.982796226923209 9.882129441776385 0.6472554133008243 
5.6746690732421285 6.741802332552069 39.39338581923673 2.984458005469493 10.957082050920178 0.7078956514541888 
8.098646436380239 5.269162404255143 5.940825496344367 2.9846776498353056 13.913543560086723 0.516594836367226 
11.027474675595013 9.342746592874768 8.95392630455234 2.9847044560242506 1.1187605305927555 0.4655067115637022 
6.127744748614695 10.349022643111152 16.623760453878667 2.9849394312658712 7.049525859295809 0.8345810602847397 
5.28740210395145 8.615831775903999 23.908711811813014 2.9850995263026605 9.011212974311832 0.696810449470968 
7.510569393451487 11.142375949369068 37.17822234753718 2.9853971686174883 5.436658436805853 0.4184128923055186 
9.334462119030139 11.03252393674473 26.56259148396277 2.9863853646454825 3.5811704805948743 0.8022803787844751 
8.887114404948749 5.331542798744989 39.94363041035984 2.9871905196271684 14.718850044270804 0.6749743584368357 
10.99959359234056 9.418245297302386 12.525968690989352 2.987484225516415 1.2002766889808143 0.5932409459228926 
10.920386565576475 9.590834429471697 2.9534442038613733 2.988110000797835 1.3904756546811115 0.6549604092078267 
6.32425571680858 5.964702264333443 18.114017981957097 2.9884907202277087 11.990325986032087 0.7430085716697735 
10.08634684029025 5.891955134644201 11.990628582369823 2.9887364060543784 16.06159722891907 0.9146571152660845 
10.097932944910152 10.59900237405487 18.54378538596405 2.9887569861398435 2.702509013364658 0.8623744812573558 
5.390188971241592 9.120578532383778 29.61751299029502 2.989385572530869 8.508052634489108 0.753526176583515 
9.490127926614024 5.529866980759913 26.429983600566494 2.9894884038457468 15.366401995352195 0.730164500779829 
11.19309434341641 8.776244829797518 19.0675666328383 2.9897722212801225 0.5290007173129148 0.5660909735284241 
6.891634610169442 10.913813838189101 36.20551807979435 2.9901606473260367 6.106979618725234 0.6880438486725309 
9.492686443240002 5.530134956428055 11.182136789018166 2.990306915929719 15.3730484222685 0.7562253936775228 
10.903093815107363 9.630095570267256 29.459296159233684 2.9905803073704993 1.4344728367216355 0.6154720040454539 
8.120763824943815 5.261759664875223 21.245968195319833 2.991033648993236 13.965637586342798 0.44116399007590007 
11.187221482486848 8.815118350799866 28.828125852880845 2.9910915712483614 0.5685356088816604 0.5227989632668653 
9.412171769938858 5.493192924516743 5.784360185824006 2.9917600963776074 15.291921192332426 0.7108216317840788 
9.422964354293791 5.49772295366723 19.859248781408795 2.991801182601221 15.303835958350884 0.7013022670589735 
10.8052818829887 9.80613677394222 8.057388419537183 2.9918267263906797 1.6365362389914502 0.5001088302354978 
8.575575765661222 11.225227130873067 27.211942819658844 2.992987814787938 4.375152967896177 0.4060724254070117 
7.86419095930408 5.281527732642813 1.7019952963643732 2.993438861568986 13.719363067188691 0.4774435834612577 
11.218496967084187 8.636512049514389 8.236723187691695 2.9935540429409055 0.38759408607357315 0.6109555257958177 
10.031097981942137 5.843261641712671 0.7388214117141203 2.994110810663151 16.016963656448084 0.9345541579669476 
10.565690125321668 6.351611148828711 16.362560171824626 2.9943782304117352 16.758010371393386 0.8090381885925979 
5.543081821273745 6.9697614176239195 33.02751555436845 2.9943975778314713 10.730027075177716 0.7041102500796979 
9.268417404318862 11.066146380292993 30.984717793490063 2.99463761491385 3.6648195131831223 0.7757671187724005 
11.242832131487985 8.361236864326104 33.979172195324956 2.9948986305469543 0.11126245610371654 0.5950981996763938 
6.425472036842958 10.625006174335033 10.250620130165274 2.994921804734057 6.666267108899737 0.694511325644389 
8.451557729302158 5.261709003088901 36.338605296804445 2.9950807335464873 14.315695619632814 0.40650310385586386 
9.963828161856549 5.793639356527843 36.10229532417213 2.9951485070312565 15.938912181047973 0.9354566799106961 
7.831226738061938 11.216155220476653 32.82241874358985 2.9955713706862594 5.125581942404105 0.5727253156403976 
9.669494764771713 10.888078410066507 13.435325540147204 2.9957341478965267 3.22685956014449 0.8910310956293968 
5.87699309026285 6.421384566373609 38.455425130614216 2.995829801199811 11.378586003877556 0.7781252641924492 
8.212622376498189 11.246060779031273 10.115929276903941 2.9962939238980084 4.743946082653261 0.5181462355964717 
5.393511855479929 7.344201205969684 4.872166295896783 2.9966641411827393 10.334490143179929 0.7148941817072016 
11.246870532418797 8.229062301075126 38.381192146542176 2.9969436723629608 18.809414579382157 0.9884995080855884 
11.24678618555211 8.2854755122319 29.740900857888334 2.9969961551333526 0.035476340726702915 0.7885254508102328 
7.565834606832805 11.16796980786358 27.369981745337668 2.997103615961759 5.398090504067307 0.3592277988713853 
5.79272324492641 6.5339805288768655 18.755770396342 2.9971539627284276 11.242938852867765 0.7258729626655716 
11.124609257206714 9.104459166818001 3.8195846299095564 2.998912944614742 0.8664641033929996 0.4265574665506306 
7.0871904052224775 11.014318623613336 6.784309978024542 2.998930410423392 5.9048232193445545 0.657096397606491 
7.910694719087886 11.230674674813846 30.93956350208185 2.9999249308493496 5.052303975063178 0.0 
