428

8.6884315270971 12.238738498398606 14.351784990347383 3.4892817293913314 5.542522591890982 0.8234397489833933 
10.371367160187253 11.839747715442256 5.117820844316171 3.489322629567848 3.794777000870468 0.8947980358094915 
8.468647782688098 5.2720179614955 27.677528388149216 3.4893435099379717 16.16148592394574 0.8486668211540894 
6.403342499196311 11.332402952372505 39.1321754419081 3.4893561633201666 8.054841085822073 0.9227147028558543 
5.715399232234702 10.47255517612937 11.508997695830914 3.489412293572059 9.160784091904894 0.9212140713369109 
6.831860510637107 11.66496163490815 20.500669500260187 3.4894498755018297 7.512079268845447 0.8701649942234148 
12.123794733090516 9.640999666086623 37.24719074762382 3.489465762261578 0.9009772306652195 0.7150179749197483 
12.229459031639673 8.485642250153536 15.42211422473816 3.4894870930786905 21.660482755090253 0.9193984367839503 
12.239017438099749 8.808543926604209 23.642772478838808 3.489508572092402 0.05854667336454966 0.8972432538855983 
10.975725348071235 11.437592003983351 4.3017287219920775 3.4895564338354057 3.067758922354045 0.9485869918810992 
11.686295610167779 10.635521987866616 18.85999686759407 3.4895594388144486 1.9919524649306943 0.9436064637567997 
5.679654714020845 10.408342881791047 13.32268596568806 3.489573224438977 9.23470020497232 0.8918293774485867 
12.10090860871236 7.77596641668131 38.372303050058115 3.489603118604644 20.9386764050643 0.7573857124134118 
11.68371395620338 6.860216981409311 27.654420696392897 3.4896930286453864 19.92937883750568 0.8429613911689193 
7.7842650261585895 5.396584022700381 0.5726921061290398 3.4897052535291335 15.46634170923108 0.9011076428571559 
12.239534676747045 8.713737724039309 32.73411841478622 3.489723085414938 21.890313887834807 0.8949463144173552 
11.228622030645447 11.206543033514702 2.5927639192801486 3.489723606005288 2.725210250249205 0.8227758849020022 
6.156657755896262 6.4148651461136605 32.238244287557414 3.4897390706022406 13.521509688648472 0.9104223043864734 
6.42314481262974 6.1491942303024825 20.161249492920305 3.489762988325105 13.898079139623817 0.8986940505835933 
5.31970708337739 9.391622330435435 13.30354973823771 3.489783475911458 10.31818483069899 0.8774023557681528 
5.852986377195755 6.804224874320083 1.879420300347448 3.489803543242524 13.027563507918657 0.862004162312865 
8.524416243292873 5.267446988669743 26.675475573056328 3.4898515022871006 16.219796616197687 0.8099376509339009 
7.1552284425461625 5.6458389086756995 39.82505685976743 3.489858507354619 14.789321456810782 0.924504121922568 
11.43817457323289 6.524482672655122 15.482389736976529 3.489872477682836 19.51420516221536 0.9356189106399708 
5.618577311913699 7.209339583204235 33.619271305520506 3.489905811242323 12.559542558915467 0.9373355260576298 
11.745583283741315 10.540535712743324 28.662706861794284 3.489919389962988 1.880177312376908 0.8650923254610206 
12.118524615549358 9.662495028673497 26.15174545036412 3.4899291200418077 0.9232255092165254 0.6589452587819667 
7.819737154388601 12.113680158427677 20.545189681207724 3.489947445180954 6.423643453144415 0.9289488485213928 
5.311382491276962 9.346466977462045 30.24320575652259 3.48996607813018 10.364642176637197 0.9121020671517098 
6.886367877094093 5.799238967933148 36.849592913215915 3.4900022002702253 14.480278349152243 0.8909226421051212 
9.852281516596365 5.438618622188905 11.01777284574002 3.490024523000382 17.56783575756198 0.9082907234733167 
11.744613350960087 6.957575764555726 34.73578616487864 3.490056412374503 20.04630138632129 0.9005412620260862 
10.481521644875919 5.719710491583333 6.359014912727005 3.4901033955305594 18.258535571593562 0.879497964683575 
11.230687725929865 11.205019297149756 37.29386162182113 3.490119101543208 2.7229827305237997 0.8186227511703531 
11.532040981857715 6.642441934595768 10.568432041893015 3.4902081633888637 19.66684989980552 0.9001265120049033 
11.766155065526469 10.506240875752523 15.319523590229224 3.490211081434038 1.8403419587994456 0.8111927587919083 
11.21243721415676 11.22346298347515 35.27959005274123 3.490217208754481 2.749006588350518 0.8225468606376669 
5.403486183979274 7.7587163529811125 7.422671223230019 3.4902432565173265 11.970041525125382 0.8850038785850683 
10.40046467454993 11.82536410347281 7.790198857839506 3.4902575851742426 3.763344316252063 0.885171785883042 
5.4651276418183805 7.570321907277384 27.180266361079205 3.4902760366474355 12.168403966688057 0.844291450555019 
5.9217163711141225 10.795215041005756 39.87399693753394 3.4902854968297405 8.7798539081682 0.9433186023157452 
12.239786784940364 8.809416316563569 23.64269609223109 3.4902925526406023 0.059419186675960134 0.921062267351665 
6.892174519336441 5.795225218228785 36.8445743308329 3.490302211498873 14.488575888158138 0.9172988977598742 
9.524076278039322 5.346609570450541 6.517266351812822 3.490309513520548 17.22826266532296 0.8791889474658726 
10.45909584148826 11.793263957036972 19.737007074431318 3.4903386809295145 3.6965866605009836 0.8145664128353945 
9.434129579711202 5.327354221060913 30.229213937433755 3.490349181661538 17.13647063556219 0.8033737084353879 
11.321139990329709 6.389450291955942 11.513924179390635 3.490409112700046 19.33848137169803 0.9389063142592203 
9.709305689955787 12.10599661824662 14.396365291876819 3.490412684549533 4.5109145461742735 0.9060811111348639 
12.099624773955016 7.768632786408114 23.106440021649668 3.4904251509245 20.936208338266823 0.7770381991758549 
8.364428232183847 5.280929743694157 12.100439444150453 3.490431782934994 16.061912002773575 0.8929190163187045 
5.270363407782405 8.475663539724776 1.314908376772017 3.4904342577014704 11.240142319416897 0.7571736468441567 
12.114307537098862 7.820115087454333 32.19557574323591 3.490451425641145 20.989901795263506 0.759765779735155 
5.859825384942489 6.79282033055812 1.8780054997485855 3.4905102154268888 13.04348205969104 0.8741691171066307 
12.229779733660669 9.02402025970747 3.880482536713849 3.4905521192965536 0.2743024978352402 0.9451390017122576 
9.551649908530148 12.147263645190785 25.153242053475182 3.49056483262829 4.674096679145329 0.8504156154827553 
6.065305182486593 6.519160628429637 0.9151233340018621 3.490591721317718 13.386143518689131 0.8989498445437467 
5.3719359961824455 7.870336428684082 12.322292058884805 3.4907197556647516 11.855670093302933 0.9019295293819406 
10.479630468371715 11.78210628013055 10.513853269986228 3.4907434811407834 3.6736473223714796 0.8392129838266958 
7.570398881070723 5.464535243348012 15.669764552002604 3.4908075665927965 15.24675410601915 0.8232064014456877 
6.048592278932157 6.539038266356833 21.09625040606671 3.490838790760661 13.361121192702775 0.9278471610722846 
10.512760840255876 5.736817808165201 23.555574190501076 3.490930062480482 18.29847174616786 0.9077751195086798 
11.052272634034662 6.1258087674167765 28.192382493905704 3.4909653258936175 18.964791848515603 0.9077312369970868 
6.144154922034904 11.073053588640237 28.217743346458555 3.4909893362840836 8.425523127706082 0.8821684144160932 
8.017840264042864 12.163364496323643 6.539521367862129 3.4910048787877064 6.221293901475974 0.9259478369437816 
10.458567077182616 11.794352645684178 32.73581895425756 3.491029144610026 3.698312052223997 0.8409038491943723 
5.455473074074927 7.5952413138637915 29.291428190393432 3.491042149394985 12.144358621322947 0.8590505293884533 
12.135649909162645 7.8986349979415476 14.5805876797466 3.4910525166692934 21.07489184461246 0.9031934334072195 
12.071812684550526 7.676192822508609 2.3285230335628313 3.491060206537951 20.843474546620836 0.9217564683678474 
5.2620825154910005 8.601269347193515 32.80433135509034 3.4910871065941387 11.11634928804137 0.8453687213365757 
10.210036689999487 11.92112655975402 15.314251093196027 3.4910959302376736 3.977456140901463 0.9272302279002241 
10.02451366796748 5.499864348755935 12.795638663685565 3.491098228541215 17.75608393350392 0.9525033156782955 
6.165504549791118 11.097075304300581 31.252269969155513 3.491185932632073 8.39385922221216 0.8581132153387383 
10.476176279728081 11.784621716165887 10.490347044075989 3.491219487359894 3.678394999937769 0.826817085222778 
6.83588299362423 11.669725449317717 10.80657861848836 3.49122336917741 7.509918346775564 0.8663693066561723 
7.676525727186464 12.072096572122945 31.246112307878604 3.491227957166876 6.575160063373692 0.8561783413325567 
5.3093055083611755 8.158141487807224 16.781012855241862 3.491228305804249 11.562747966796667 0.9087179116715887 
6.227495716559325 11.163645457526858 37.30513975527725 3.491233629337426 8.303006493221096 0.8773263321478771 
11.78650140086095 10.472972793880572 34.76799139361236 3.4912714024955385 1.8019126972621002 0.8345240146464528 
12.240475297819744 8.675312059874418 34.77220122172487 3.4912742792696783 21.861629616725278 0.8916952853142094 
7.634310903996379 12.058292982485227 5.592560304652864 3.491355698994644 6.619815876483333 0.9192886435407891 
11.179067007618562 11.257836473575559 26.112620582434786 3.4913622421193793 2.7978102791010784 0.8337133118128183 
12.236079854069937 8.942111181530443 14.519346479265323 3.491369280815377 0.19220825654906193 0.9260906354830413 
11.767620364431346 10.50603517812651 23.562697100823243 3.4913739717550403 1.8400400521441256 0.8110807464947686 
5.3138310682377465 9.36857060911683 27.226326076962415 3.4914017995743922 10.346708990027608 0.9149164433952159 
11.86817913638964 10.320619976758966 8.100027826431258 3.4914020447393295 1.629093336044562 0.9280272464371561 
5.894187564781207 6.741443011751958 24.65329208482263 3.4914131580479477 13.108667707213469 0.9012783585937513 
6.430143810569655 11.359266569309796 21.421020829475104 3.4914187330304594 8.021700181086139 0.9332979659865159 
11.07755991358529 6.147546073423825 39.087817200383135 3.4914612401229483 19.000830746067138 0.9106136144677524 
6.116583557187374 11.042484008640919 25.192623668727734 3.4914703337061677 8.467850765545197 0.9075847130954987 
12.241295305093638 8.787020470796321 29.69527421499268 3.491491575620205 0.03702116450086379 0.9243537322242625 
7.221016657854392 11.888908641117354 39.29483735604553 3.4914950261800346 7.067051890829305 0.9386159967204256 
7.7774755977366095 5.39667112138919 8.621956103032645 3.4915065918773465 15.467776847350056 0.9048855678200796 
6.638852109743736 11.530972308084579 0.08430816017057197 3.4915257972506453 7.751611661457929 0.9095135812240193 
5.651084100102366 10.358703505350654 13.34157583467426 3.4915908584434447 9.297295566942488 0.8281661047317356 
12.240113521536202 8.647374412634257 38.864206492078736 3.4916220305743266 21.835867871467084 0.892023484325858 
6.73268258064955 11.599891045761758 12.550603459266796 3.4916254872376897 7.635404540754429 0.9287206749225693 
5.323209338408043 9.419744424758928 29.22972568206923 3.491625958327939 10.295345547908912 0.8684643367235915 
9.547125719405305 12.149461593610745 25.11116439412657 3.491668446312155 4.680482537065995 0.8390681112610622 
7.779197310431334 12.104005422068461 32.254200892402466 3.4916772808119596 6.468480349411504 0.8264762244800712 
6.166945287282475 11.099413732267504 33.27321415107373 3.491692502821426 8.392377462715412 0.8516445246242127 
5.846905300341291 10.69009596112058 17.78715868816684 3.491694599122734 8.91244636935577 0.9318450190476617 
5.89888163282432 6.734287955000767 29.772000966775337 3.4917003009997143 13.118298734277644 0.8935061049516431 
12.217260118306253 8.337356560934829 3.1091961858316353 3.4917284166728426 21.525566668623867 0.9205058393074578 
5.877742306164617 6.764444738851315 25.65821268809453 3.491746547914347 13.081644082375007 0.9034368234833682 
8.416877222371598 12.225827204901769 21.37597351518798 3.4917539351034073 5.818464443241119 0.9463807229225503 
9.205125533479258 5.288028018625301 10.209123165195194 3.491760193806018 16.9109564511203 0.9298071935811725 
8.950044737264983 12.236031883323903 20.523611968251068 3.491766914967009 5.284700314025823 0.9241705912602776 
5.686070720358929 10.42479816979651 36.876105338777535 3.4917920241898126 9.223044435592694 0.9081330627067927 
10.030431689262285 5.501439544266383 12.773068575570441 3.491797580820414 17.765725526641088 0.9530120417043315 
6.60675463589042 5.993270607184307 7.074616932871962 3.491855901378403 14.147408434712677 0.9302105700923875 
5.662950271894756 10.381937050056365 34.77403160210568 3.4918611884124693 9.271927341794544 0.8696564739577617 
7.72278478358526 12.08739354361694 25.115026655603522 3.491900165498727 6.527702950216799 0.8657685453704257 
11.78240897626256 10.48152270936082 25.615147043330772 3.4919443140390993 1.8117158694684257 0.8259336941505372 
12.138444814894248 9.593876517836897 10.03341892727179 3.491945853093981 0.8523141201266924 0.7841345873076477 
7.783535212328017 12.10559694144596 33.26658501442539 3.492003009628044 6.46447441447631 0.8269868716035078 
12.128797897502272 9.631948652601402 31.174498745723938 3.4920063943227877 0.8916047140286594 0.7664403824183934 
7.281166036767223 5.581929373034548 20.086657421650173 3.4920115562505507 14.939708146556999 0.925792243993162 
5.501974156671414 10.032467705177318 10.59648523165086 3.492047435782219 9.657389446788088 0.9644048802184338 
9.544247391792146 12.15054246003713 31.222445342024102 3.4920649968011754 4.684063174742914 0.8368019209306041 
9.525320166854888 5.345055138734736 1.1712512068719363 3.492101211217768 17.23797470633758 0.8768995208476709 
5.638840963870161 10.336278476718377 23.580402784127024 3.492218485975973 9.324510922866196 0.8174900608118146 
12.119636321619575 9.667219487657999 38.318621837806305 3.492240044515484 0.9281062783300982 0.663420149292605 
6.068236610666387 6.513022319482854 0.9384396092261298 3.49226631566122 13.399160052601342 0.9499078350643073 
11.199713349409057 11.239006297139795 28.1325660906096 3.4923126780794598 2.7706405662785247 0.8332922495392431 
11.610226463499247 6.7461465415966195 20.807601530010814 3.492323596870228 19.80867507107902 0.888508813865585 
5.603306633871403 10.26487907467449 26.69481249794393 3.492354184690375 9.404629556083652 0.8879805531175758 
7.673237409950703 12.072230701410454 14.352893484681289 3.4923680374101225 6.580394993544623 0.8628013059541498 
10.815532641351679 11.566114640266186 11.479474574738667 3.4924098785238225 3.2757383566348466 0.9672741837563819 
5.529452283132832 7.39903623392631 38.441979465746385 3.492424758511246 12.35892553103075 0.8772052415644923 
11.356359239762286 11.074688255529402 0.7968863093899188 3.4924610194088914 2.5436928880408587 0.9662301328905318 
5.278577439405678 8.367032069027513 13.24031832163179 3.492483218335712 11.355699215647007 0.8646676447267357 
12.096664661295367 7.751361728078425 12.774087222828761 3.4924837513308127 20.931149502694975 0.7749832636726965 
8.092181118476184 12.179973665850952 9.235163336888817 3.4924840771749066 6.147753025664926 0.9254853045498705 
10.535267578543488 5.748271791491327 13.671103435458292 3.492499472405858 18.331908710433737 0.9178060982591366 
5.489821524632566 7.497445072816994 31.37294728710281 3.4925145005940275 12.253148606787175 0.9084241543341494 
9.881472223561405 5.445836038477079 8.316744179678729 3.4925247139165445 17.610397468783933 0.9100102012201505 
9.669172290276002 12.119458454241425 16.134222663976175 3.4925818493014935 4.556006661971093 0.9187074024772548 
7.695391553679739 12.079579513461574 30.231332107050434 3.4926062920851866 6.557503105178338 0.8971420539729865 
8.73042663757785 12.242561065265168 35.77937423169911 3.492615912338871 5.505761710888322 0.9178446182150333 
11.062126440704787 11.367735468496605 15.325885605557566 3.492630478712477 2.959341896063897 0.9673426784139769 
6.120894924957522 6.450809466952501 34.31550478411022 3.4926308998904183 13.482070850607293 0.884599612758489 
8.120800649601689 5.314492804828257 16.53017042656895 3.492649640404615 15.826070316912563 0.9096604785974826 
11.741021677910211 6.946462933214457 30.713210914882865 3.4927004779966775 20.05010855433943 0.9182213300948426 
11.033801932153635 6.10741935878503 14.636562533610892 3.492704354885019 18.94822663017584 0.8955818391532961 
6.568194271612819 6.022564280177967 31.404125902374176 3.4927327184003385 14.102536953404545 0.9031249913053941 
11.214032948804721 11.225435374768615 36.28122349669698 3.492740853176935 2.751254991190283 0.8193852052050096 
12.242715016375833 8.734356207377822 20.709865747565807 3.4927500502991657 21.929951952763226 0.9469437439912379 
8.686527626384496 12.242196273516482 34.76597641107671 3.4927730465884586 5.549910939556099 0.7906369181637117 
11.720693675985274 6.912944575170727 9.620901800357238 3.4928202860201054 20.011594759076466 0.8875840474961422 
9.182094376231227 12.215995902641527 13.4679512672422 3.492825954309565 5.053314018367752 0.9537157450760179 
6.891744552294963 11.707486019056537 32.74421314915104 3.4928264860769045 7.445942518990847 0.8516741196342275 
6.043389252194684 6.542210672610503 38.23237815154508 3.4928606405452585 13.363109401150624 0.926358031073836 
8.147101099940627 5.309549568980728 7.675417194662355 3.492876501108146 15.8538592178923 0.8862389416303725 
7.36428008929057 11.956288772697956 23.136133207707715 3.4929224676287225 6.911583960287434 0.9425759007918331 
8.884742778353846 12.240322941092883 22.3313606686174 3.4929228232867953 5.351894121320697 0.9369273148630068 
10.375038757113654 5.658076335512227 35.740927823349125 3.4929561848298336 18.15040240380936 0.9119059222326211 
9.888279854354998 5.447717230937247 2.901751350607814 3.49295755967335 17.619629944006192 0.9124839492177494 
5.27728503185771 8.374352622224643 38.62397506130493 3.4929729747578957 11.349873510624853 0.8518749225310112 
7.768534627492885 12.102287748529722 36.32081461237229 3.4930083633414037 6.481666092170283 0.8378204726968662 
5.497035159525115 7.477419660018242 3.8247625804932994 3.493027479862402 12.276228815800664 0.9218772739895061 
10.440233445892982 11.806875942133507 30.68491900880734 3.493047326792162 3.722567167499946 0.9368983738448917 
12.08349811094647 7.70624208176344 2.314415799884209 3.4930846321790163 20.887748649789945 0.8412726366809913 
11.539650233143295 10.852342951395048 11.607636359324182 3.49313531208811 2.2559206749403486 0.9798803207912011 
5.748431140933281 10.536908943855376 21.310691595674044 3.493201853507671 9.098455563629024 0.9008557895819734 
5.863872156891489 6.782016695071393 1.887457594396757 3.493235207546709 13.064879534924945 0.8912517343633238 
10.41038179119878 5.676591565203529 34.7321628523632 3.4932373380036137 18.191763358632716 0.9004181476029239 
10.686807074416684 11.657154731134662 8.765870263772591 3.4932463804130918 3.4342190199170552 0.9718737500516293 
6.821578718591418 11.66275743122999 10.810770583994483 3.4932741793015674 7.530112918810698 0.8907265341567461 
10.626279415628451 11.696653781394438 14.40021170446802 3.4933068792932027 3.506556056096507 0.9141876959595903 
12.223375216652267 8.3773585206933 13.683866513187475 3.4933074682532683 21.57574631297271 0.9053288131621138 
8.561727909104658 5.261769392224547 33.744414946570444 3.493307766749391 16.273461669876056 0.7979007842351596 
5.36229338871922 9.60257028127443 19.49106021626603 3.493341118274577 10.113385630593516 0.8545774566274182 
8.21108610207697 5.2984383612791355 10.327762746324058 3.49338030212344 15.92109217644396 0.8707981400113591 
11.172576599650709 11.26692828669005 30.192593238630497 3.493394535622291 2.8104264263103396 0.890836011231906 
11.793439419082139 10.465063993828261 32.756355602911384 3.4934178107619998 1.7927179062513794 0.8538933498639664 
8.555647909462472 5.261984061259183 36.77021960147226 3.493426387374762 16.26793152456344 0.7825516110332827 
6.147782724935203 11.08082480577767 31.242854499982677 3.493462325812914 8.42327678328091 0.8853403048596828 
12.205756797824627 9.261967693048815 21.650366283872785 3.493474769400353 0.5138182064794883 0.9059708465327371 
11.468228014068666 10.944506584640948 14.443794564554949 3.4935115122896243 2.3727734664506563 0.9642302045565867 
7.297915827281951 11.927458670829601 4.6301034630367965 3.493535751854912 6.985158531276028 0.9342556316266947 
10.413267480903468 11.822206173598147 29.6746856069578 3.493552559519541 3.7541228423698136 0.8866482782185335 
5.975124620322161 6.6274427564803915 9.0937440504348 3.493591651117771 13.256693030121113 0.9412423117210835 
12.196429799020175 8.177846687406007 19.85508732542472 3.493599543835345 21.37619099679918 0.936667924107853 
12.230850077025144 9.04872184647381 3.897842440882883 3.4936445154432483 0.2990870415968381 0.9309056624912634 
5.274505984397884 8.393581783219076 38.624773974290534 3.493721883284275 11.332890364859313 0.8425097625223377 
12.233127345067045 9.022108219534214 6.565179966332835 3.493739971018433 0.27238407445716106 0.9509579109678622 
10.926211115203802 11.483202834997918 18.857039207355974 3.4937504998464384 3.1386768473057742 0.9608571720987468 
8.963962855765377 5.262804587160499 12.93056897794888 3.4937532756301115 16.678021263841387 0.940032153058396 
12.046669993808454 7.593153992225398 7.690531857876628 3.4937552481221523 20.772809785602444 0.9273083026826824 
5.960152902614915 10.853128646985729 12.463826164467292 3.493765437541567 8.719151231198744 0.9740511740650151 
10.479628431453433 5.714383194023149 11.791448058356309 3.493792195254487 18.273546806356244 0.8869441052127582 
9.929834977611218 12.038557348312764 11.322506212112742 3.493797362117152 4.284549405719243 0.9654997197234 
11.73289396419576 6.930928868221834 36.766992905654796 3.4938054015792277 20.038951635464226 0.9004266434275651 
11.7744321241683 10.499144626581387 34.75934411239399 3.493808323076659 1.831941379803034 0.8537885245741393 
5.269219546109895 9.05156021790638 20.338896618260996 3.493818989759936 10.674220162921994 0.9265124996544318 
5.256626536870996 8.691965059455967 39.599579491480924 3.4938554931791153 11.034308359698905 0.8980994946365891 
8.672912868749435 12.243043299123208 31.736165947771127 3.4938938042467735 5.5652889407898645 0.7994625566335163 
9.654167920259162 12.124887680073662 3.2350747562363864 3.4939070510159227 4.573639696120061 0.8528402240509269 
11.579463614271408 6.700210524423138 2.5267198271235856 3.4939234734995948 19.76247423503878 0.8664342407013627 
5.941627667683576 10.828607446350937 2.5958547219402277 3.493932465424305 8.750300740394287 0.9635343329315155 
10.541200118696114 5.750105339123962 1.0008154234951654 3.493961339449752 18.34561810976987 0.9180749775956633 
5.779342564501411 6.910695371740131 12.274460021143582 3.4939729699328264 12.91365259287408 0.9215991761290836 
8.582338427048402 12.239965668455783 16.146364217671234 3.4939906654203603 5.656073686490156 0.8564640127756976 
12.040377420090906 7.574623853977599 18.974166002367554 3.4940081069285713 20.754744679558623 0.8987952293465162 
11.980751009910875 10.080855444290517 3.696720190399539 3.49412768822747 1.3653359503251217 0.9457222412303589 
11.900843189144997 10.260386174309986 19.764854002363272 3.4941492810308157 1.561881824150916 0.9311781272605533 
6.203196668018954 11.14228711986884 35.279174428267694 3.494172988802943 8.342228418023158 0.8908392658747016 
12.241848840107721 8.622152848772156 7.529067650275763 3.494188491801593 21.826758098541205 0.8752191386620379 
6.874429334898473 5.8018492850413335 0.7766614718036067 3.494189170308428 14.486162575660934 0.9100727206000987 
11.383133289979355 11.046962459131858 17.981151960088404 3.494199115886013 2.5064451579052864 0.970289067214069 
7.944505944107014 12.150103252719727 1.1672420150578802 3.4942127587246588 6.301500885638944 0.9349746331260382 
12.134110338532754 9.620259998997795 28.175260309691424 3.49421740153928 0.8795177801194356 0.7519174565301351 
11.04582772564438 11.384153449159097 17.079988555658687 3.494222279643099 2.98377546895874 0.9446022570534048 
9.539871841558373 12.153793011676399 26.153356732497244 3.494238742905799 4.691979108891257 0.8797418491087585 
11.139653501838659 6.2005992701360615 18.178530122160673 3.49426500716253 19.097747201902912 0.9261763526713123 
10.592684957953495 11.718909049110302 0.7097511356279895 3.4942679914621766 3.547812565801074 0.9474105366798845 
5.891401837141228 6.7404059001975085 26.673389471146194 3.494288468724433 13.118708912296007 0.9114585228117836 
8.165818073197144 12.195121510103757 15.224695666583415 3.4942997500189787 6.075771222942652 0.9355378337895752 
9.88705853037714 5.445859707512035 5.580179913134401 3.4943161239283813 17.624723009193364 0.890779604373124 
11.174432799590983 6.2335616866893915 33.227902641900684 3.4943291465501765 19.146016376275472 0.9185410138133856 
12.221446475435688 9.149438062000904 18.07022785979752 3.4943513557153776 0.40031310631385963 0.9388822270389642 
9.653655897430486 12.125488924001985 37.29469977084351 3.4943553707402137 4.57487673472647 0.8484732773355275 
12.24326883271409 8.662694996914851 37.851762735207714 3.4943596410752256 21.86839506613355 0.8832173155764649 
7.17245145354531 5.631971868396892 2.48421919205078 3.4943896242247656 14.830179958525953 0.9082034723728504 
6.228777850046043 11.169551696796905 36.29882201360059 3.4943943027213193 8.30536954206232 0.8940726049831236 
5.621399172610854 10.306502035469546 28.749421057305753 3.494401482880994 9.36479022104755 0.826989156117884 
11.266978172846649 6.32601613148765 21.71482362472436 3.4944065186229465 19.27726401790069 0.9344887866289746 
6.2856877918938086 11.227520788909803 13.372275774598691 3.494416105517699 8.224184086083607 0.9169493338169726 
5.404209478824001 9.758362184340541 39.756413648297226 3.4944396555669983 9.955197795271111 0.9267811155517208 
7.9758058028363 12.15767594439599 18.743152010634944 3.494514558123495 6.2698421628641015 0.9544907451838128 
11.379763822618228 6.448695595059814 6.141699381016629 3.4945185257698577 19.4445462384428 0.915830894139041 
5.342396923021846 9.524562757167402 36.29721026492999 3.4945251744724577 10.197325168442472 0.8112535547307077 
9.150903085180996 12.221461128724904 9.379006727625985 3.494533681616995 5.087412932133308 0.9667336708591174 
6.998857095858737 11.774137595222918 18.719945053603126 3.4945542871108697 7.323442828219111 0.9128706637318305 
5.670698451441723 7.09773842921701 0.16689305501887475 3.494576701868151 12.699524735413668 0.8942475639173859 
6.92250440873525 5.7713346188844845 13.043724602957113 3.4945940520678715 14.544785321686373 0.9440392980932243 
5.888517313629572 6.7439777105148195 27.71595627481488 3.4945970569307527 13.11528652239324 0.8954741881250486 
11.916313167546951 7.271008287703626 8.674984284756249 3.494703930238234 20.43074019930632 0.9324254222995455 
9.543858807603378 12.153373510198463 28.18440829262954 3.494733617363426 4.688665018811829 0.8724697940720357 
7.174304513134242 5.630572300718782 5.1789602288072984 3.4948026322486396 14.834218077708137 0.9013547914455912 
6.12434589168698 11.056439491580154 3.5597544533998615 3.4948136752653274 8.46033677065924 0.8888904097605117 
12.109082786043606 7.785472798093263 32.194837127296275 3.494817575598548 20.981374910265323 0.8039558396905798 
12.175598053060009 8.05779783323763 18.086369872581933 3.4948341678538983 21.261880925076206 0.9197276866614509 
9.356992494174932 12.191718663594978 4.9514055175241865 3.494834366221481 4.879586579884947 0.9800413318104072 
6.332030228521429 6.226643726211567 5.360598472907402 3.4948397245441183 13.798728663534781 0.9333109859617874 
6.637030556320115 11.533752532344629 16.056668589444257 3.49484163178534 7.7587430097966354 0.9171367583020614 
11.711671900310877 6.894618483765726 38.853077363146504 3.494844920146646 20.002862861585072 0.8845013750167392 
11.03649268222362 6.106881838236337 9.823301083746415 3.494870870705681 18.961664517212427 0.8890795008559831 
11.96847655546265 7.387799840868723 13.712197904647311 3.4948791984273204 20.55968632290984 0.9148212583209572 
7.2541423579014435 5.5913936002010125 10.410684509709824 3.494908364217262 14.923603406393283 0.9158335161584489 
5.558050888484074 10.173325760648336 30.762492002598 3.494909920360247 9.513648769653493 0.9325989546186716 
9.46543525715175 5.329092274404584 38.32214407599904 3.494918779344409 17.189945371039016 0.8651371929128701 
5.340662028963816 7.981239893873607 20.276410800078914 3.494935979602571 11.75476360341165 0.9162128787224587 
8.581639589730669 12.24087877675326 3.064989318032225 3.494936317264219 5.658258724267405 0.8687723230506881 
5.35233711135513 7.9310684085161895 12.322843081728223 3.4949623826880907 11.806365054521084 0.912082827024042 
11.192524447031492 11.249800040625514 32.22591393491961 3.4949858250725128 2.785456315197454 0.768527630126452 
11.445487808679598 10.97473175954665 6.209565244202608 3.4950087165379027 2.4115933039484325 0.9799953329202888 
5.2876180438734615 9.226582003434872 5.890479819158102 3.495027784740578 10.501882181043381 0.920600836195198 
6.841036462924606 11.677655506501635 26.657100884025958 3.4950405649481 7.509471805554586 0.866130821598835 
12.03960003718015 9.930651158319591 11.725975683279373 3.495054443389549 1.204343804065278 0.9785785207985372 
12.212054482738763 8.269874631313206 8.482273210538956 3.4951883513064304 21.4792677770745 0.9026017148741375 
9.598880969863254 5.359444949597062 13.725605278882313 3.495205637842909 17.32822445454484 0.9177206113525598 
8.578957355635977 5.258977228886902 34.748875165732 3.4952103763037203 16.29967987567589 0.8449052880160468 
5.656752989810586 10.377368701098433 31.7572142796543 3.495211861298334 9.287759444819756 0.8306227817963814 
6.313299187565045 6.244206462917667 2.6724658688288656 3.4952127402784465 13.774525859697821 0.9322658339583 
5.895829624120717 6.732517118224223 15.789884515455505 3.4952146876558534 13.131186343378058 0.943349065047073 
7.361945567188993 5.542222446758682 27.645656840786344 3.495215578405023 15.043413422328786 0.9148422201665335 
6.23132394825172 11.173412575964033 36.2834252326679 3.4952335497060765 8.302815652124313 0.881222692956772 
10.37850741713081 11.842698294877763 25.6292899622472 3.49525666450833 3.796278929500456 0.8960990347038152 
12.097093051883082 9.756874827805861 1.8596144839581399 3.4952580472453065 1.0213477713191281 0.8936282681544975 
9.578564198627953 12.145635506682531 27.17453854272194 3.495262382925081 4.6538179481523905 0.8851747413691673 
10.227961140457925 5.582585565473405 7.324691016860179 3.495265845790719 17.99703019426983 0.9128156189798063 
7.74893732169047 12.098848431970403 36.310849411865476 3.495269990460665 6.505637079300758 0.8811402653332152 
8.144911799150051 12.192529066268392 13.462765220682975 3.4953022906338944 6.098559984843817 0.9235859256195024 
5.404180838455018 7.738674965435303 36.64441708816663 3.4953231878180957 12.006876985427347 0.8842781417344924 
10.113843623812983 11.968264547476032 17.02392445818178 3.4953248958797016 4.089381630082023 0.9639100346811965 
5.884688202248345 6.748154111696245 29.75346995335144 3.495339562739717 13.112455347778951 0.8894986880742979 
5.270631468559099 8.416105324509928 24.678028708520777 3.4953527764593155 11.31537917923023 0.8183419469636594 
5.487709451998965 10.0050265351631 22.156996816128235 3.4953728304059912 9.697348717893021 0.9631752886708269 
8.588637676613693 12.241652631784865 37.81252368825553 3.4953792212660955 5.651948534713618 0.8607665136871403 
6.118022576413129 11.05008606049458 24.181678883367866 3.4953828179403295 8.470661049058293 0.9243079149055491 
5.4514837969968415 9.906526233233144 5.107700460699029 3.49539154739935 9.802355367765927 0.9513086925362275 
12.029171194863878 9.960378090753862 9.099764999476953 3.495422556401721 1.2359734595620537 0.976715889316027 
11.100177773927818 11.337426535364978 13.578149260905526 3.4954415522184203 2.9131380540699396 0.9639286074178589 
9.470531307192335 5.329616135428116 34.24255093932071 3.4954529242528776 17.197667963581942 0.8398280944213599 
7.559307299453383 12.036414418663314 16.093625628420902 3.495464037625496 6.705674409559965 0.9016394014877372 
10.310971204975475 5.622434123020248 27.701570915691164 3.4954684117598194 18.090157505183942 0.8711002528438352 
9.938263626257038 5.462691553200203 22.67545293069753 3.4954781174950607 17.684481452421732 0.9397690436401173 
9.308006318120242 12.200656226576594 2.2844735049966403 3.4954827198934795 4.930287481697425 0.9831020960671646 
10.169371478628996 5.555654394341165 10.020243336277517 3.495491273446033 17.93370547703108 0.8974796611252813 
12.245044565193648 8.693410897643377 27.701110650021874 3.4955026590170344 21.906299373811915 0.89436074871743 
5.684770778740752 7.069802000295821 5.516240790942852 3.4955250674357212 12.73424170239657 0.8936877548592821 
8.702900094289316 12.245233191015018 32.738173593270034 3.4955505232639648 5.537899253102328 0.834727740331717 
11.44077066371203 10.981317647533754 6.216450913181795 3.4955722291048175 2.420064112951348 0.9789617582876843 
12.24467509839874 8.67036938682314 2.0447597734174394 3.495582223024253 21.8837533616444 0.9456332655637151 
12.215395101865742 8.29116318908224 5.771113038054864 3.4956393451110293 21.50358508069711 0.9393594782389075 
7.683909271420777 5.420850549952458 37.34544380277363 3.4956809783380445 15.389659220354222 0.9063884296015848 
12.12768960393958 7.8491559060217995 27.16627522437355 3.4957555895996117 21.05335530783535 0.8736494012854606 
9.441650802216955 12.17666061777238 7.631526752823504 3.4957665570800835 4.794892493118102 0.9821093775835184 
8.997278993935929 12.237011592522258 4.012288613625039 3.4957684058339114 5.243654494245149 0.9354222823007188 
9.944919301625136 5.464790070939388 24.67030807384532 3.4957740795701815 17.692951481742227 0.9334705328036146 
9.654001311163457 12.126888105843674 36.27059136230828 3.4957962826763387 4.576791374903706 0.8369742661365461 
9.556044575243247 5.348396428165088 36.28449098358287 3.495799581955333 17.286930699998994 0.8905723476060867 
6.2910386500931 11.234794403891996 8.919911759757646 3.495810943107329 8.218543672125286 0.9167083298441712 
6.411391311526529 11.348398963526456 21.367622446775762 3.4958214730530757 8.053051180826905 0.9294934527913441 
12.086926078082339 7.7079951111188905 20.763502145903743 3.4958332109867745 20.906881685241213 0.8189053153226736 
6.103789763827251 6.46560399955402 34.30215432697929 3.495839484427026 13.472059321367109 0.8882159036373274 
11.178317771211832 6.235209458963901 26.2032348211985 3.495840194183344 19.15823667620644 0.9519950274967252 
6.034485412400647 6.548417082866891 21.105931424188782 3.4958528024613957 13.364119574202814 0.9143833980331276 
9.540473236802695 5.344683425675191 9.255263751790793 3.4958588228749443 17.271215706453525 0.8817696876096746 
5.75587138326209 6.945477647537203 22.011704394833572 3.4958700053215286 12.878734539398597 0.9224014940441022 
9.129768069164813 12.225185115017156 17.00342650068159 3.4958740495037803 5.1107871002090235 0.9685430636042901 
10.474792222725872 11.790774056722858 34.75550136482721 3.4958854494411638 3.687556087952135 0.8638051037400815 
6.1162425959236515 11.048863376890548 18.68452865806144 3.495919176573682 8.474052808185 0.9127320886072436 
6.8576676630445395 5.810508336795808 35.82521402573287 3.4959309077174647 14.474593132448096 0.9138686432941914 
11.017561589234752 6.0891436013063895 12.818031913833792 3.4959966154791338 18.94184967922357 0.8844699873911627 
6.133060415623309 11.06811688058377 3.5506244006259493 3.4960032408916715 8.448691993407131 0.9249104804128719 
6.266289949908256 11.210354694320188 23.19125674651496 3.496020714296487 8.253819536488159 0.8945094275682465 
5.29520994685852 8.214645574077302 14.969780980927709 3.4960232654603893 11.520550126951218 0.9036657617912982 
6.832249196203291 11.67309616260497 33.768325260777125 3.496034799783723 7.521459058435994 0.8686905803898746 
5.297754593943729 9.301646431540547 31.25859934657438 3.496042352298961 10.42917933529824 0.9013303860654526 
12.151572296491288 9.557283917275901 25.146807500726165 3.4960551213259414 0.8146358870860624 0.8354887849404102 
5.900035694656776 6.725101790819149 27.69756390225782 3.496070551243825 13.142884856951863 0.9507159086330683 
10.617393464043987 5.794428340297241 13.70347648757733 3.4960781148584616 18.444883536187625 0.9471010578030664 
5.699584004410125 7.041901007528747 10.444303220935069 3.496089231445884 12.767884085516908 0.9076412469162305 
12.126060173212855 9.658263165272436 30.174005368469967 3.4961012958071946 0.9188033576880876 0.7039964423666706 
8.342394151367012 12.222282826538093 4.7998634361570645 3.4961250771834753 5.9002353854191725 0.9487189573865791 
10.499099400794664 11.77714382688248 10.541176631345557 3.496133358796967 3.6599496905747095 0.898387299793412 
6.143100874111239 11.079604813481929 3.5617997153335246 3.496138103616297 8.43376096081623 0.8672104367823301 
9.388413470138284 5.312614138515869 11.979402698970876 3.4961683768927676 17.117321010150363 0.8317306503765919 
7.644098001851534 12.066658072811766 12.591808001828415 3.496175053033844 6.617006574636523 0.9322509983141138 
7.275822153194538 11.920199297863796 21.38745522311263 3.4961927738882044 7.013583391407046 0.9135904715216506 
6.955996038056549 11.750826072768266 3.6936064331911993 3.496198983821515 7.375664055713582 0.8509792530568294 
8.679150117113005 12.245483977237313 29.716629181404635 3.496201930814052 5.5626758836733 0.8015279744793445 
11.765064049539552 10.520020838827612 31.729312882951874 3.4962243910695823 1.8559700194130642 0.8656910642082462 
7.767654191742459 12.10538314620143 29.216632982272216 3.496226443583675 6.487612819969968 0.8101877882263953 
11.337642193503173 6.398883741676412 6.1501327926571605 3.4962322265192043 19.38885353318077 0.9363854869815905 
10.578109000064087 11.730219201315846 17.93273657753341 3.4962392658407957 3.568162964549174 0.9480733483962618 
8.565838048094797 5.258613360924304 32.74290668326903 3.496240307536913 16.291397077587984 0.8330252040762681 
11.87096195914434 10.325868160995912 10.797344865634365 3.4962499926731123 1.6347906985736245 0.9280563091960712 
9.420397257078008 12.18137820902071 21.445369402992668 3.496253551394672 4.817327397608754 0.9837084168927966 
5.395128322849809 7.765805656257577 36.66524728923991 3.4962554935815455 11.981489789687483 0.8678404947686562 
5.26312816254581 8.493993808379155 25.681141777888264 3.496257196056859 11.240051434549486 0.7806334545277575 
12.13957219597154 9.607098888260268 34.228121265828186 3.496257738777325 0.8659246053482867 0.7519160880058331 
11.747173260321453 10.55022219429884 29.672416501337153 3.4962619325834363 1.8910930020881906 0.8680550287844331 
10.466314423854307 11.79600249569759 21.445322724369795 3.4962646360546383 3.697909791236171 0.8899240315233162 
9.56198881913889 12.15066780594264 33.2439604740984 3.496264773838111 4.672448515588325 0.8544093712786907 
10.470039746463993 5.706096229305643 21.766330710904995 3.4962675662287683 18.274059937248435 0.8731092476582522 
9.290279126407807 5.295714051867741 18.221568512240005 3.496282732545519 17.018297043778233 0.9406869575507295 
6.01781085832792 10.931579407737079 7.9934660183892134 3.496304651790697 8.628122825158439 0.9499394084881185 
10.64964192113117 11.685234239703853 16.18578595158764 3.4963179876047827 3.4837382302811797 0.9265943035656463 
5.515237334343894 7.423133192084325 21.13041599322652 3.4963216426797668 12.34499566834829 0.8870910184386123 
5.468860982237377 7.542357082603363 9.171654667705297 3.4963230213786773 12.21706721541938 0.8796629955975508 
11.579469421675203 10.80388823278994 22.372143946939886 3.4963343777430684 2.1953217660777113 0.9788890550505048 
5.937136103050165 10.826650795763758 5.2638379280225465 3.4963812478489893 8.76067838499156 0.9479712207367154 
9.707088612249962 12.112861420526265 14.40276456664283 3.4964060898817926 4.52267868275743 0.9094084671029448 
10.636702192515454 11.693681074158238 3.382592089200436 3.496412937511814 3.4992854579678614 0.9174607072914212 
12.2377111149295 8.503312210388074 15.447821132612049 3.4964244145621675 21.721789594878718 0.9107582531243786 
11.998296360537044 10.04367068809265 6.356832280979084 3.496428620050509 1.3251694823185893 0.9653870488678755 
11.781605793302624 10.491961465232105 38.88179978133315 3.49643581842133 1.8235094930055666 0.8667381303221131 
6.113689147883257 6.453206255281188 13.114580892129688 3.4964834355060193 13.490394456164175 0.892865011901528 
11.763342214222611 10.52347108453893 29.671230696033483 3.4964883794618467 1.8599572787804277 0.8329076768578346 
5.3392202480614905 7.980443069442 10.532488938334332 3.496517751364002 11.760543856155667 0.9130576812791594 
6.496201625059211 6.076768541445258 26.22628625622889 3.4965373651503375 14.027810902263738 0.9093569769179866 
7.690426708914085 12.08215703445622 37.337625551715234 3.496564894501272 6.56889033788147 0.8345858167905859 
11.160839414467894 6.217438210768677 36.28681210000085 3.496572021083857 19.137329293628042 0.9260389555069726 
10.315870429781619 11.876350820752606 2.4378969451057415 3.4965725585614478 3.8688153260579874 0.9291051881264659 
7.6859534343592575 5.419260436118039 37.35529677804653 3.4965727700507614 15.396017037590955 0.9109698252123704 
12.240736409768012 8.546992384281719 17.204950251446057 3.4966344925541866 21.766880631769396 0.8711910757547836 
5.547161586900959 7.346919932166703 13.162105182649285 3.496685227064894 12.428914257257688 0.9394945935853599 
9.551434997965911 5.346379963761393 33.23341066140286 3.4967023618045507 17.286444680198645 0.8845878259751081 
6.153296852949477 11.091813922312841 28.21532168087022 3.496706976662521 8.419235513821413 0.8938684469147816 
6.9330834500663485 11.737622688053488 34.761234216863556 3.4967234771418108 7.403211968146618 0.8929214392007857 
9.422371105914438 5.318515079622252 26.16122956497893 3.4967372882229073 17.154571197252658 0.8310054802262448 
8.670297284862027 12.245834779600788 29.718197341737167 3.496743246088683 5.57238106490713 0.8100904247213654 
7.269498683994033 11.917861600189685 21.390931857685654 3.496745810700533 7.021412371607568 0.9244316177064109 
5.350998716322447 7.928919662831543 22.00017803169235 3.496767456741485 11.814238107210688 0.9062321105422199 
6.858111583092308 5.809177965595492 8.873052751886618 3.496809405739543 14.479323862447671 0.913481994649335 
11.809009722484234 10.444260009990877 0.075059740546493 3.4968639469826934 1.7687177435498214 0.8650206409413266 
5.6731817449636175 10.411776253172782 35.79217131915469 3.496900183038414 9.254145285570722 0.8519140244344969 
10.976007124638013 11.44689435011584 7.02128956923589 3.4969053253735574 3.0799357718793594 0.9285406099381398 
9.967814412447433 12.028019809780016 1.505779274224544 3.4969251945780746 4.249077501505475 0.9448495764330731 
10.198039893106063 5.566967350133099 1.931334312913748 3.496929564939121 17.971877335340423 0.9075090011157432 
5.933332832888695 10.82242725754851 14.234686602266244 3.4969370409135 8.767727797894743 0.9396407482845727 
5.631788006047543 10.3328985748786 15.06921164288579 3.4969721099233353 9.343418272864906 0.8322250140543083 
5.404328892155721 9.767522848290842 39.75518810451426 3.496979826744485 9.95362895990663 0.9194243872175392 
6.505014030016248 6.068785906397814 9.876416902669341 3.4969802717709015 14.041470684312586 0.9164733081252782 
11.763202343498016 10.524697964619438 29.669899383639525 3.496990310036092 1.8613525746281567 0.8482816532463121 
5.453234101548276 7.583643894986459 24.145527226501414 3.497006141386737 12.175309678135829 0.8239444130518317 
7.52786620098059 5.47349828199213 31.240083406832895 3.497009369563389 15.230781049803952 0.8303795570745893 
5.45061633858348 7.591010717035697 34.61366277491421 3.497025693821593 12.167559649609451 0.8431760179658835 
7.410511809560006 11.980328251088007 10.003984759966414 3.497034346715158 6.867743503547771 0.929081938394628 
7.76943062300678 5.39322945576431 19.194657891401448 3.497059448986426 15.485608690411006 0.8908780117582821 
11.747190438884438 10.551752602207705 24.578811410190973 3.497064907390554 1.892830421278349 0.8615389324716591 
12.218981651088075 8.307541406816064 3.13709084545296 3.4970849721257906 21.529185268005133 0.9195112658383917 
11.141799833547147 6.198702919436052 32.223598984005605 3.497116417428833 19.113600536110617 0.8962002388600506 
6.509427488722547 6.064897813699453 26.222310687195918 3.497132958462993 14.047963742573476 0.9172319529123119 
12.130232922303804 9.646750213486557 34.23419504265878 3.4971610706993057 0.9068801522112011 0.6829713075395598 
12.157954263405125 9.534892340668858 15.390656528252691 3.4971714638978986 0.7916357312059006 0.8408753418425571 
7.509015522132911 5.4804139618186944 38.835781803950695 3.4971753366648892 15.211424869213594 0.8152290687776993 
5.442389533863004 7.614236530403792 32.5204472458159 3.4971768120254088 12.143445551465152 0.8530491179509112 
7.369579003760869 5.53679466728228 12.169539473168903 3.497177524384975 15.061018865993912 0.9069612024836197 
11.139149948239805 6.196122070927997 32.22696170776478 3.497188864184397 19.110298157703212 0.9140140832860035 
7.271747942010213 11.919401753116137 1.9548663616501756 3.4971898174972837 7.01961413319254 0.9175515289457533 
5.63742886473649 7.155545809831475 2.8672482939694177 3.4971964824158137 12.642373160663372 0.9116404013961161 
8.649871752117265 12.245796209807521 24.648254214272914 3.4972298761346394 5.593577775821373 0.8619266946813157 
11.897315450460413 7.225184103705351 21.660619867363177 3.497235774479565 20.395982025023145 0.9410227186502222 
5.288869992245422 9.251362919328349 37.78590648261423 3.4972540238673906 10.483851231237736 0.8993054448940068 
6.742215554964822 11.613508439769769 22.38307325666475 3.4972673564310055 7.632093540480916 0.9155938410095402 
6.807911904737674 11.6584833460629 20.500842594049537 3.497282022383226 7.552507377774635 0.9276306712518373 
12.227942815441386 8.382510523600034 13.687307163600053 3.49730392484626 21.606039511881956 0.8789917596011682 
11.972683448860368 7.39148043433884 13.712408582698203 3.4973224074772884 20.579088467746924 0.9060218738804586 
7.9303402271116195 5.350081323880024 13.0242500465217 3.497325999606104 15.653405220102094 0.9195748599836842 
6.066724426278691 10.993084000775047 10.64792518889844 3.4973409383505074 8.552090283078194 0.9594922557215593 
7.625557430071273 12.061657923940759 5.575188305795898 3.4973488957019323 6.638398544671475 0.9153983674295421 
10.06517149342133 11.990646680176981 6.852020425559104 3.497351421125732 4.145302059507895 0.9712476942869555 
12.182390752806059 9.421107082543733 2.9013106374225828 3.4973834499792704 0.6752953451974939 0.8930776383728074 
7.109997866469902 5.660971174998737 16.572360893058985 3.49738560637399 14.7740716124468 0.9262872317995466 
11.09823767876687 6.158186432755363 24.25212805973382 3.4973872767158354 19.055586950569396 0.9113606384201265 
8.743382107436341 12.247391824264701 8.433426049145694 3.497398085568125 5.500317962662855 0.911198036729186 
5.948796338217326 6.655941438463406 30.79765830608561 3.497402352307977 13.232520478187872 0.9519984787547942 
5.476421782943225 9.981130207513893 7.840371423996544 3.497427044420199 9.729403778972063 0.9497075698304106 
10.315971458575474 5.622733845385392 18.216415208314785 3.4974362339964156 18.104949428121902 0.878518978327913 
11.90010594844688 10.269545594527264 21.535252609043255 3.4974542599278706 1.5719373279832283 0.9224480178970963 
7.608563060255589 5.4440204240715815 30.218066576855733 3.4974818432507924 15.318757836517484 0.8084456560537872 
11.552375323924538 6.65735710455195 19.001567909300668 3.4974936374510204 19.73207048440951 0.8378632117134492 
8.404144569442701 12.230353273962171 19.680778315280136 3.4974955168556243 5.840274697552719 0.9159137405407086 
5.259741359075576 8.974949214131582 22.135194651229554 3.497500182914364 10.762616285987747 0.9153931597493836 
