430

8.807599627150301 5.53802019431045 4.2435042382368735 2.4518098686739243 12.647373763857674 0.7988096645299696 
5.363745154624274 8.313582014364165 4.201531716103084 2.451904744070192 7.1342194391627185 0.9381688455459711 
8.72659453945713 5.500824869422571 30.260771211167345 2.452045199931169 12.559442311779632 0.8721246373984478 
5.353935213180476 8.271807147096016 9.531957368025004 2.4522253488203285 7.1780656861492265 0.9332307355253675 
5.880765151890321 6.162279208433674 16.619473715438914 2.452528537929705 9.43177733537056 0.8232523392490819 
7.1505109030012886 5.371867553183693 36.295223000418176 2.452529533363631 10.951647725684031 0.8737291073385061 
5.49308316667735 8.711565626492447 39.80844763777205 2.4532187115271546 6.718950608781713 0.8060489201625006 
10.20273119928631 7.81079908696311 23.797727258770514 2.4534846371901375 0.06080531130264255 0.6853504086663263 
5.850671142597465 6.196620386584643 5.998709087756794 2.4536581530311983 9.390462914792822 0.8608851516894098 
7.800221678900973 5.296684761193024 26.73870001677794 2.4538292275531637 11.613622997405836 0.8565784419009003 
5.375315716485565 7.131597010103942 11.269508218000212 2.453884207594735 8.334247740064148 0.7903642933054928 
9.666822676840619 6.217660387664161 9.515539523939736 2.4540321640076352 13.764176286183192 0.8711917127356594 
7.761485341927729 10.204272513522227 37.124298088917 2.454299387546251 3.8437190789640656 0.8809635601947869 
8.807618925132624 5.5348471231440115 11.294389055748994 2.45468125398025 12.660834159505866 0.8018298611412422 
10.204581173292278 7.772857328733027 21.750945670891042 2.4546875959595544 0.02285765906428061 0.7595633146569709 
8.787720612407155 9.974589228725831 0.7046027673089341 2.454722246197652 2.7844518133135328 0.812937814594105 
10.144418038283602 7.2087848553472575 39.037096071513055 2.4548221065607545 14.878403790070374 0.9003577757102719 
9.977342355771166 6.717607161494339 32.28002461464145 2.45497228962162 14.359511973071873 0.8402384722814109 
9.651707407100877 9.303475954244885 16.600120013057136 2.4555607511604003 1.6819415304378662 0.7580993057456022 
10.044939559242467 8.623594983548681 29.31916133164222 2.4555886821406854 0.8931586433611312 0.8054723556278675 
6.7558271153894385 5.504652875627718 38.94111523121522 2.4555983860195356 10.54817896050829 0.8705815117297335 
5.988531893679189 6.038787391952139 20.703386346249268 2.455813201269058 9.608418645761676 0.8511348304742417 
7.848007867117028 5.295682667326872 24.717614711896722 2.4562734195273466 11.672949687033933 0.8736064076966659 
9.46571820771418 5.991843495596541 27.768424982188286 2.4565836566781423 13.475764891587522 0.828869297883727 
8.906060377995425 5.582360651406775 38.877527056479224 2.456651367846196 12.780338869106144 0.7322440514479445 
5.571555603591234 6.614428604551621 10.418369049082287 2.456652678423498 8.898281097538424 0.7468628619313904 
5.857992405984842 6.1825604593226124 7.762996329807606 2.456941075705717 9.418545695434224 0.8342934121648281 
6.260632776275687 5.795739262298856 1.597918665382224 2.4571019022467278 9.978734605470313 0.852797343752761 
6.216780622557186 5.8298824532061975 8.649392447470404 2.457155479995431 9.923373735898357 0.8506514172999362 
9.47265376658792 5.997802444432688 27.780296824835617 2.45717973971698 13.488160317772211 0.8393349224942023 
7.233849105685474 10.152399943817134 12.211964818220345 2.4572214462181163 4.379818406947136 0.8679972515181491 
6.712819876302641 5.522232407610346 4.220344025228663 2.4573748299139195 10.509364870603099 0.9039383183134566 
10.149256403638509 7.217253809168765 0.7657916392746174 2.457691964882007 14.905124984292177 0.9035729303442659 
7.713121648911114 5.291452166693199 20.70324497313233 2.4588244063854185 11.55005730348561 0.87214446686782 
9.230611006639942 9.714625636917885 12.180314796064955 2.460073748125926 2.2755011942710386 0.8357174459334887 
9.608866740861222 6.137502587198693 35.32842396992139 2.460799355203698 13.703306326351145 0.8817002965047723 
8.818216951080919 9.966902008923094 4.208056127210831 2.4608417201729713 2.760505469274113 0.8363609535382096 
5.363745784308268 7.147788957426938 0.6910301832510086 2.461070360981881 8.340069166206911 0.8002071640918134 
5.802602494459407 9.255954319931345 9.511235422172021 2.461758610892953 6.113372100277045 0.8454830914170788 
9.919953944385176 8.912997340868186 3.296100584410034 2.461963227917763 1.2112762509004593 0.8612035864710054 
9.301613241519528 5.838268032298242 8.629674743564912 2.4621581524328535 13.281322893072945 0.8839011528424264 
5.536533288521831 6.671452187988223 5.114775727293768 2.4622551178985037 8.851810930643573 0.7556747588020413 
9.246954669321438 9.705504675165935 6.82533853140518 2.4626960463279 2.259384944358109 0.8429497626467879 
10.21220292566221 7.803176356080781 1.6545632759202533 2.4627770853216857 0.05318048889033378 0.6694037207881646 
9.640098528245394 9.329300389475842 13.06167618725381 2.4630595134251108 1.7144222959220237 0.7871750434878075 
6.256467656010123 5.791361451182498 10.403421054369048 2.463108569969628 10.002469632651314 0.8600424588450272 
6.650989238206771 9.95465467948983 37.12328979452044 2.4633974324768877 5.008677529739305 0.7525530177814379 
9.974110914733528 8.809568976022538 37.98304641682845 2.4636062542513253 1.0952969716842222 0.7126460891536838 
5.881426207813462 6.143572838331279 38.93210410658805 2.464178614182299 9.491265862090303 0.8425594125231899 
6.885820036862702 5.442273691174899 30.252278680663977 2.464225583247504 10.729437509161388 0.7516836001047266 
5.286512921166381 7.679423647564514 1.544911926203227 2.464497841164261 7.8130343150805945 0.7816848280124306 
6.000757674490126 9.486599189594566 24.716914161550655 2.4648783861796724 5.8166729392529835 0.7892143654813422 
8.265462541304833 10.160790146715197 3.3615884834341543 2.4652810718024645 3.353160198672347 0.8919158947038153 
7.244389673425408 5.336809245815765 3.3651671619722876 2.4655894667237575 11.109593835004452 0.8618018808985698 
10.155245137876731 8.29279448775594 6.0056740703827245 2.4657311348194253 0.5472768689781944 0.7559818957467198 
6.1845756784121555 9.655345142326984 5.075611862732053 2.4659467589564454 5.569507611918036 0.889045640355038 
9.665618704691955 9.303137427389176 7.749869748705663 2.4661368352390247 1.6801226626379897 0.7823591491019883 
6.2674780310957185 5.779032468425958 10.393777018545734 2.4662896015680933 10.03161879036086 0.8367188221697387 
6.77385087776204 10.014899237247695 24.300245670741425 2.4662999946744355 4.877674681637595 0.8115012172458154 
5.548465742575507 6.637740197177962 1.5859285350506767 2.4665512270348944 8.902789183425236 0.7196871878817147 
6.1564712329326134 9.632752688390566 36.3004024295592 2.466595146576188 5.607030649297499 0.8044050064102327 
9.972967300805305 6.680732755062236 13.923288268457853 2.4667622628754495 14.393176956953523 0.8903074911455029 
5.28321854189365 7.734774397157713 5.133442987377933 2.4668284458063168 7.764995822525977 0.8220469158181836 
6.842120459037682 5.45628545001316 29.245027311825737 2.4668546162510823 10.695043822540967 0.7683591776859949 
8.721486086397423 10.017863743938163 32.62612512553289 2.467182842258146 2.876918365300048 0.7321745737017427 
10.034895497058645 8.680812907173886 28.31714871441931 2.4672170761083025 0.9544411399493491 0.7614063644228937 
6.873878722692748 5.443512036556063 22.27376326447377 2.467280936185065 10.73112350516869 0.7430638796603782 
5.528797763018247 8.825224001354037 8.630598747727745 2.4677613398909797 6.640172374011053 0.8965164703291734 
9.968609193181699 8.830588363051517 12.228196368529012 2.467771861909582 1.1184914794902205 0.7952690321951735 
7.72916436623375 5.282015788385715 19.6814942598957 2.468072161103037 11.609680173514546 0.8983920076083436 
8.803269876572745 9.982163508454308 14.823668399439228 2.4681838183916947 2.788832053490241 0.8454642059220911 
9.972971750255509 8.822554452182862 17.919390214489944 2.4681929534238884 1.109549282919934 0.785276103864707 
7.437052687856346 10.198403799080543 20.521263587074003 2.4683227470349136 4.191024153932803 0.9309648797724364 
7.6943708680356355 10.217740013647672 0.6567103059271986 2.468366945022747 3.932935572545606 0.9163045287626527 
8.738335067435312 10.012083837989982 9.526670964390675 2.468568308882266 2.8607700707302612 0.7830697344289879 
9.276535981237846 5.809850218840843 5.129092136325191 2.468702751516614 13.279244619107944 0.8924827289453007 
8.71619418535948 10.022231496309052 26.266125105501047 2.469122754469965 2.88576469363265 0.7468358493881075 
5.364059074002366 7.114300030783967 2.4733407074890295 2.4691756829378724 8.400084932841084 0.8663808828356421 
8.72601630079755 5.481574714038318 26.262225442033284 2.4694859986266104 12.640577240097725 0.8110806243954777 
7.8281411601835735 5.281693174988149 29.784707167120928 2.469543403812719 11.715603328091975 0.8555124646324751 
6.153330064179192 9.634374926443117 38.06763212225199 2.4698631029596614 5.615808941393732 0.829675508421768 
9.471174237992875 5.978601805909065 32.8046830057971 2.4698769847016644 13.543343009436656 0.8990825511831462 
5.576433114613499 6.576945083254236 19.223676782346587 2.469909075846757 8.981791755201362 0.8018239005857449 
5.840686139311083 6.182510289555124 4.21073735475963 2.4703245557961386 9.45884834058276 0.8083945552345914 
5.553129673585156 6.620077748295651 6.87445929739539 2.470417682493931 8.934612812510567 0.7376913422760146 
6.725482441086941 5.501936999812985 13.061329930526028 2.4705107733687415 10.585588573212457 0.8584922595885878 
6.180120004539971 9.657623519226128 10.393527351875122 2.470536518906422 5.581870276829518 0.8508846803304136 
7.758852831796343 5.279428930756916 28.757590101218348 2.4705869304300387 11.651219476782424 0.858695707386432 
7.218467526959225 5.337199544063495 1.5961616170000852 2.4706543283236213 11.10696364136617 0.895083701766339 
5.505783123931067 8.783440951358335 3.3148982541854366 2.470730577537142 6.695800942390585 0.8491052242178002 
6.601615354832608 9.937701484867778 4.182375376984282 2.4707944228828334 5.075472504406635 0.8364461010370245 
5.279042600714913 7.7764648492778985 29.69376087073568 2.471099119284579 7.736721484218629 0.8441702657299428 
7.253168267387329 5.329313045203078 38.037202564553475 2.471146920693891 11.14476420934937 0.8767260422872051 
8.867042197404631 9.95434024059918 21.341642978730718 2.4712141079047383 2.722699476575256 0.9074527838932003 
10.221274682459631 7.773022890136005 22.77410643415795 2.471381923061706 0.023023223152312866 0.707876599951431 
8.74067167546456 10.014147027975525 28.359937290195973 2.471394774789766 2.862730473712963 0.7765188573266577 
10.003490952645452 6.735312662646496 28.28059450020281 2.4713987671439157 14.482653633852822 0.861610228203734 
9.5941728681693 9.39550622579026 21.74271955446276 2.471571222280733 1.8006132218340607 0.736771885652786 
5.541484148252692 6.640363426685141 39.80578739018585 2.471605873163656 8.915543818744924 0.6499038915708338 
5.942416203822026 9.436138624005594 31.75727555105218 2.4719269082172812 5.91023254869153 0.8342742950605097 
10.22197270548178 7.76467529181388 3.317439028824353 2.472016266296953 0.014675378015063245 0.773203461602094 
8.86954947074767 5.54588769013564 9.510628045072593 2.472145240868138 12.811560822797228 0.8085992097891362 
10.020842040035335 8.727871234391028 27.312538308270803 2.4724392251057 1.0053473179607781 0.7102228398270823 
6.650644696026179 9.96465702495896 11.298448434064753 2.4725063847390714 5.023044156273549 0.8203329765066425 
7.2758535565729705 5.323183053071695 38.016632136151244 2.4727020329414775 11.17523256639408 0.8895066770456287 
7.197915055562957 10.160410264584472 39.76688060326832 2.472827416033768 4.441085675575042 0.8556260942059701 
8.208626826757468 10.179934079744388 39.76574634786764 2.472836063738318 3.423024149510839 0.8781968807523944 
9.952299258706216 8.874696493519254 1.5652877675191235 2.472865590247973 1.1675994284939364 0.825307638232212 
5.464424387364636 8.694101436810763 32.24902265650881 2.4728896869981236 6.8001264912584585 0.7220118837542125 
9.983961681645903 8.8104810213484 17.949496431280025 2.472894011417057 1.0960129028837535 0.705486548696459 
9.376677077398044 5.886997302576752 10.425359673105177 2.4732281263034634 13.430046938526777 0.8353923344646405 
5.538544736529634 6.642294037323746 36.28255933943653 2.473367518602788 8.918853635388006 0.6650379875617161 
7.220274847277414 10.16604834185051 12.190516653499579 2.473438563535706 4.419128770800398 0.8788095183773296 
5.807643395317539 6.218491869509267 13.081129786749706 2.4735129539811984 9.422276819598919 0.8283594655195262 
5.989031946750622 6.012934507767586 33.749458778919504 2.473540985888357 9.696670942517429 0.8731144391322544 
5.9978714365266 9.49603079544304 26.728875881521844 2.4735759623619473 5.832537828897378 0.7617435790022571 
7.217448422161633 5.334411566960513 6.8671235098443475 2.473596301115504 11.11979400306824 0.8615682774399015 
10.021334619906279 6.77023562994831 26.243791179257244 2.473640874582967 14.534964109693158 0.7877973653336998 
8.72252704822734 10.024568024917265 20.253662767380206 2.4737559619958085 2.886266146467106 0.751049602091271 
8.746968616779109 10.014214300921218 37.19985648584961 2.473987231846317 2.8599915092414285 0.769463980654538 
5.28104658426974 7.592093607182697 17.485407593323707 2.4739978573027694 7.930307296784349 0.8745734092886249 
6.722062784854918 5.499623429540195 34.29587409369374 2.474035090121937 10.598537173779116 0.8410957736578376 
5.275759428135302 7.734248833524596 19.072839502385193 2.4742907078002534 7.788964783334359 0.7611256274706829 
9.99232733468014 8.796127286361141 32.88558976862146 2.4743512634876796 1.0801042353957246 0.6931781037206584 
9.93698961032637 8.907686350815332 5.1132594782203995 2.4745022211627936 1.2047168550142011 0.8580415899477914 
6.606000488711787 9.944184792325181 0.6669735447627545 2.4745063719252713 5.076201492054528 0.8641063796721525 
9.720107511396309 6.252642066135664 13.039887128883187 2.4745513509657937 13.939866204079594 0.8860415727971089 
8.755647667433754 10.01109705207515 7.755736595627866 2.474648886189288 2.851557045138888 0.7630738129767292 
10.164606050284414 8.292879435848896 11.284652804496695 2.4748819082812274 0.547330108952444 0.794458243533453 
10.224874983643025 7.756192805876317 10.422108466144635 2.4748827316676443 0.006192812338856157 0.7291535910863138 
6.727210712097653 10.003760823528516 32.296407362006136 2.4749819751100612 4.942088167557468 0.8425809514079807 
5.461628865220039 8.693177365175265 26.26867536384951 2.4751214096833887 6.808184792121185 0.734607326655411 
7.752698550147111 10.225201520848573 32.78062000764464 2.475202991874401 3.8853412170263493 0.8738607050392334 
10.061124715070214 8.636206780147738 22.270385432387187 2.475209063046639 0.9063237828055506 0.7999012701212638 
9.662895749824871 9.320841408079602 2.417947778394492 2.475219763785749 1.7017775364599999 0.8122960642277238 
9.723251431195683 6.255595365718165 5.95506710369073 2.47527097944424 13.948173738625105 0.8892249883859422 
6.753088867132552 5.484325552050471 20.249762340296805 2.4753004890167305 10.638536519864692 0.7875705825657822 
10.225497474967554 7.756465024474352 27.725888625239563 2.475505917002056 0.006465031823427836 0.7291665475525101 
5.374388912282734 7.05340600196115 20.147195082641247 2.4756355220809376 8.48356828163137 0.8069986103666982 
8.845768534479223 5.530066043379428 7.756707515869401 2.4756444520390666 12.801326736133676 0.8224552223277921 
7.132979358505917 10.147981846617368 1.5226324170472338 2.476091962899642 4.513027914368367 0.8598892591027059 
10.034364880612438 8.705833050053569 19.262024503247616 2.476275373893258 0.9813170825872781 0.787657844210523 
6.193304753740735 9.675987027414017 12.235896845501319 2.4764341540798696 5.573345445258884 0.8762751350082996 
5.794733527589299 9.26986294779934 11.290294522916618 2.4764996180550223 6.143790161236174 0.8542223616527307 
5.3674422758287825 7.0740265407045015 37.18535882511779 2.476594723946541 8.465112979054378 0.8057440107560702 
10.030114339011607 8.716900164396371 24.273670376644304 2.476654462551462 0.9933174658778903 0.76950459750895 
9.676116618151053 9.306984432334282 4.221744148797619 2.476716727695955 1.6837072999942162 0.7768708979979178 
9.699798983909668 6.222638871584351 14.8478529575654 2.476801989310062 13.916367706288586 0.9250432497376035 
5.275950137845799 7.6324661098390365 17.48622170430432 2.4768401110611857 7.898800742460921 0.8806713931512793 
5.559095726609197 6.59441966615379 17.47371776495065 2.47697949994226 8.983890743632198 0.8047695638244505 
7.750636138365671 5.2729214980665 30.783338443375776 2.477078583616824 11.673593959355498 0.8408153145471658 
8.757944781439805 10.012834685114086 32.56640371135994 2.4771704613504273 2.8530699321427786 0.738788919614285 
5.461724392401932 8.699052110899025 22.213102366179115 2.4772777731877804 6.808648289632577 0.7578041220000542 
5.3190246855523675 7.271120008608753 14.792450559962795 2.4776938926365863 8.265817676252677 0.870060370381681 
10.048868136603566 6.825654638114981 19.255050170006633 2.477742734330887 14.620864898925754 0.7974742624772457 
10.017041468014314 8.750113462197897 27.31191166839485 2.4778426009264516 1.0294765393618235 0.7306182137617543 
9.499921240000134 9.504384557251536 33.43375100007001 2.47792040245975 1.9493101758853069 0.7744661036073273 
5.444919748744928 8.659243580434463 27.28360380565062 2.4779263211983182 6.8536422478177865 0.8151485089382724 
8.715332121091663 10.032372106322233 2.3904735873700957 2.4781219775727568 2.901043907870804 0.7529080073768053 
5.335779481251686 7.190674484425886 38.90557453245146 2.478165802668906 8.34957405263544 0.8345951037495275 
5.528678121627031 6.65120975839924 3.356526416914406 2.478227366965241 8.923987576058838 0.7001640525857916 
7.720352267852695 10.22810185638268 16.590137762116214 2.4782792011048214 3.9225203052286908 0.8784111102415464 
6.145111548668702 9.638445758506819 8.633343717481239 2.4782845526773105 5.6385957287164405 0.8252236958791597 
7.281996211855146 5.316171948651032 13.956628933868885 2.478416133188908 11.208430183872558 0.8858807496462908 
10.1705993716594 7.217700722307466 16.58477866245954 2.4784357645720583 15.035992312013635 0.9348876720504548 
10.161802734456288 7.17908609046882 13.032100784304014 2.4784541799329274 14.996499547005795 0.9225437118477461 
5.465502598175629 8.711416806283168 30.158489388025586 2.478558180544896 6.799298573129507 0.7818516743701964 
8.694677151300539 10.04157955717714 29.384676713615775 2.4786592720786573 2.92428330751215 0.7878727636918118 
7.817123727508367 5.272123580641345 25.716959878180198 2.4787854171767836 11.74813301835678 0.8725145699427488 
8.766737169008543 10.010711729658887 32.61996972220201 2.4788247206006324 2.846079750535722 0.7155679223968766 
9.721925553178707 6.247739885106284 7.7749015460037185 2.478966687972957 13.961936322465156 0.9146020930545501 
7.13658073068442 10.152145235054864 3.3135980085032983 2.4792307133997107 4.514223484134865 0.8689463380239418 
8.314132842534832 5.335680724944776 6.8726781220297255 2.4793514123515474 12.252785760612698 0.9310326739106973 
9.490957826281637 5.984200809368254 20.667147029044514 2.4797138815853352 13.615373454347006 0.9128849314565685 
7.740668250791041 10.229902075217527 38.86698070879877 2.4799196326114106 3.904780420883954 0.8634234964586369 
5.853114669491312 6.152502107051914 11.274880037340495 2.4799543292312127 9.526801034462059 0.8137012705760858 
9.480576104890375 5.973538754480586 24.699287265058267 2.480062138667081 13.602407122039693 0.9153592697280908 
10.010629098152663 6.73005114905704 3.363525019134059 2.480068462352278 14.531592075747866 0.8081724006157883 
5.270063808386533 7.777947230940445 26.781615506782302 2.4800936599635794 7.763496199917116 0.8132328980784607 
10.005074055765926 6.717512125466209 12.155604328038763 2.4801996306845715 14.51864645356032 0.8195250580892737 
5.833342559789685 6.175863102264831 14.823798635445293 2.48021827989491 9.497209217921393 0.8226150072424838 
6.004425092770456 5.987977429085539 33.76633547235083 2.4802732303440753 9.751640496327548 0.8589039329533197 
5.330328704500809 7.205007803763218 4.230687028748669 2.4802874172606946 8.341528501572297 0.8041781785366453 
5.2702115901799775 7.697684772323301 8.638078501859425 2.4803401864511625 7.844537615530031 0.8267768734732112 
5.789920683000625 9.270024689174926 2.454676184126427 2.480400367809613 6.15629329506549 0.8423203379849697 
5.335315797528558 7.182737736068518 9.51669967906188 2.4804205840433204 8.364798298085283 0.8052297818623535 
6.794815267367124 5.460806158769049 21.274276994117855 2.48048106547594 10.708469927450913 0.7078519708012178 
10.18670629726007 8.214234396606136 35.528542321226766 2.48053444928691 0.4669880280620653 0.8205209718068353 
7.235961242918648 5.323295307443235 39.83697517080977 2.480550646259568 11.171528717206176 0.8360097494636217 
10.021380256904836 8.747576132153922 31.387946024062003 2.4807914887995417 1.026629019000918 0.7197338780561097 
8.69253547377324 10.044909686691499 18.36517027728548 2.480923938654995 2.93020435153651 0.8000164024737756 
9.361971855617561 5.864100462323401 3.3472518042444364 2.4809414200081252 13.445794401244157 0.8008667940743976 
6.1191973215500095 9.620211565330537 38.03147269355454 2.4813723370618432 5.677176582524734 0.8302857762480691 
8.75623472328666 10.018297187550457 5.974777922722602 2.4814673984151194 2.8618036651009913 0.7749943398170176 
10.010709616086244 6.726445070551202 38.06168257074227 2.4816270190872234 14.537470311281048 0.8077598588109641 
5.345235532282832 7.136355968686354 0.6950725422855086 2.481824156212905 8.416955649772447 0.81603761107281 
10.159541534813735 8.344906220452446 13.081259692836383 2.4818952071200626 0.6007555053900155 0.7588975029453939 
6.613373956556879 9.956465442418363 5.975291016107839 2.482017024764256 5.0793931008877795 0.8961647628343419 
10.191171682801189 7.301534412513847 37.22879706817339 2.482023482578214 15.144071134323163 0.879445374501071 
6.702176099153691 5.4999014007986915 37.2008737698398 2.482111728611842 10.614932204344406 0.8289291844570446 
7.175704986221122 10.164987750555367 13.970610690956164 2.4823337000056527 4.478786255102488 0.8913514213430296 
5.46655255333952 8.723658560477395 31.233176448475476 2.482366458452734 6.798055032114824 0.7355543501923807 
8.344118440922161 5.339458952887197 15.684517770321946 2.4826769547525633 12.299279859650788 0.8722981216114881 
7.42755500813392 10.211651981036487 20.420695384458924 2.48268025499064 4.223143481064277 0.9405110315347541 
8.700960654759841 10.043368443473026 22.360822646746655 2.482713230403212 2.9239386395493483 0.7987397632964747 
9.586256960793952 9.421267177510325 18.641445898345317 2.4829364882508718 1.8333853921131862 0.7927499264285891 
9.328908634149071 5.833467230884613 15.703697867422612 2.48315330378202 13.412742668306354 0.8704345121844639 
5.819612304843556 6.187926099926914 14.83038790756028 2.4832381124050413 9.49073626049998 0.814708582334774 
5.45131515142409 6.810366345954709 34.2050997766276 2.4833170230332975 8.765206482106581 0.793597435823825 
8.753794410254818 10.021408697475938 25.208084132069096 2.4833245235023456 2.8674378292905 0.772421720556495 
5.266561338317015 7.750387588943415 24.708693473920498 2.483438691928384 7.801565161257866 0.7967406044816038 
6.235772624969824 5.781087444791293 3.336983394947694 2.483848061647341 10.076464154061574 0.8413103360857642 
7.784277655447109 5.266220631606965 23.69646750333063 2.484015883306276 11.7399278189942 0.8618008121246581 
6.593630351929768 9.948496529984254 7.70831620529313 2.4840647647215 5.104785017695601 0.8902422299425476 
8.667529564724498 10.05856416673231 24.18991737615439 2.4842159757283526 2.962411706425776 0.8710662889635156 
6.673550202718529 5.5110864616994615 11.276265387247356 2.4842459616657844 10.593386736362566 0.8659263709227751 
8.89357513170832 5.544605154403566 0.6715811920329529 2.4842565299994734 12.89516615110953 0.900450680594174 
9.984694761453195 8.835209747407587 39.74187140967166 2.4842586163148943 1.1230751530563055 0.7260302995838951 
10.234262502820657 7.754083826108696 28.803584575575094 2.484265859475682 0.0040838279480066575 0.7320778715983124 
6.67634645399715 9.990283491263785 16.67021248189802 2.484270930891707 5.012527678777145 0.821262755840328 
5.444284977860757 8.674931009343835 24.260389918451274 2.4843146208490525 6.8569511843779605 0.8498449988180021 
6.737996684832426 10.018941442553238 31.281081054948103 2.4844005272189356 4.94479988789298 0.8313507423410245 
9.63117015293906 9.372819130409214 37.1004255838338 2.484420068010017 1.768412176112152 0.7345232811968396 
5.453544434687238 6.801656823008827 28.226282641040434 2.4845649407495203 8.77851668838119 0.7896367259421118 
9.209200721973067 9.761144387290285 8.617096917970095 2.4847471689360963 2.343421864498069 0.8456924571649937 
5.266602557673192 7.666051772068069 34.75102407155748 2.484815921054968 7.8902436488811 0.812805615219147 
8.901319809614007 5.5479841433870725 34.46958512581132 2.484836239429954 12.906606068755774 0.8978328169509247 
9.510954796939766 9.503161051366988 20.672577285925172 2.4848612574740208 1.9460944530542879 0.7689432313385719 
5.265153216221735 7.764717684783712 26.763618793427568 2.4848903696337543 7.791795559381978 0.7866518648242327 
8.712599119332934 10.0409169506046 31.511820452901034 2.484934111623087 2.9148643143293107 0.7912076663291439 
8.862841535169494 5.527829958309942 2.4759681103713973 2.4852476690630207 12.86530394303304 0.8695352304134478 
5.518305702622142 6.656371290243513 8.639362089406177 2.4852531444004833 8.940061711214573 0.714109133200208 
9.71637669636736 6.230158587769157 16.54857244401297 2.4852676375691334 13.980076248372272 0.8718898061604787 
5.468031425778035 6.764834583351398 23.303029427266587 2.485544502095475 8.821543345369669 0.7937373360218359 
9.361249616378643 5.857379448191283 6.849326310311078 2.4855860233371634 13.466050509192618 0.8192935448692288 
7.751086458897394 10.235588714844697 31.747481045008847 2.485588952292049 3.9032675372503345 0.8222156784309272 
7.194783931565313 5.327165402998119 10.39535768636837 2.485637215499747 11.15334951138338 0.8095212937111806 
6.718530195362529 5.488391817785816 9.529350919311618 2.4857195191205723 10.65004557432354 0.7857937368511762 
8.146288164133166 10.203931673261236 19.288264518664633 2.485724233712727 3.506580123973219 0.9523916707285902 
10.00772069627899 6.709876835829101 15.706355744979106 2.4857914110100596 14.545539268198343 0.7959134205020363 
7.730194602211544 5.264265601299158 7.765659550488543 2.485813298432968 11.69431358749697 0.8715855734485667 
8.25363709889264 10.184268122015999 6.865173112675613 2.4858221209982583 3.3975723364826003 0.8900056701455804 
6.746819847601012 5.475535207092184 5.982982456352914 2.4858721834286768 10.681774499345883 0.8098625762795295 
9.697415895535052 6.2048780257150735 38.88618293648393 2.4859265044648313 13.952184031624062 0.9068989000168426 
8.318607634219667 5.329945279921876 3.343692155815468 2.485956453734718 12.288479846324533 0.8844280261726647 
5.965644119883869 6.019038641163176 27.765803823979 2.4859913782415335 9.724708233813436 0.8460010112544641 
5.7821137822490005 9.269218660481837 7.716620669074274 2.4860815562588785 6.175814996360822 0.8477382625442037 
9.733878105602738 6.251625332723181 11.29491274496474 2.486141384038091 14.012679392226193 0.8504135310736977 
7.617892128499443 5.267355840524674 20.724925005139454 2.486156574371244 11.583566724378253 0.813394953136072 
7.666636503465714 10.234876198229632 2.3837033709787647 2.4862741588735866 3.9888094405138492 0.9097530034932813 
8.674584463892106 10.058258507796541 27.337627920749078 2.486546554900142 2.958521938602207 0.8585707113932066 
9.957158822447356 8.89517866476055 6.867484277278628 2.4865607255263154 1.1900968271424137 0.816936204780257 
5.8662232876292055 6.126825239176773 0.6714992987129023 2.486626430778066 9.580516672258842 0.857405759741568 
8.816697152057 9.996305314360436 14.816409522310217 2.4867107551000895 2.803657433722334 0.8275576259955376 
10.06973764708372 8.64590740556056 21.266178161448536 2.486731354737733 0.9165166420620849 0.7587006748176869 
10.063067740879557 6.836859127845321 27.282044565817962 2.4867868075685653 14.689925908137534 0.8218436651986416 
10.022266103206384 8.760618755649242 30.324273843961258 2.486874245524036 1.0407317346329297 0.6670594315303783 
5.464728595923827 8.730900650204093 23.245143653223735 2.4868919308765918 6.8045018550327665 0.7967582952472849 
8.276826112560894 5.319539670060022 10.3803181374588 2.4869023238334 12.250099319072891 0.951904160985794 
5.837270360643512 6.160277795963172 0.7078224970562488 2.4871170779198364 9.538162921004254 0.8214409856170379 
8.203103335589397 10.195521807403853 8.65076934006919 2.4871428473672443 3.4511469898147844 0.8996134412728468 
8.688277383965364 5.446629008300018 28.30150618175516 2.487143416585753 12.682479434484808 0.8523387083760371 
7.667748795933214 10.235826057249307 4.16986265252342 2.487186452092022 3.9891295464249943 0.9079858760597515 
5.534158019181335 6.620139330308328 39.826193406429255 2.4872757822313334 8.98685044356062 0.7944599607073176 
9.876311445349467 9.040886062540858 36.056419752465466 2.487486118370592 1.3572335166639142 0.9222532980266794 
8.843809302617709 5.5158587742492955 13.018781558453846 2.487530061545365 12.85474082477782 0.8843666047566338 
7.7550485329752235 10.237535809215832 28.799483140602668 2.4875409322896003 3.902371622751417 0.8254882884256909 
10.029808024044982 8.745185158458565 20.26333802369274 2.487552637858361 1.0238488701670967 0.7349707724113526 
10.06474946491317 6.838759219384055 23.244132466018435 2.487654486775318 14.697436337059145 0.8198459840027155 
7.737249979908407 5.2621846154093905 33.806863156465376 2.487848056216066 11.710957689079027 0.8343128817128114 
6.270698336194066 5.749600843589764 17.509274455419913 2.487957032889793 10.140016486598533 0.8549224422912212 
6.6152485817971325 9.964110094939128 9.529977701443386 2.4879598657584454 5.086387657811969 0.8275011054365234 
10.044682948733858 6.7882501838119165 31.26199745636358 2.4880780824057194 14.645585818452009 0.823542572676432 
6.00209275750151 5.97930572198185 30.804854361626674 2.4880791696778646 9.78677703122948 0.8809608968803346 
9.653558596542174 9.352385629002365 11.29849160148531 2.4882071928404423 1.7410110477512397 0.7615736193019966 
6.791887785903642 5.453601087657374 18.355788221740788 2.488257820124158 10.742115717306795 0.7769769071053361 
8.630812804740902 5.422817279455444 31.257589292949667 2.4882947196416865 12.626142116025466 0.9123418059286933 
10.183794184563606 7.231916225491341 14.796871077531833 2.488325728321108 15.112709796797684 0.847742814047781 
9.334872179767995 5.83156781577541 39.816589104124105 2.4884135250539225 13.444550742530545 0.83934632580771 
9.511069668446273 9.508321676928267 26.788054591098657 2.4885862445728675 1.9525879423092167 0.7305063420812139 
6.165312961465727 9.668838975908768 6.834194240744338 2.4886092553000623 5.627009871846978 0.8188450532407341 
7.7379754387424065 10.238686965567938 24.67409437536908 2.4887160148681478 3.9212905826335067 0.869435276228625 
9.477687060693373 9.54132984771021 25.77206192618131 2.488727627319795 1.9996468067574078 0.8132113088951002 
8.804710457579777 10.004346381700108 0.7024274698080788 2.4888735922124505 2.820373172822478 0.816582351994609 
7.246822202888701 5.312483274649388 15.670163683325463 2.4889105411544516 11.222044555145171 0.8644460863781316 
7.173150361881508 5.328847208233437 10.415750022200491 2.4889227280244075 11.146629094601266 0.7873451194027247 
6.256963594146363 5.75860992609957 13.93132687111558 2.4889339355703077 10.127598023293428 0.8707069828963049 
8.713327285184915 5.454941316308108 23.15950671764068 2.4890347165058406 12.7184588879627 0.8008732397083455 
8.316557289963033 5.326302486368473 10.41369338260695 2.4890353152162987 12.300869950819251 0.9100100675730179 
5.2615994698634125 7.809656450025814 26.78046931921905 2.489115523717958 7.760124880500122 0.8041969778086163 
6.261983531341402 5.754611098338252 38.07300159409374 2.489130346099633 10.134812450658828 0.8555767004537678 
8.782960724228587 5.485239764021117 11.293165421386739 2.489206055004284 12.795279285608974 0.8896369324281814 
5.432880787676439 8.659789043728749 24.25405373825682 2.489328734459921 6.889090063956946 0.8829908982024838 
8.75504358702061 10.02750286445326 9.482903426945654 2.489403926526199 2.8757783461840614 0.7867067843786486 
10.239554190129333 7.752143416205181 31.81166505748039 2.489555112831116 0.0021434164699840608 0.7691159290164403 
5.481367912440183 8.775405474117948 14.024786103353179 2.4896079882296887 6.764470823118405 0.7978505434434108 
10.023706691262134 8.764203912050887 23.263475944045915 2.4896489096074434 1.044583246763768 0.6352683854896065 
5.482867797560679 6.721109294448516 21.25629825458949 2.4896795993275127 8.88224653192054 0.7162307644372963 
5.436095082594955 6.830842524041527 34.19218859541731 2.4897803984290663 8.763306701701268 0.7882973157944547 
8.352899735422813 5.334269868535346 8.666772664622627 2.489827335185943 12.341987508660512 0.9370976041943456 
9.546496917160642 9.473989851077574 28.82361468827488 2.4898879854294975 1.9042795888787971 0.7791368733214968 
6.812560717836526 5.443221309766415 33.2212053353133 2.4899840026512123 10.772643890130553 0.7492750187195072 
6.614047460556005 9.965777042008503 14.800177222418071 2.4899911790528915 5.090849100755218 0.8073835248630898 
8.299533666832756 5.321326867672363 38.07826022939476 2.490068359437706 12.288265824681702 0.9024774096264759 
5.461543072227991 8.731610729798634 23.24913973101696 2.490099342420601 6.8138817541745915 0.7727484831564703 
6.037070067827056 9.557356474171192 21.180847602248967 2.490113727776814 5.800414593517065 0.8670671478802541 
10.240137233040603 7.771480872758316 12.20587660286504 2.4902298824143863 0.021481139161970475 0.6779086815869685 
9.516186480750944 5.994452683862887 29.782914363964053 2.490253212824677 13.698405135117316 0.8553587553786883 
6.7020443620976184 5.490977473225151 16.6314476704241 2.490259784738858 10.653425777682681 0.7648146204562135 
5.425793070496608 8.644353089303772 36.270029750258324 2.4903424060756763 6.908853976470484 0.8885963172532773 
5.72486278990797 9.19978460797953 37.12275082273403 2.4905935295093213 6.276989810887725 0.9044243800405196 
6.135073346899766 9.646082693188506 13.93699944093435 2.4906058849811012 5.669332790049104 0.8140945213699043 
5.772175584502399 9.263823119192724 13.05925550012244 2.490672570760923 6.1975638552466314 0.8695102178191716 
9.259309494022899 5.7686618869186095 17.479862510355296 2.490725971899878 13.358699449257134 0.8565863777555264 
5.260721128158465 7.662269382961908 39.82537858854169 2.4908243540969623 7.912904258500308 0.8330975663517167 
10.175940280456052 7.185132770560278 5.96338361579344 2.490835448445779 15.08055615834692 0.8489965937490062 
5.735848893949818 9.215497020812164 16.648100697092623 2.4908806065350664 6.258542092412288 0.9104509269212202 
5.454574317197546 8.717279139559304 19.210950125316437 2.490905056218664 6.832004782142718 0.786148124842494 
10.180278384075585 8.296311662897894 14.936518973298817 2.490925421830872 0.5507890160065045 0.8008707157479565 
6.141646720335746 9.652114670847384 5.095398759112918 2.490951724393632 5.661204555104778 0.8094033113517523 
9.104549298241679 9.840490880337116 34.420621126633925 2.4909748939199825 2.480657975504407 0.9266380395318892 
8.709419395956864 5.4511718540560565 33.36140270015296 2.4910030955264415 12.723454671247126 0.8103797874693932 
8.738376449773039 5.463332687096388 26.26000053412143 2.4911313506854245 12.755517477979428 0.818384723805919 
9.7149116778902 6.218694742097533 13.031524883629139 2.4911390356198577 14.003137624444289 0.8526977012633461 
5.446167983802294 8.697835300778012 26.272593629451038 2.491191224346 6.853972257591543 0.8320671099487839 
8.65582219580687 10.070709604005636 29.355038745245594 2.4912259866460094 2.98613661245075 0.8944430762446387 
5.776050371415675 9.269862072124567 7.768790565055994 2.4912763504820106 6.1919156653533385 0.8397965845597947 
5.301150177515913 8.208003909200558 7.7395444162257405 2.4913115088088307 7.366062095441542 0.9176847788810149 
9.341449125902766 5.8332029486298875 1.5605136883938684 2.4913492843192078 13.466524132734886 0.8127819256722357 
8.652974530416968 10.072006706245881 24.1550240484764 2.4914008401765857 2.9894705881851706 0.9007101136651864 
10.241258146189297 7.777589092310938 20.74893838663708 2.4914109072910993 0.02758965620072651 0.6786262936688159 
8.868420068185541 5.523615926379842 6.008144594524964 2.4915155010935877 12.900851492844346 0.8930793501401648 
5.258441352585496 7.763781305644015 27.801103134278947 2.491596760692075 7.813800703184276 0.7473006944428086 
5.258223898956867 7.752982265709912 22.683732506822913 2.491777885694967 7.825168833654921 0.7699781940433696 
9.979643984227891 6.637485525268401 39.842152295159735 2.4917866587834028 14.50311030313543 0.7739517277201106 
10.23969774664597 7.8532189863159605 5.102107767527144 2.4918364771369186 0.10324852723397271 0.8097788902527 
10.241870007886632 7.756681857685958 32.819850111550345 2.4918789664482217 0.006681865693293432 0.724250307820013 
5.787592433247397 6.214035604407636 9.510894883596627 2.492033322926339 9.483910392300436 0.8022915481184438 
10.037549441258104 6.7610224919445105 24.259903597013007 2.492179559670592 14.641859055304089 0.8342754637929715 
9.520790134652636 9.503658415453375 22.76305326405678 2.4921909114418845 1.9452481621597713 0.7445720280895498 
5.257812243062411 7.738790961987265 32.735985552471966 2.492212964086896 7.840727014960287 0.771427633117085 
8.842411583537913 5.509942295559384 18.420410848302083 2.492232249825758 12.875183273840959 0.8379927483677776 
5.498819056316073 6.680619612345888 13.951850085210857 2.4922660481387044 8.9349386636381 0.7571598048533877 
10.068992968611887 6.836901890997689 24.294697701946518 2.492283399843398 14.72461083384773 0.843456070101975 
9.962921642169547 8.896760539515311 10.377212346235346 2.492404848609433 1.1916439692633158 0.8389536315244093 
10.183927821649135 7.212925679890203 16.561085281832664 2.4924793813227595 15.119390064616306 0.8648317941505205 
6.155357717874118 9.665790973786999 12.143778254844271 2.4926169106357614 5.6456885030086745 0.8038306905437098 
10.242541780530953 7.772663062508261 27.75369438989506 2.4926448086509803 0.022663374756428212 0.6684607270953633 
6.790354558069815 5.449469904136478 31.247728337746715 2.4926608466037257 10.761299844540023 0.7844174683148148 
6.2479498484973774 5.760713943521532 39.82009382998107 2.4926719944927997 10.13433434484275 0.8606234102838574 
9.344345209298812 5.833886783873947 37.995221471212794 2.4926745682954685 13.476352727698863 0.8098831110164753 
5.988384871055125 9.513680013000132 23.70890957949311 2.492760528166235 5.871968528232923 0.7773650663703209 
7.727905907192724 5.257310781324717 2.4844090258627567 2.4927871328769653 11.724888233324332 0.8611061843728958 
10.17641202231928 8.32149653178733 9.549417200723575 2.4928063679115757 0.576625029504811 0.7496120155147543 
6.739869630575093 10.029008988602525 23.207166799187796 2.492838810145095 4.955783468397705 0.8190115080059363 
6.22675851039617 5.7766823143427235 6.8743454986183465 2.492839209451401 10.108479533596054 0.8370786124243759 
6.011866360346646 9.537042290631794 27.729503466124925 2.4929157021048933 5.839209493660572 0.8415181953530976 
8.825015954855816 9.999280413132357 11.304044314243846 2.492974464388962 2.804481107069517 0.8253013765675394 
5.761617952947654 9.253888864923265 0.66043562926275 2.4930593420695537 6.217808571913167 0.8771537643354431 
9.550479437185283 6.025525683875312 25.73427573241713 2.4930980467484103 13.760270289473155 0.8806176108226129 
9.555263849793658 9.469480107442395 28.819991059991978 2.4931083825742384 1.8974184926800959 0.7818859035340677 
6.743179526600711 10.030801620113674 33.3077661553307 2.4931392853126235 4.95262843568721 0.8558308994221485 
10.241684564115754 7.837627348103036 19.726198354962094 2.493224923505357 0.08764539848330521 0.7687583001235079 
7.267600207987975 5.303808847184792 5.135496371173147 2.4933031735921425 11.263953072946006 0.8849286994971133 
10.187818453134906 8.273213886864365 16.66386564043576 2.493333427733397 0.5271319867881097 0.8481225119121373 
6.846209348541578 5.426150446691526 35.32351425756545 2.4934141830180625 10.82508539253451 0.8107210390870256 
6.775282815108472 5.45493681014718 38.95029174717821 2.493469196910255 10.74877480962254 0.8172166605144568 
8.382836904661438 10.161897834288633 33.55687048795015 2.4935383917131984 3.2770057648411353 0.9182615150032493 
7.197788302823064 10.181662152215093 38.00858003864141 2.4935754612632794 4.473727063447116 0.8514308272053767 
6.281008903487857 5.734845410608003 17.51174393275862 2.493748756546975 10.180684990911887 0.9009836299843943 
6.193779155772772 5.801381311912669 15.732566133029287 2.493779883544355 10.071093580800595 0.8699257129695261 
6.71703644711126 5.480129900611299 34.261979667638585 2.4938572472568263 10.686980884294455 0.7185036721565048 
6.014102611112932 5.959269936607093 29.794176860002985 2.4940035895491626 9.832703311645252 0.8422043942365681 
5.535373824181315 6.602267721876752 19.225585160405885 2.49436534630901 9.028939664696473 0.8443926532106536 
9.518479084306357 9.509182631071694 29.832901882098916 2.4944421823512677 1.9525567159879031 0.7583962287675798 
6.1701139761654105 5.81963247238909 5.097311551655736 2.4944656020804397 10.043980885416465 0.8650158708667498 
6.73723269092136 10.02972529992361 32.28891627047832 2.494563101116139 4.9613318635138235 0.8096205750361812 
6.6723927460041175 9.999834800294503 13.066169145677819 2.4945929572739445 5.032792003509396 0.8365509762218801 
6.215939287922891 5.7826725585519725 15.726491875176123 2.494738369090628 10.103955833416231 0.8276603847633589 
7.1048814175932 10.16007907017883 1.5261756988691175 2.4949266742492893 4.5715542676491445 0.8818864157302229 
5.319599059108345 7.185951934599958 4.206516547050004 2.4949947802688026 8.407223927529328 0.767858314049494 
6.750947260786635 5.46365116939271 20.241383670987716 2.495094657713221 10.729975657909415 0.7377955367238531 
5.997364604859305 9.525995107109535 28.751405014334008 2.4951732302140837 5.862595485720007 0.8026332681611696 
9.496503715841822 5.96795868208258 22.668453967354182 2.49518466014324 13.692864841685056 0.8670781189721287 
8.235409482360293 10.197517836338951 10.455712236415451 2.4951885549518233 3.4309084573202515 0.8979098236888993 
6.795523046255095 10.055463648666619 28.281250855296225 2.495233233698478 4.89893797703931 0.8793510303101675 
6.1474375423849 9.662683578932997 3.315673376173244 2.4953085788489733 5.659860331500765 0.7585819060069446 
6.746937524795728 5.46511821143295 0.7095884181184076 2.4953595165603466 10.726852977282752 0.7634671944918354 
9.656786762152917 9.359657249701252 5.9751627359384045 2.4953621416214147 1.7495015133606753 0.7686800607474201 
10.007130890068288 8.814048111923151 13.951311235571097 2.495363348169499 1.0992580483620387 0.6971943884297973 
6.019706675176163 5.951963260067684 26.694125298403325 2.49536592668818 9.84718384977769 0.8514509386248547 
9.48174622893737 5.953322518691273 23.68532764274603 2.49539475299614 13.673233271908344 0.9015985277618784 
7.293792913950753 5.296590207083202 17.475658514965474 2.4954647898420816 11.300813535162813 0.8871393230326856 
10.053213130543238 6.7894088945714195 19.246540545057115 2.4955011513792753 14.693646196735624 0.8426276004868027 
6.691850832486843 5.489939604356097 11.300296460055122 2.4955064922109234 10.66706113844991 0.7379258119454403 
5.254913378837074 7.699664132128037 31.73351154266053 2.495594307314523 7.890480023674517 0.7856079613565365 
9.982909858547515 8.86469874370224 8.63112013135094 2.4956842199304834 1.1555472411604946 0.761634407446158 
5.773824885710626 9.274298664346277 9.541831249845217 2.4957472829724696 6.200870295376406 0.8251770993613892 
5.98044668714819 9.509987571753149 29.76022091896661 2.4957714598396965 5.887286971131935 0.830581145873947 
6.1946050250635825 5.798164023183743 36.16317664455572 2.4957798798074577 10.081823584304681 0.8613696060883937 
9.740008015374306 6.243603634631166 37.12572377979957 2.4958689690868043 14.064800466418154 0.8708789444310024 
8.30027100350692 5.31554593962473 1.599902809904819 2.49586953773192 12.316337486201167 0.8839873783782126 
9.539156309433805 9.490242970674583 19.65446462654112 2.495901820298446 1.9256886451031257 0.7309906730683162 
5.491305858341821 8.812011748051779 10.386683585827647 2.4959102905675454 6.744142984100462 0.8161965182876761 
7.76232550584564 5.254109699617034 27.749696194049072 2.4959207338455522 11.774074918029452 0.9010265730234482 
5.2540589300144465 7.742107934343837 33.74135791658751 2.4959535471520597 7.849161406241189 0.7417458220112929 
9.645781484125974 9.373716425793525 38.84400183416944 2.4960854286154905 1.767850892995698 0.7619053296029539 
9.702829882889462 9.304654625322435 35.04008555460217 2.496096062963625 1.678276353606197 0.7909895116820549 
9.250357576724456 9.74503658407194 39.76991195381429 2.4962459473817686 2.3114928180964363 0.8125110792993112 
7.7766698833641765 5.2538950502405815 31.793485119676618 2.4962474242134185 11.789959244951303 0.9292427143055187 
8.899072991730515 5.533882064603247 37.121512161616494 2.4963067607791496 12.957660510895789 0.9206545564331676 
5.2542517747260575 7.694336031034098 15.74663851023044 2.4963688993013564 7.898242777377719 0.7864211656742425 
5.518176939814108 6.631530133844809 15.68623853337234 2.496399209556583 9.00240718745095 0.7728798264797202 
6.630422147108977 9.981281149572828 11.285557613448418 2.4964114518891147 5.082330749310039 0.8556572785654862 
8.219074661708387 10.20199344485703 13.967485522964367 2.4964580693211467 3.4495476006096624 0.9026383493387361 
7.120912999015966 10.165910861315869 3.305918795830948 2.496472660501424 4.557392591689965 0.8676243944047047 
8.648957714294687 5.420921217060277 32.30451445993554 2.4965442013371018 12.684300765472484 0.8364223229153772 
10.034379014606655 8.75720352703585 23.272343578916512 2.496566928253421 1.036745045009825 0.6802048641885624 
8.722439904933713 5.450549096600636 25.25871549926883 2.4966204809405137 12.76392314138773 0.7817348958714851 
8.740443227012792 5.458224627395047 27.27655609687701 2.496640171192894 12.783595163361632 0.8341250515195191 
10.1766310241487 7.162829549288405 13.056349202263789 2.496659220949031 15.094249939656798 0.8549895610332288 
6.716327288493845 5.477353675972816 7.754586042049148 2.4966779104695815 10.699572789786895 0.7768885648683341 
5.3550728446523195 7.044372169077844 18.346495187974895 2.4967151850368605 8.559038267983226 0.8089861953556169 
5.429412391797145 8.6711195064184 25.261922397420072 2.4967154408240284 6.900253357758601 0.8354227637869844 
10.00744363927858 6.683124037918478 17.42334101537078 2.4968532401778627 14.585852700799247 0.7808876838243376 
9.530442812909296 9.500545225287112 30.83447947431855 2.496875086145853 1.9399000673434834 0.7723048630682924 
9.550510084214661 6.020039072738813 33.80566561033719 2.496918375359733 13.7774148497307 0.9302325341471286 
5.852546203973885 6.126695105025307 18.364168382128682 2.4970882423540233 9.611994806731202 0.8505601920816906 
10.191278446103235 7.2240869744725416 39.03981494437276 2.4972835165090213 15.161015018946069 0.9115847352724881 
10.05678599360404 6.793276646174952 36.30957071296578 2.497314797145533 14.709270070126493 0.7705273092355465 
