402

8.92570963318033 8.987332432774151 9.966644929679042 0.41732300785408505 1.5951701549869597 0.0 
8.938335521332007 8.894719312507792 19.282695873619815 0.4726088384365301 1.8867938175538903 0.0 
9.115111847842059 8.763670546976332 23.461836534762234 0.5046891622284768 2.2417436511834055 0.0 
8.96381858127171 8.826532599088953 21.31983552158148 0.511101207257127 2.1047589517905614 0.0 
8.73631081763508 9.182134840655687 12.291665208896774 0.5181527341735925 1.6958855279613054 0.0 
9.097179803394368 8.731944095747515 32.41162658092499 0.5401258486884712 2.3903468251663966 0.0 
9.183331562662412 8.690724705232059 34.52290768031078 0.5632348851720808 2.587356759957135 0.0 
8.647712262275814 9.246617794071376 25.652279470978236 0.6022972342040616 1.8955547899575294 0.0 
9.220010376386007 8.640967636495418 17.24498427547782 0.6097702824182925 2.843473032558105 0.0 
9.198144748033268 8.62170441511837 7.472175849277505 0.630431843372687 2.918926168512389 0.0 
9.085658658071022 8.611786320169362 4.946841962143715 0.6590332144816236 2.9395267767405997 0.0 
9.303299472467732 8.579201570153135 27.843909688706603 0.6729126000086154 3.2243812828678386 0.0 
8.570266786582447 9.271527243216681 36.69140318526925 0.6800740133422707 2.1149846843520237 0.0 
8.557563707297188 9.265855434075046 29.951292750039357 0.6926177980977117 2.160066167019501 0.0 
8.547441905249851 9.23595104256064 27.799423259597795 0.7026985482439052 2.2216424903880636 0.0 
9.35879542747129 8.512393253361505 25.811339278509585 0.7455871228268913 3.6226818017307387 0.0 
9.33345209961799 8.499081547341532 30.296366236873887 0.7555413790611576 3.6440275921510974 0.0 
8.45157317173138 9.31802689868394 7.836516727697969 0.8013195736057153 2.449310810031129 0.0 
8.394402710302106 9.432236183168456 5.199420359277745 0.8747895453160082 2.564651708884927 0.0 
8.391131169494962 9.416421188774699 32.09828763329156 0.8748438032507728 2.5809612483857833 0.0 
8.37307945612839 9.112004077460405 2.7043550275580444 0.8877119549164769 2.9273871913056695 0.0 
9.423863531169465 8.371548031037845 1.1521538342162287 0.8954922608510891 4.394882670846368 0.0 
9.21693578988397 8.312596747324228 36.863632794669364 0.9379861939909953 4.387084742895681 0.0 
8.328027773350186 9.45192579301273 15.403790162835882 0.943825626160594 2.7616168141211084 0.0 
8.286997838451166 9.480037158369045 23.623513298214924 0.9900960849221843 2.8783198696025423 0.0 
9.442007524550757 8.200957949200273 9.41641744890439 1.0664689933749623 5.218676992439157 0.0 
9.49799978576787 8.102665047376096 39.16839895148134 1.1738319246184261 5.781435463240545 0.0 
8.118013092537154 9.59949535916591 10.129988169254666 1.184711511189879 3.36710686229155 0.0 
8.10485058237919 9.606621241142005 38.75220560859754 1.1993939712667165 3.405910604234119 0.0 
8.068852845723148 9.498324885062543 21.269245080432185 1.2069688681145117 3.5416934741841537 0.0 
9.657534981479062 7.913697143982004 15.40544583182605 1.397064810282969 6.997060787406962 0.0 
8.294789537266599 8.217573817087793 17.12504165283292 1.4065314967244893 5.578049752769548 0.0 
8.643633625673202 7.955863504969418 3.0605731014071154 1.4291499038534292 6.108497122719648 0.0 
9.63724389881371 7.862351922545415 34.898800237033505 1.4406682560644724 7.181054679917381 0.0 
9.59461891812717 7.81391562737187 21.620356222489924 1.4768549434652911 7.30734054036375 0.0 
9.681136376812834 7.818195623970041 32.79321563601349 1.4953067734180285 7.48381227478648 0.0 
7.734647930824343 9.67642438556061 12.137466530422948 1.5742076261267712 4.513699655614651 0.0 
7.721034577873835 9.699735091846353 25.653182145752623 1.593736777167261 4.550943268786082 0.0 
7.718587808169438 9.77663052709117 0.8303121691330126 1.6194329295625698 4.551214393591337 0.0 
9.767001897744674 7.674776671019934 28.292868029271943 1.65789610604363 8.33842201590869 0.0 
9.685883227418163 7.649057032355019 4.7768226725548715 1.6592204716662593 8.259951524890774 0.0 
9.742727582515041 7.645211827446383 30.720806876145986 1.6787273600376853 8.410907824303582 0.0 
7.60428027372792 9.70519085667493 27.715348504048727 1.7075105075640096 4.903540116469809 0.0 
7.554651401706227 9.557386651399492 36.483404508584876 1.7229896758817933 5.103890684510674 0.0 
8.580213882566666 7.621389328961953 39.41524699616556 1.760961714781276 7.611249172542156 0.0 
7.521653156039598 9.614635685605867 2.940130105748075 1.7663923675800755 5.182008927643842 0.0 
9.771864162656879 7.5327392895565755 25.808997337676004 1.7948054356665581 8.987333587744391 0.0 
7.521083630307787 9.789209276313871 7.773743579419502 1.8110489935539098 5.142066937552386 0.0 
8.750144769982942 7.461660100247457 15.254614976871899 1.8568831002576172 8.244257564963288 0.0 
9.74829747753693 7.452280668142853 1.3779016276523421 1.8655013192845953 9.29538956254888 0.0 
7.480055543284568 9.856028627868303 5.483990332150672 1.8708217653356574 5.260198150085014 0.0 
9.812701883895155 7.447890711084771 37.301109395655246 1.8879171855072725 9.467985235093774 0.0 
7.404821802090169 9.765703536524274 33.99146458809132 1.9158895374278284 5.496801287597876 0.0 
7.345026586043989 9.836203166319017 31.94787130583653 1.993127657748408 5.666593773138366 0.0 
7.318637461888596 9.866648630552671 23.42079871002008 2.027416283643449 5.7427406854765835 0.0 
9.89427128065332 7.308383811228332 9.358338950536144 2.045717211047241 10.295642341788621 0.0 
7.175817081603469 9.860330576249636 19.09153626569698 2.1621142872829715 6.173740922076142 0.0 
7.66796002778208 7.7655684736463435 13.234656505583885 2.1694209896025116 8.450265061711583 0.0 
7.7901459142028 7.615658872815283 24.840875757745103 2.1914024896915176 8.729063701895129 0.0 
7.784030944830174 7.587106651627298 6.238129715456836 2.21681743920822 8.844759960363234 0.0 
7.095016920875505 9.82366774946383 10.101035523449873 2.2300329051580796 6.425663912203905 0.0 
7.754898883583465 7.588014090070132 35.67790769582222 2.2355143732741647 8.896904655433595 0.0 
8.922231619248215 7.032897303841079 11.60727011088035 2.241199785100786 10.232457006200761 0.0 
7.080127921016231 9.887656283677693 17.015671507864717 2.261625604574504 6.458684507331295 0.0 
7.934834142456623 7.383532893017046 29.29848227308628 2.283278496876175 9.358161706093401 0.0 
7.0385877966627675 9.921487207746528 21.189194457887318 2.3111120706785435 6.579259895666212 0.0 
7.760658416859346 7.475888879035665 33.641641072455414 2.3163783414635084 9.298013422585008 0.0 
9.94788157427687 7.001987276403918 19.592134419181818 2.3538478916797123 11.800779782502602 0.0 
6.931433406797927 9.830010537241723 38.386716482393595 2.3900132364537443 6.9225879032624675 0.0 
9.528176058909096 6.8523623075989555 23.88415912726883 2.4137208669960986 11.653187175983728 0.0 
9.855744406976953 6.86618590647636 21.82653871437101 2.4595723040939035 12.202502733093247 0.0 
9.90064113822175 6.86662598213241 35.256574145143134 2.470588108081312 12.300779164134177 0.0 
7.761168616047753 7.269785705324518 22.837603025877357 2.477472006436858 10.077619268154045 0.0 
7.001685601645349 8.203134600137219 4.314450322185586 2.480089675652617 8.872178310817418 0.0 
8.01005809711334 7.066827228442321 27.288344721912054 2.5107168842792724 10.534631638765681 0.0 
7.421223171690624 7.48161351848381 37.76641403671705 2.5439369952438904 9.947312789960993 0.0 
7.183032081951341 7.764489201960476 1.6838739876859705 2.5454073751237596 9.582829895624013 0.0 
9.660531143478982 6.676075280320539 33.257697108176544 2.606458187338358 12.69489262235064 0.0 
9.86187387968795 6.707988460783611 17.15841617722264 2.6146151361440673 12.938684680365494 0.0 
6.703751467990548 9.856693912390398 12.526873749637524 2.617529195652242 7.61094871065805 0.0 
6.8278093703329645 8.219217866908766 6.4601818000714175 2.6323980041678547 9.329049194873487 0.0 
9.677472877136761 6.636065129199936 6.554661773565215 2.6486578807902177 12.91085694665697 0.0 
9.926321152708404 6.678964454670002 13.522914664899261 2.658502224364529 13.211733902355721 0.0 
9.95636725151664 6.675617775336782 2.070433999988257 2.6695315193263998 13.294751949683654 0.0 
7.801041000779449 7.0057323581224225 1.2808890848528733 2.6713703280902417 11.057053744764815 0.0 
6.631941398108155 9.887568559970568 35.96567804943343 2.694573159445265 7.821578536580631 0.0 
6.626145974714219 9.963698276563395 0.9537561076860541 2.719186491577573 7.820418718215411 0.0 
6.568170732730156 9.782610811423169 29.672677654101747 2.7342060081914017 8.053723505768104 0.0 
6.612551225450051 9.972364890993145 3.3401978231747584 2.73458352845814 7.8599062219382 0.0 
6.606194571241877 9.960062199670528 27.506945479283957 2.7374980315119606 7.881828175746801 0.0 
9.694857955953896 6.533601857107708 30.92128260426317 2.752583781047213 13.418063118906485 0.0 
9.911536821935284 6.572427637424463 26.43375096491151 2.7580835236817194 13.665212308534887 0.0 
6.577237357285744 9.940276071158188 14.561029776981599 2.760460323696482 7.974561783257929 0.0 
6.826113357007932 7.758575461135857 33.32437815435912 2.845974984640847 10.51072174704322 0.0 
6.689061054914456 8.00574823019053 13.341816077005944 2.847204022744042 10.232459781555121 0.0 
6.59137930164251 8.230466787644929 39.644623463690095 2.84740443014861 9.988064873747113 0.0 
8.149368454929894 6.556699470362492 18.541782443544683 2.909511563982705 12.582018298879003 0.0 
9.846865899315398 6.401740708478176 8.535989333430301 2.9101254085530375 14.314774677779766 0.0 
9.94370298723115 6.415794954675627 37.39853268107757 2.917866013619464 14.450529563747342 0.0 
6.761929271392104 7.677661372026439 35.38790737130148 2.9432541024473604 10.905270894121795 0.0 
6.592367242368155 7.9808230637995 15.38834663559318 2.9451353058596696 10.564574327320003 0.0 
6.304646876126705 9.690714092706951 33.879117407116 2.9781426990358746 8.913772543159197 0.0 
6.329041525183028 9.881382309442449 23.220460085319104 2.9884179815216534 8.752215482048413 0.0 
6.437704264439587 8.102973354415505 26.381687048973898 3.0372154072327646 10.717900687034817 0.0 
8.113797521335885 6.4330711198232695 9.852612555520455 3.0374404337363075 13.149078965734208 0.0 
6.258068566544925 9.923318187598351 31.806239513030107 3.0667590521994486 8.955659283100395 0.0 
7.019148813186922 7.109611795470535 4.395499623749039 3.0915948447030024 12.076693011835584 0.0 
6.39429145849428 8.001344460271184 17.75751053294944 3.1167630533815327 11.076328702260511 0.0 
6.182235105563169 9.973795790341775 16.527214086910476 3.151993304824029 9.171966353434701 0.0 
9.96789080101457 6.152365963008002 39.68107545869053 3.1797332953115243 15.708274004804625 0.0 
8.066235542495576 6.294940322079036 20.978996832878273 3.183343523863722 13.788254337353969 0.0 
6.22616752544095 8.097592852402698 9.175916809370307 3.235985949912523 11.344420589405573 0.0 
6.074500792489264 9.942354945311415 10.520496766432263 3.2501000887970326 9.51278919483622 0.0 
6.067061927516944 9.932164104731605 20.864409930542678 3.25521775601056 9.539309827046331 0.0 
6.0522091907599265 9.898350737245003 18.804737007045524 3.262855304506531 9.597867265264643 0.0 
6.197917268842458 7.998968504919102 28.500833905844956 3.2985282778103384 11.645782100618156 0.0 
5.94391424604208 8.607268484192236 25.620804396869303 3.3679826029740783 11.22752747044526 0.0 
6.550918874964259 7.2248657409257415 39.57774888634575 3.374345519771272 12.772872911253668 0.0 
9.814734200198693 5.919707762087937 19.73951950090425 3.3778352693361757 16.48507245308012 0.0 
6.000736813592821 8.220082402939186 7.073918251182118 3.4085835051053763 11.754651074081874 0.0 
6.601197843181819 7.091423703700277 17.367359988305566 3.4169583686243064 13.071124750945529 0.0 
8.159965672649884 5.995828542151731 3.1353809119698965 3.431880929151819 15.063110288832384 0.0 
6.663349272653189 6.98892292562259 15.272060166529663 3.435583141412663 13.261115474240956 0.0 
8.054342409919403 6.016006163041767 16.493239578844104 3.447943330479953 15.027031231392428 0.0 
9.91604734395256 5.856331550623719 24.165819379437224 3.458410705610059 16.96761140370296 0.0 
8.043759716425988 6.007521444683326 0.8119797037834857 3.4595784141142403 15.070756196311159 0.0 
9.83812468418188 5.8129449390856855 35.4289783973763 3.4870099133642762 17.02309645611128 0.0 
9.915946260832094 5.81499018575983 29.02410156590745 3.4989679687362853 17.15853190534593 0.0 
6.573457967707803 6.993002224606754 19.73517016551046 3.501130704323523 13.451889390481323 0.0 
7.0665339749138045 6.497865557162649 7.786570002683085 3.5130852358229756 14.198845990519036 0.0 
6.0593102602874644 7.702125094657946 23.834501779424333 3.5463245392510983 12.742892571698498 0.0 
5.734728020992629 9.743523781897492 25.220771072104338 3.549746865579687 10.656730971335396 0.0 
9.911782138317607 5.7459990247322 27.00720059931357 3.56594705979687 17.469770658925082 0.0 
8.01569483848934 5.877699118564365 36.7191754179727 3.591089314771134 15.662610444217613 0.0 
5.791724020073405 8.144626468949014 30.593905815728455 3.630636775620135 12.529186588432466 0.0 
9.731052654531776 5.648210339471137 33.16635160392794 3.633772201875715 17.60621704707812 0.0 
9.798614176504838 5.637500609299534 13.263707729280917 3.6539197257839886 17.76938767824931 0.0 
5.631827192057745 9.804775427103834 12.55078834154839 3.6604576548091616 10.942745313195573 0.0 
7.004350152740759 6.344371995599379 9.865850552988157 3.6722768599947067 14.888937846527242 0.0 
5.781306454111233 7.967681166278918 35.2239646560449 3.698131488550156 12.927536689905516 0.0 
5.602849000176757 9.865212568674522 1.3565609118843032 3.69867502224334 11.001644976450276 0.0 
9.810190483274702 5.583816716822213 6.6722293887376125 3.7087347227058185 18.03934341436799 0.0 
5.586612386114181 9.829759443560295 29.449461614392803 3.7089796200531193 11.069956409199463 0.0 
8.019838974041003 5.7145413519218025 5.511031889672779 3.743362659703097 16.386727505598323 0.0 
5.522628204390708 9.708371002980076 3.594780482422024 3.7554499702534443 11.338577247670145 0.0 
7.987590422083903 5.712089344223047 34.57771469051428 3.756393183716849 16.414117167048715 0.0 
9.803658204039156 5.511041099028045 4.2917984219564715 3.7797289678040746 18.367210648709232 0.0 
7.820587776245825 5.743422979162975 32.56036475071201 3.7867270443590364 16.37879090812644 0.0 
5.490362057675213 9.744237571817422 14.579410611414374 3.7919847355658156 11.417223670486564 0.0 
5.490461156313232 9.848414052632421 27.33091236092396 3.806866387933466 11.358717168542142 0.0 
7.0611371742935845 6.1303825477441425 11.863940776821323 3.8109229220988974 15.626918446761515 0.0 
9.825388646674844 5.479386332003521 15.56324848782371 3.8142626453882498 18.551882844667542 0.0 
9.84649545356797 5.477014150909431 10.728762474714188 3.819846730376093 18.599550342068337 0.0 
7.746674019365955 5.69795635063439 30.442002950440234 3.8570718286088317 16.631770077923363 0.0 
9.780849934176635 5.425877923939529 2.0449714676452757 3.860791538691048 18.726088503374907 0.0 
5.403117475431454 9.799949932365443 34.346477635055386 3.8859940923706535 11.656408063393666 0.0 
7.830666906252937 5.5816035355452325 7.981237293047606 3.9334004438182797 17.083620459340484 0.0 
7.734752857780922 5.6168264893565265 18.497823940276234 3.936486207323034 16.994849184759072 0.0 
9.744042403386079 5.342726211406248 8.66717713937058 3.9383837237343027 19.05454342831945 0.0 
5.611815184420708 7.631311464164035 2.9771892242105835 3.9820272887511097 14.176857847427126 0.0 
7.221916102189766 5.795063567256975 24.13734347448758 4.006208937493433 16.75226454479869 0.0 
5.273529126908846 9.774082512329498 5.820663540871379 4.010858148111437 12.074897076586954 0.0 
5.196734822092401 9.674965248166183 18.28595035886549 4.075482065300653 12.377765368515156 0.0 
8.443439315344003 5.245649594526842 22.648227390374544 4.0847720019415785 18.43713861553016 0.0 
6.899265037383218 5.873906586414208 26.11856373533741 4.1138742812252165 16.883991328098027 0.0 
5.159115015547513 9.724226424091892 37.385273531591224 4.118280060574536 12.462677625002165 0.0 
5.13486800237318 9.61899168296837 39.391599127138704 4.131642073073602 12.61045241617683 0.0 
7.883750145151149 5.312134500416732 25.991709663837483 4.168143874518094 18.24993538868189 0.0 
5.430178831720497 7.581447335651728 9.69108258740706 4.168345205395051 14.811912256929809 0.0 
5.384456950158155 7.631712542622283 37.54150124419185 4.190617778429169 14.826689194978293 0.0 
9.358477686731298 5.033060085663259 20.055856245209604 4.218334938058492 19.986924724023424 0.0 
9.604820263333057 5.024627718854534 39.7681802335384 4.240243900242556 20.33691429091725 0.0 
9.672919014247338 5.02647749404688 24.962852889172595 4.244644019338308 20.426035603011215 0.0 
9.563839564361087 4.971521962799439 29.676120659874087 4.28997314524997 20.53014235505855 0.0 
6.902359784847066 5.627668525731508 34.83501676844335 4.3165611184459625 17.859120686301374 0.0 
5.335685899554122 7.416866800774065 11.779629955196867 4.32229478437713 15.471968697297093 0.0 
6.851797774901527 5.640913285466684 36.99465889426452 4.333229837602448 17.878450353860934 0.0 
6.536953434639029 5.858768068276067 28.38187649197458 4.3429339944973835 17.535191274145113 0.0 
5.28720046601987 7.456486273304501 28.094870615011565 4.349766848275701 15.513862357249707 0.0 
7.181061470028666 5.397386206091699 6.060744271831972 4.373001221794074 18.45215949478486 0.0 
7.4453766957276635 5.226987000945327 16.303101171929328 4.409228828365078 18.918769254054617 0.0 
4.821328870933096 9.470736366433815 38.4405281455246 4.434168751062272 13.709524336116726 0.0 
4.948582084957623 8.172476714658327 19.802939484298662 4.434326612948242 15.0192673678817 0.0 
5.168541255694679 7.5035985875364535 1.0065607079167762 4.439394482913299 15.74167426892079 0.0 
9.424536907333373 4.80695847301368 35.702373914709575 4.446468389918727 21.128070401578 0.0 
5.922714115547192 6.250525644052274 31.759986622743504 4.479696169258237 17.359824402179385 0.0 
6.474683553205974 5.730874546139935 22.146641763490933 4.4818104979852995 18.127195810260282 0.0 
4.738211967901279 9.191093788109098 27.183008858398686 4.512172557470356 14.234316043546833 0.0 
9.215237812897222 4.73072848762121 15.260089797007574 4.519405205582991 21.262432758796912 0.0 
9.445288983447472 4.729934556993485 17.782229783144686 4.524282196781898 21.515527245885107 0.0 
5.120584509163185 7.381831155821152 30.112077381809897 4.532342344342887 16.164349262304505 0.0 
9.491400281377906 4.7156995338007 27.230172694996625 4.54072183838919 21.639161694029873 0.0 
5.11424912924657 7.300424099422898 23.42873111195332 4.57222937493831 16.378165664989552 0.0 
4.677568283045623 9.480235718677752 1.398661704919057 4.578224578629298 14.152583828530371 0.0 
4.666306140154006 9.385329856738842 12.622578433104167 4.585691177010813 14.271024205335863 0.0 
7.2139569395795125 5.117486922030492 14.274566695899036 4.606857462899783 19.600369806436127 0.0 
4.642675422883155 9.288817465191201 22.264557623347944 4.607488095970381 14.436032829397174 0.0 
9.382824884882677 4.644029717261461 11.184717732112816 4.607885056673466 21.84699005003473 0.0 
9.357845929324665 4.595506707312186 13.260367841166527 4.655742535423081 22.047525395643298 0.0 
4.574918222602966 9.398232945329909 29.32318676357918 4.677431200074568 14.546325726911288 0.0 
4.5637820312632655 9.386991981536255 14.711993784201628 4.688219881097331 14.591465653062585 0.0 
4.562151535749734 9.34745830859733 3.933810378442516 4.688861412506051 14.633027239959326 0.0 
7.117426308611929 5.065299936007898 28.119710688177914 4.696763265779535 19.91935491239397 0.0 
4.722602245885794 7.94280539674838 16.59405047483232 4.712333620906793 16.128800639302533 0.0 
9.314418726565478 4.532755937618695 6.808511923163259 4.717683893225996 22.295982319941306 0.0 
9.147544768957129 4.533325992008718 22.419656171365386 4.717786639095562 22.129582483814737 0.0 
5.583957117682365 6.25457647374753 13.455277077585968 4.734177068574702 18.11607383353453 0.0 
7.1702767583024105 4.9572190493116395 32.73559539532762 4.770033233914623 20.32626808346479 0.0 
6.958892579952224 5.065582445074778 30.489115656086668 4.770589427331214 20.091059053717103 0.0 
6.987719187458641 5.038307516337779 19.28111192849595 4.78082294712214 20.172540928808566 0.0 
5.140405505665315 6.778850332678081 25.508564738325035 4.795346451109783 17.661148349916147 0.0 
9.280872916051685 4.443142494897968 37.79107859846655 4.806956647537116 22.683122663343326 0.0 
6.169314540647976 5.548978609434766 2.0158656075171635 4.815410910076565 19.349327065407188 0.0 
9.295902906303379 4.432462212228383 8.917905295304337 4.8177564709535226 22.749046104741943 0.0 
4.955060005052307 6.979241444563982 14.18501483353544 4.858276852680091 17.625537425508938 0.0 
4.37288536211396 9.274451169935702 31.62063791161247 4.877175929858745 15.297648799146188 0.0 
4.363580220157186 9.1692363090652 20.11773225741532 4.887087173216017 15.434004528397423 0.0 
9.182997110661436 4.3559315360934825 0.44337472114243326 4.894527098360373 22.997910580288313 0.0 
4.342795680159577 9.179944805090582 8.26978558657095 4.907704347960898 15.488065499773917 0.0 
4.882190266309047 6.942835412726831 16.272931420921488 4.93971358506673 17.919110302690186 0.0 
4.261156509033878 8.980476804816158 16.658036031175648 4.9961187065658414 15.965423920619308 0.0 
4.258350222332867 8.994820966273084 10.595191258107373 4.998168048609227 15.957498043592395 0.0 
5.188555629343739 6.327353009488604 29.786429661478422 5.003718198208285 18.840787099600128 0.0 
4.886715404742793 6.787123882113965 38.453807284890615 5.010390327236216 18.315309902885396 0.0 
6.109827879485536 5.297462089513225 39.217136197497396 5.048092400134081 20.399488801139164 0.0 
4.852624867162646 6.752789797645427 3.03622763829938 5.056972103308471 18.49873041300443 0.0 
6.8722143970389435 4.771435261390911 2.039961898925881 5.070641625234578 21.419951467459178 0.0 
5.008232756829228 6.41928181256262 34.09693674716073 5.0995641776455125 19.021701149418057 0.0 
4.918304126223148 6.547585015261578 9.554133930685325 5.105549519163844 18.88736242960256 0.0 
6.648238135718714 4.851167668247502 39.938681036807445 5.110664407031591 21.353724312564715 0.0 
5.015840279512917 6.366317944451453 20.913405324316866 5.12286352893457 19.15688762244161 0.0 
6.697724069208371 4.806409828290492 4.180160988378066 5.124412750843907 21.476549237889763 0.0 
8.907100860163245 4.127372861514441 29.52677768865867 5.134090827015971 23.850678454657906 0.0 
8.676379397590628 4.142409952783063 35.84675295932993 5.139700057974011 23.64544776505377 0.0 
4.862097732832543 6.56191685720549 18.248475426651723 5.145821342486478 18.99443258429198 0.0 
6.358646055627741 4.9556352905703465 6.442791148748064 5.177016118309064 21.328347715116852 0.0 
8.751404853544756 4.06630431430763 19.63683761666686 5.207619233578278 24.040967430891047 0.0 
8.928252813778137 4.045554348238257 24.74428764236989 5.214381631026194 24.25024283287929 0.0 
4.790014127734166 6.531316830338337 0.5115793990104152 5.223285571152741 19.268809040462106 0.0 
4.714221015055086 6.651798012567611 11.578265869236297 5.227231061256575 19.141021882622393 0.0 
4.862709340652735 6.375183703208143 31.85387232736673 5.2452729261589255 19.521105346714908 0.0 
4.873719104858393 6.296064249664947 7.1189776937089135 5.279921485239051 19.722269534956016 0.886996324229585 
5.7265648322309985 5.316434613281696 4.336610692304642 5.280864705051599 21.028059026578322 0.4509677295321232 
4.751581412384182 6.48281165743701 22.904515162865025 5.2813919673343666 19.504577763269122 0.8277559557033378 
6.168385752079603 4.945398288008983 35.11871463053369 5.293953368878686 21.657981926135616 0.49649534222545516 
6.2802946742116905 4.83388103906956 37.22338040018136 5.321771922875389 21.92772142605796 0.5323688589871972 
8.663215509444997 3.957837863661279 17.599781491113575 5.32459351647176 24.503577069676854 0.7114135870604847 
7.466021541686819 4.215397843056403 21.216287398019404 5.34132923703703 23.35148991511603 0.799131677209225 
8.723585334898022 3.927098724013285 33.75741795177284 5.348868141348731 24.678679111679298 0.47366665445816797 
3.9179748896488924 8.80341138031533 26.627518521541916 5.350694643936112 17.25681173995947 0.934823829628674 
3.91601749102937 8.677931421002931 29.00053285305689 5.364571918157154 17.426458126572353 0.8544377249305902 
4.934662294299324 6.062403588512325 36.36396777221474 5.364970679954466 20.267791215013634 0.8501155571625956 
8.68378499849672 3.913502274875519 2.81470838345102 5.366452030735591 24.721538559978722 0.5854211528847253 
7.3787736173197125 4.219960069368344 9.506373739636103 5.366823071332581 23.379180278481886 0.7818808368889789 
5.150921426510644 5.777643845934115 38.646927101501745 5.372122710095029 20.65261271467686 0.7142478352954094 
5.949310833877147 4.973027559390388 26.465136803014673 5.402503329855049 21.907810057716258 0.44299245856730046 
5.554000620327978 5.309505239706178 12.943284934995987 5.402583675468529 21.388810342943838 0.39816455151177815 
5.917225196899212 4.9799861405090535 17.581139154862313 5.416678525482958 21.935639599990314 0.409193556528479 
6.078091928479715 4.855648694537374 19.688108201111504 5.419531733461536 22.15055678689122 0.3463203042166355 
8.774652292687147 3.8488102976578453 11.282556383936239 5.422066547317037 25.074927915254488 0.7770043099271372 
8.61118412248534 3.8607770504694745 15.320879193624549 5.426952157989909 24.933609149768092 0.772633947898749 
8.67799989618348 3.850063010929402 13.297750518516892 5.4301476595668134 25.015904746954266 0.36083418868771383 
8.60322362818114 3.848879950324947 4.950571148990878 5.4397074798324425 24.985707522967683 0.23177656341105082 
8.642204699175622 3.8252835163034202 38.399210658241884 5.458659547562348 25.114268858347646 0.15949915644221735 
5.923043159730007 4.920371239362241 22.36724165253667 5.460249721575098 22.153354201129343 0.6253409614365699 
4.999027459858469 5.8082171252933215 4.839741274539975 5.469610305466151 20.90587715026151 0.6360854036168835 
5.7593257503579895 5.0346290801894185 8.503332260044957 5.4730392570032365 22.00576451524987 0.15944209533191772 
3.8066534799544787 8.615009999527887 31.008832519769086 5.4802585375136506 17.853159461962015 0.3466404428400832 
3.7958001139545097 8.62300221283535 14.422731429719299 5.490120456059959 17.87609090116444 0.06536343260385223 
5.190766418679376 5.54228811682761 20.028445477264192 5.497681754734334 21.340697627147325 0.5388462323108991 
5.0529087450477626 5.6923822772872725 9.02507248869351 5.502019525897398 21.153693517662337 0.3669570754771009 
4.972069945281508 5.766449377006811 2.4830491566292565 5.516866003087256 21.10199597769721 0.3108692489440906 
8.43110629775037 3.7824463397052535 31.449451457937464 5.52853777447406 25.230702421582503 0.8083482850403404 
5.43155421248429 5.243472841907558 15.33828609862249 5.53468952161987 21.867681340520303 0.16708162517503822 
8.257770515441539 3.741416090237651 24.041055242833764 5.597232891431247 25.378837390454603 0.0 
3.6757454171425685 8.541651698794443 3.996000046904715 5.619081016530007 18.36310159918187 0.0 
5.302814346063872 5.156445965966496 24.32915232088766 5.686603486809254 22.434743461510056 0.0 
3.624521706476701 8.389623646351325 8.392884358405489 5.690892153328825 18.742153093672446 0.0 
3.632788607248525 8.304556939845074 39.73666142784751 5.696220361858561 18.845042730374796 0.0 
8.290350748833664 3.621205794702936 0.6081656884339566 5.710013212843724 25.943578039802393 0.0 
3.610994711326976 8.089727272329263 10.377586871880354 5.757135871964359 19.254850074039076 0.0 
3.551919903485743 8.109616452758992 18.347576017599025 5.81107489377911 19.40386320080997 0.0 
7.766160942454423 3.544745172551508 34.02336711865173 5.895058184176139 26.279835131657673 0.0 
7.149890994538083 3.7338934321032866 23.458756870759878 5.902363044003266 25.667076682154 0.0 
8.092870499644993 3.445114941360856 36.383756023352 5.919091080951856 26.72843008160105 0.0 
3.4293028513330697 8.143779300499217 37.737467356032354 5.924883081758097 19.726319918582135 0.0 
3.4578439955911264 7.964189294543999 32.96626314994248 5.933159390213197 19.93566438113924 0.0 
3.4239518207777007 8.00130739410812 1.9248814571881567 5.958361403156788 19.976762859315613 0.0 
3.4080456880154575 7.829915096255224 12.560644250272034 6.012077121690856 20.321130334952613 0.0 
7.592472405173362 3.4662074025692364 38.42660420741006 6.016614873640051 26.67338531113391 0.0 
3.319830211523942 7.917066079610493 26.534637137270657 6.07812689537485 20.438854815705877 0.0 
3.3124879471686732 7.94094058358653 21.55514273379476 6.080105750167347 20.42060552365533 0.0 
3.312427912053029 7.867648563158312 15.137644843120569 6.09636430952951 20.546773277300613 0.0 
3.3651965067062974 7.623371221927105 4.492890777669473 6.10547568468966 20.827431377624645 0.0 
7.802807368385466 3.2796641234426023 21.446807769410732 6.143230175722522 27.488366311113378 0.0 
7.71874469097041 3.2646913282737238 5.015252933617347 6.178079209371879 27.566129356758697 0.0 
7.396230785756814 3.342683686375608 25.91065371341574 6.191352544387105 27.293413635633865 0.0 
7.633154250820414 3.269986134211921 9.209445383387106 6.1947361535143495 27.556216653882 0.0 
5.493027156892863 4.242403246895069 29.161719200637773 6.260261191480078 25.47128061238038 0.0 
3.2360456589025075 7.506267091387215 6.509867893493933 6.261649245477154 21.438646811349106 0.0 
5.297954776185254 4.379162383010268 33.40849734980068 6.2724572969578 25.28273384500078 0.0 
5.128677935358219 4.513848317471762 31.1272488891116 6.278250418740739 25.089730133911363 0.0 
3.1983450339945048 7.546323229685099 20.57083550332117 6.286894492934456 21.47611062108037 0.0 
3.1877517936889 7.4222512517054 30.805851180485348 6.331786383147701 21.74602734071188 0.0 
7.097821944519575 3.1971198301059838 16.475613681012987 6.424113069800976 28.07830269465884 0.0 
3.2121855106515422 7.0076275703279185 35.39896154950728 6.44076376846253 22.524593768274425 0.0 
3.106007273265181 7.29007507402395 39.732411920109016 6.449027239951198 22.251639300258606 0.0 
3.1131783941591102 7.162022831441151 10.33559966169581 6.48230114067054 22.490629564921843 0.0 
7.137111509331348 3.1029691873657104 28.939657006616123 6.500021968076371 28.478645144651363 0.0 
3.1521660574307315 6.982010907334827 1.9357565404149 6.505947534033616 22.755672035680174 0.0 
7.153137613135955 3.0685099778213107 12.233052113570778 6.52745362019064 28.625188983681873 0.0 
3.096797761499568 7.049928126885812 24.675552354698624 6.53469310945471 22.773254066557218 0.0 
3.0752122891666414 7.109959249420356 37.41118821104191 6.535118796777924 22.710942714409804 0.0 
3.104130607703903 7.014703192130488 32.89262445325997 6.539744827318086 22.82649668058738 0.0 
6.913520193041792 3.1400235688674165 14.379152067556433 6.541479181142377 28.436744978700208 0.0 
3.215751723616883 6.7149764508682415 28.779630098746857 6.5451124249844 23.16518641739763 0.0 
6.88448107546893 3.1266514305175344 11.166852884990682 6.564379444067627 28.513948321809064 0.0 
7.01105824595394 3.064367796291222 36.40889748872368 6.578366509823695 28.715232524222177 0.0 
3.1306981644098117 6.830049843358432 13.033647630194622 6.58042656031408 23.151129609720176 0.0 
6.965882453616 3.0752488932797455 0.9254233355765962 6.583672546204151 28.692211398670153 0.0 
6.872028512680026 3.102657552797057 34.36419513159437 6.591249316911768 28.627694451306127 0.0 
6.748868089726112 3.143118155451286 13.21612173465568 6.59921712749846 28.53282955948401 0.0 
6.734384385268769 3.1220948779130087 38.89714358028533 6.624163577870008 28.63525451656587 0.0 
3.0913771934830363 6.7816522402978805 15.059599292407036 6.634860626703275 23.373184452871858 0.0 
6.844891315271047 3.059000330806401 17.48397292810796 6.641763673100231 28.837533807958348 0.0 
6.55345126627699 3.1784952664409696 25.286646438386455 6.643383535742376 28.529516985778102 0.0 
6.879019545959583 3.0332771096183926 18.485576170893932 6.653509736164542 28.92966057848022 0.0 
6.745319702906233 3.085369142448922 15.451537015601051 6.654028629373386 28.788419834573876 0.0 
3.059404789237523 6.798421144231381 19.885960702837572 6.6583562498237585 23.428494529542746 0.0 
6.580631051812345 3.1232131930097298 27.831836724766575 6.683041759547708 28.74710574662213 0.0 
3.0867035221458083 6.566319904136151 17.075789712137414 6.722228970428312 23.879130457949298 0.0 
6.655275415654246 3.044823258116269 5.324564805470338 6.725831849416327 29.03091325572079 0.0 
6.625523871061404 3.054080306858534 32.321752139378574 6.728840598143693 29.012880229788674 0.0 
3.0478861913819433 6.591257073490645 4.024067196803145 6.747972261673452 23.932216652530872 0.0 
3.1334663454805396 6.372597471714812 39.3340717132409 6.75954356866284 24.207993237471538 0.0 
3.7293686557438326 5.277123647834438 25.917942378573827 6.801552539588295 25.610427682121955 0.0 
3.0629941744885603 6.372787472727602 6.136332403812361 6.823297810590251 24.406146060765725 0.0 
3.030438163370249 6.433651681028895 8.332514939480404 6.8275008087463895 24.352262032353913 0.0 
3.0348631432845785 6.417009194789209 30.7636572228063 6.8303559973189785 24.379431809704037 0.0 
6.3530615989877814 3.020690201044959 7.383111469449105 6.869974721250184 29.38350346051678 0.0 
3.212938986770933 5.958579951677088 33.333520119165925 6.876012769909053 25.033809198603247 0.0 
3.035766429229268 6.218192832729439 23.926946231604777 6.91437297024156 24.86061578721068 0.0 
3.090831201785581 6.104397731952433 37.34654795484997 6.915936228280597 24.992660638209937 0.0 
3.2814634327798657 5.736301188954579 14.92284926611184 6.926002316559383 25.443809179391298 0.0 
3.0533237907979807 6.071197241252772 1.4067560540527424 6.964451379736187 25.180491576653775 0.0 
3.1108306073088414 5.961057558139828 19.266537423555683 6.964663898425039 25.305512193726063 0.0 
3.030244837067401 6.091996792250287 10.575053573610845 6.975552920520654 25.191589384813213 0.0 
3.1376367007198986 5.8424880200631115 26.79215203137015 6.998008502123996 25.543847110517902 0.0 
4.297651447231666 4.301958222643282 1.15631495982106 7.000633801205005 27.48837930022789 0.0 
5.876055372179704 3.0937357786759243 0.8379691485455893 7.02019170068399 29.56233347723944 0.0 
3.046817110281286 5.941514742834402 21.767653443235574 7.030330906876372 25.531104871379846 0.0 
3.1008387877432826 5.8267200123326965 12.76269760271527 7.037828463971394 25.68505092269516 0.0 
3.324363108841685 5.451187378003629 3.67028553194778 7.03876053740254 26.125572376289732 0.0 
3.236823028428586 5.580519621408374 16.974898346293998 7.04438666885242 25.990317262762282 0.0 
3.3141697897929783 5.399744603058757 30.41257115312475 7.075206492116079 26.29865418288385 0.8231432185787638 
5.685786652601927 3.1262068913098275 27.35002232139405 7.08551048434845 29.65491411308748 0.24475369066052927 
3.459016869887596 5.135288645927222 21.23615609632764 7.103966155647273 26.706337002974358 0.8168342996492105 
3.486274622283692 5.089649365052548 18.93378888841947 7.1083786924613594 26.775917890644443 0.7977747781992256 
3.2264594569950313 5.446588283238302 8.138811103393376 7.123831929546398 26.39236239219293 0.7461442680584011 
5.358956067921689 3.265598611238026 3.31813154120276 7.138156825342216 29.52252294574205 0.31703290079003416 
5.554150054230245 3.142517486679605 9.418820811300016 7.13867280887426 29.75543367000275 0.34728740261063057 
3.3005255514081497 5.303160444319494 39.326511338721744 7.13959303411137 26.611586673934468 0.6505792688380782 
3.273031313108418 5.32381608503373 6.12477548313656 7.151158984264184 26.622285034246847 0.6519085932124353 
4.947121192409668 3.5246449104291386 12.016877578810096 7.162014865558781 29.134345429141707 0.611533258787727 
5.476949831440383 3.1568841749282637 38.623771230596134 7.166726451610062 29.798879137529592 0.3340768721054719 
5.3414792451350275 3.2072513541254732 25.016660778253076 7.196620435206283 29.781474499070814 0.6525591346074374 
3.4863556438216348 4.940488642317252 1.3800631084331343 7.19663007292325 27.229342067831052 0.5536081881735752 
5.362845940837811 3.1931304459476735 5.4195898978578185 7.196918470739203 29.80831789904547 0.39507843540373466 
4.080617670987756 4.226342691434448 18.891266077897924 7.208303990357797 28.203896916261247 0.5650614048199377 
4.7745278390229515 3.592590566148237 21.000745357662254 7.213607458540803 29.165407236206473 0.589868747271349 
3.3992999096610923 4.999592786874073 35.49349053927875 7.23164248455941 27.262346323200813 0.7405963194574866 
5.08015254489052 3.3358889377216006 16.57630943732071 7.236320712616787 29.656396847394028 0.41253373988434894 
3.2793782309570005 5.156831476129783 23.68234700244585 7.238946945086149 27.092161827736753 0.816052124083705 
4.158557677430823 4.104113152233062 14.094666696704415 7.238987247817844 28.465934720909026 0.4676537596885637 
5.144600561385009 3.2835338837033703 29.29860544722431 7.242445889856275 29.76434246044801 0.6962185269996504 
4.8999204135892835 3.456960840823797 33.36204843149641 7.244480320068248 29.472737936443373 0.4054278371320005 
4.835977970754939 3.50150226405213 18.860437696936806 7.247676641162909 29.40786284347464 0.3182881495483973 
3.462629455979055 4.882286132494956 12.275505213219205 7.250557374588325 27.465788292560937 0.8152768822971053 
5.087527827361259 3.3065706427197235 35.63272759484575 7.256068295776504 29.76024983099425 0.6251117114223155 
4.495591065218719 3.762457799233287 3.531741021923253 7.260683419921549 29.031482083377075 0.6296426132331707 
4.0052925254362854 4.216516160919224 27.62595778887048 7.269313313651561 28.397158452927364 0.4974642860417883 
3.3372256615512974 5.020480208615746 32.454462669809985 7.2697825306627015 27.352745814795444 0.5890755905904854 
3.7333398887122193 4.512629120471825 7.973649059289066 7.271603786901157 28.003951829007523 0.571574153854675 
4.872192972963489 3.4392503696359533 1.1838767797419223 7.275301068185848 29.586588422696483 0.4948280759998865 
4.6955835501160585 3.570463130801885 39.14170094227951 7.280099466872289 29.386056131817693 0.39674802189432773 
3.9205311224973274 4.279998819562075 20.9682496722333 7.287259447132644 28.362767314198347 0.42189067196434554 
3.958440723858434 4.221584056779195 10.124908903142149 7.299696327310955 28.479749853294326 0.6084916635682308 
3.443864659428442 4.814870427974935 14.555271898483024 7.306270041114362 27.719340446988976 0.7141324309770872 
3.783832984654257 4.399719390834846 39.208572417040415 7.307817993580387 28.261978517244845 0.5359258481913166 
3.491395412010341 4.743926730996865 29.636100334626377 7.3120601137053125 27.826539447733428 0.6960815385914229 
3.745993124353893 4.425560033595259 3.5728827968183765 7.319106002552702 28.26118980868136 0.47804639656988773 
3.529125876679114 4.68328070345312 28.492661646841768 7.320063242099494 27.928010200464787 0.5874982231358592 
4.520787427309403 3.644168955743808 23.01228067298173 7.334220698509233 29.42202053197212 0.41366498193292606 
4.477732960867584 3.6785908318849128 31.297748583646822 7.3358798253070185 29.373571843756004 0.3055978136036533 
4.420397010770333 3.725815383638558 7.764527728149066 7.337689057817901 29.30654840519323 0.4077356130543276 
3.564753862546892 4.608793650262825 16.93261725269943 7.3391293778122035 28.081195364548922 0.5638293416803185 
3.7878684711484176 4.340283277627869 25.571447702397677 7.344399167557214 28.45058744024656 0.4650936669773658 
4.466337210105408 3.6727615417445776 5.556418173254471 7.347721994445997 29.416126431582445 0.31294853939194983 
4.134000965338458 3.953066306768828 16.223618352206373 7.364166801013231 29.046961963327558 0.0 
3.7100328015360127 4.3957770655747765 5.744338111390448 7.3657801254963315 28.440105579174535 0.0 
3.7550992446983056 4.340378158524331 23.23868950626582 7.368739440155966 28.522899542499555 0.0 
4.037707717794458 4.012816192197542 37.249132930097545 7.388916366548462 29.033807702111737 0.0 
