314

7.762650883632649 7.824911938926282 29.513963882998937 0.07597264935739734 0.10662746801086342 0.0 
7.617918667335995 7.72504107950894 8.919853004337583 0.13441884596431564 0.44739387005184916 0.0 
7.781089646261862 7.5446960429119665 15.082059560333782 0.20764460238757287 1.0097091295968568 0.0 
7.796261253440083 7.476210463829687 10.935972314710831 0.2776703327440684 1.3549686017517395 0.0 
7.745374436324821 7.397907439666652 19.262777571511997 0.3521229428500874 1.654714578910486 0.0 
7.412410949692667 7.866305785887732 33.87703650454699 0.3570621832655627 1.0032765909739787 0.0 
7.288529161702918 7.84986072616174 4.153119526116143 0.47215198742371367 1.382688582720867 0.0 
7.289605569152597 7.922293226457253 21.49424946654634 0.49157704161032 1.3683034999313222 0.0 
7.23776393005098 7.735177924708602 37.84519906607696 0.5124504710435556 1.6247347779030044 0.0 
7.226293238580017 7.913717658132548 1.9959009458919468 0.5487005044114808 1.5575437975535635 0.0 
7.2512613347554185 8.086638199537639 35.8712883145127 0.6017188160577103 1.5330936851796046 0.0 
7.789952255825806 7.113181820931375 0.1321883226291476 0.6380701967165132 3.0468133714335153 0.0 
8.474762504502173 7.749620234949925 26.293867511408656 0.7247626039978581 4.553437979565109 0.0 
7.852464680419036 8.4759005711265 24.43986189211428 0.7330966170261286 1.0487442078445603 0.0 
7.710882624828262 6.8880486582315825 33.86004311793728 0.8628385043660858 4.026899872430111 0.0 
7.691459930429602 6.8682932912333765 35.98623620101057 0.8836479276439091 4.1055097820863935 0.0 
7.205091584477898 7.019594539723389 27.661564694379887 0.911272361980048 3.7101816076203846 0.0 
6.830302969428184 7.974115039695441 27.649475021442075 0.9466098346522225 2.747599093081476 0.0 
8.028999402987338 6.827349089304015 29.552941379184812 0.9639114948351954 4.8253756358983715 0.0 
8.145912495341644 6.865788809536298 23.10985364549847 0.9688013900221657 4.973222543690834 0.0 
6.83799308126623 8.205646902307702 17.072647910519574 1.019495325835715 2.7304713701374617 0.0 
6.716386946904464 8.048310034565976 19.397597284326164 1.075799619005429 3.0774526109452793 0.0 
7.515415293772119 6.596695706861448 4.388368418733897 1.1769200384766316 5.309938574232495 0.0 
7.999906187336883 6.592351829460533 9.039029459845494 1.1843151562074317 5.832752633041888 0.0 
7.977739546039594 6.534342174878594 14.759641914020946 1.2368060675017825 6.0573578184746815 0.0 
6.6122728256608045 8.26712590424217 8.172370077538588 1.2497369019390145 3.3930129152127044 0.0 
6.516687560405098 8.11748423148617 6.0483627031316765 1.286897134214895 3.670235336050368 0.0 
6.538362343994411 7.219416529218627 25.697448826239025 1.322718650702833 4.701396924668085 0.0 
8.185756933206488 6.488239414155387 19.13457894858452 1.3348872165199817 6.7344003832008035 0.0 
7.2154632356082935 6.454391136864913 22.980061974964762 1.4015462456588939 6.056205631304142 0.0 
7.3910292659155665 6.309072452562601 6.580548378531802 1.4849687487934125 6.635188207209687 0.0 
8.825325696765223 8.81825831582604 28.09604810281016 1.5157510295081726 1.1854706727024933 0.0 
6.220153581708406 7.7491367949122285 32.20864064765043 1.5298466618202768 4.807018239027027 0.0 
6.235095083829554 7.998178176382828 21.356356198320363 1.5350991213176073 4.573383926767452 0.0 
9.047267951469287 8.572339580111699 18.22615916457344 1.5359513413281034 0.8677733640685581 0.0 
9.140030652367603 8.404811178022964 36.969064494223886 1.5365425127165606 0.676451295515438 0.0 
9.060549860604645 8.649966817514297 34.954743683228315 1.5898053999649377 0.9566657933317693 0.0 
8.899829635872052 8.871911288166121 11.98581285167981 1.6064847120480845 1.241988392508894 0.0 
6.15572437804974 8.065188857613489 1.8320944207532222 1.6251334636603172 4.788308293933413 0.0 
9.203349102741656 8.537998827453652 38.974058452050684 1.6532288911425121 0.8213757902059697 0.41648158285392256 
9.2201696283849 8.516015463815734 22.66655056227267 1.6577630792819082 0.7962843863391242 0.7313604530919614 
8.573933154597928 9.242105187080742 0.947676979515272 1.7044775541376138 1.8174322420523659 0.3471707890821792 
8.35492006542895 9.345885374228676 16.43815341699795 1.7066863839720412 2.0624961299558215 0.6288711170775748 
7.485035779139391 6.063669425915938 0.11092268378696701 1.707019872007046 7.778101729819458 0.5602203209629303 
8.760444860177017 9.1264301259018 5.671381333170842 1.707500719457589 1.600859745782568 0.6989981160531312 
8.622850397239393 9.22948404005385 10.028798551428288 1.717772057269249 1.7826778554457974 0.46378220812687476 
8.564810380152814 9.264811692424894 14.166551499418766 1.7200495397260922 1.8529988383382996 0.41401472053688454 
8.917934578124303 9.023550943289122 32.88844710804548 1.7280055508970475 1.4318777027441527 0.7685315524752389 
9.290024501661687 8.54307962980736 20.417439368223427 1.7322386570371018 0.8237808903907116 0.5483152032719172 
8.083164529104252 9.460663479763213 28.405780315740095 1.7428046776529014 2.4023633293496722 0.7928625189281432 
8.657817669230198 9.238874327903368 24.643603213828143 1.7438118261028777 1.7843554831009456 0.5121161563020215 
7.397228013645071 9.489248470551514 14.113890144246191 1.7746642828074792 3.142773696984367 0.6074627247301081 
8.543980581848505 9.33717497103795 38.94090166714919 1.7746913965649922 1.9644957081390189 0.5281183477429071 
9.380311882549584 8.479238162862217 9.845387156359521 1.7859745610050064 0.7511919051947373 0.5996572943518964 
9.403699288501226 8.451938100967663 1.1128968161031807 1.7965072875943333 0.7211498852915845 0.5621481305086967 
9.512198798587853 8.099678883475217 26.34195464431928 1.7965577995970339 0.3519252697382953 0.5440714505074827 
5.972750574604122 8.04545178342811 23.41330312811948 1.8016401628518466 5.363227171742208 0.0 
9.511782036291017 8.16166125196736 3.750558233401108 1.809237665363244 0.4152986845289064 0.6630368923657342 
8.044433318870983 9.53647066409782 32.66450768136849 1.8105712946314725 2.5482920174268493 0.5526541801326725 
7.945085855099688 9.556042414466962 5.104480096130224 1.8165482910491635 2.6579645673877224 0.5287258796143683 
6.9943157931398865 6.097877691388504 35.66431528917274 1.8167461966685314 7.781844383974832 0.3913798947677524 
7.459311161825243 9.548723720585887 22.71647939818019 1.8220612019462257 3.15402335018803 0.824871405837628 
9.622685564627607 7.806331425950734 16.255381640998742 1.8735326134108963 0.05633991687962947 0.7983165493424078 
8.061868566605284 5.895878840546823 2.4516668362137075 1.8801668215263332 9.173394094163367 0.9035253578088632 
8.31672014037054 5.951069573183792 27.389343369595657 1.8860865298354534 9.463587519852547 0.9869798372759734 
9.620769162442553 8.034507559199268 32.98530499728245 1.8922795275507154 0.2855905254472617 0.4997886055395979 
9.634860329183647 7.966884265019381 11.912565573645672 1.8972973528003712 0.2173594123572471 0.5648167947441882 
7.9867922495605495 9.638645101283851 11.951547167571405 1.9034313457688565 2.7524956548553234 0.3010825192484198 
7.941503335422082 9.651943868016941 2.9113997388448496 1.9115606201648534 2.81084727677559 0.44701927157064253 
9.50544909654713 6.960947374766446 11.982679488937364 1.9246312831179084 11.279797349831117 0.0 
5.825050885725025 7.938162818032977 25.918749998034272 1.9341236616716415 5.8877677851392995 0.0 
9.687415918559742 7.554800431220288 34.95158082355084 1.947224515339843 12.039244479625719 0.0 
7.758177183285474 5.795658028773696 21.062640619083624 1.9543590782717493 9.217877391307173 0.0 
9.685294065200432 7.379231268956966 30.820429911108704 1.9704904391341946 12.007964426263388 0.0 
7.429708935674363 5.798400615276147 29.23646056556101 1.9777073909811262 8.99801856355415 0.0 
7.733257962875827 9.734895320827716 26.395336337695177 1.9849659267732607 3.1347194222222043 0.0 
9.599813056304336 7.0076455432402245 32.89357556233759 1.9932131052010202 11.763041511355848 0.0 
7.718706654484581 9.765698138356457 30.524341828397333 2.0159410354589333 3.1979273759362563 0.0 
7.386487215277986 9.751059990361489 20.39595853620782 2.0338098804170155 3.5601777120468654 0.0 
7.136811603006503 5.790723593399253 31.7654016583786 2.052989052009239 9.051790775755945 0.0 
7.629852274005941 9.803547424921822 39.03379396252535 2.0570591878856064 3.351437160169315 0.0 
7.611464829314055 9.812454712514006 36.8651159941426 2.067102182933442 3.385635603184838 0.0 
9.823178773527268 7.569984952279555 14.091662488069609 2.080979491587991 12.89493944695056 0.0 
9.826105201055393 7.570550527268237 24.392548813386497 2.0838461841299534 12.913519719362629 0.0 
9.464148815997179 6.554178684917547 34.86031383407399 2.0900465978035143 11.859049158062295 0.0 
5.661761459591954 7.8760272386781605 10.09775349577427 2.0920380174687008 6.446227677327197 0.0 
7.45230788618283 9.851165725232926 16.11562020887532 2.122149381999895 3.632141651145819 0.0 
5.888563388615774 6.698441484741213 18.10627164574541 2.137924593902894 7.81586068634973 0.0 
7.41727652206176 9.875321954345841 18.13039539871317 2.1512085724995957 3.7131750710231124 0.0 
7.123110998437877 9.814612383797986 28.447021969679007 2.157687214498793 4.025348523844034 0.0 
9.862260160906313 7.205866826220785 3.4481041302686393 2.1812207357713733 13.155073026925457 0.0 
7.499750317855746 5.542007573299378 4.415571661171342 2.222128587589072 10.220752575170938 0.0 
7.76399925770815 5.526311361917259 8.681993865881232 2.223732703891062 10.493092839316612 0.0 
7.206115135042625 9.915716038163723 34.6117321255407 2.232965898595247 4.056946162183191 0.0 
6.889318932269386 9.82418651514882 11.796280926533193 2.245667295031729 4.410766230405237 0.0 
7.125882752246284 9.90894341192497 32.49610220637316 2.247344876701817 4.162552712178822 0.0 
5.647892464458764 6.931789390035975 9.591656084316142 2.2557315206462283 7.923895838639588 0.0 
9.898611864734853 7.029964085243332 28.539953311750835 2.2660504548263836 13.50527661509848 0.0 
6.598049451468844 9.73255715369165 9.5820473546529 2.292928898573866 4.808638925472589 0.0 
5.464233275925535 7.432336474787016 1.0723607560443256 2.307734740419022 7.568637863965186 0.0 
9.85605605954639 6.799490579503733 15.940116840197248 2.310614698387467 13.53842885984681 0.0 
5.76198751103095 6.451484590258527 38.87587726674964 2.3745180407048885 8.833670105015038 0.0 
9.923274631973955 6.7672025025482405 17.976321089145543 2.3851653081031863 13.973460071505286 0.0 
9.806375798203263 6.534310235296445 13.944152286955173 2.38884554281793 13.734131857770855 0.0 
5.356277073880484 7.468475738736192 23.989332056952016 2.4102210182284747 7.854101019154889 0.0 
7.4251646732571075 5.360904623873964 19.11383020722255 2.411077498905203 11.036108906348343 0.0 
6.650202122666025 9.96282526177016 0.8784155085093488 2.4710627288914564 5.021322162673403 0.0 
6.61031851574983 9.962392658883235 36.678076517044516 2.488685428619516 5.093041734298168 0.0 
5.894059265690574 6.083500588763886 3.107559033266398 2.494340854197622 9.661233911290456 0.0 
7.280659055091775 5.288236540646352 24.956285986596214 2.506104597253712 11.337610947063162 0.0 
9.971285020439206 6.5132122849085725 20.056541939336753 2.542390802813105 14.682674351446341 0.0 
6.483758333451302 9.954993700524144 22.654550766201567 2.5427082367930423 5.319536272960889 0.0 
9.891675662273673 6.372175909037336 5.987633788401624 2.546600453155631 14.544925669791184 0.0 
5.220304014571468 7.3932501216304445 30.399706792598217 2.554727432508197 8.38383255374238 0.0 
6.519626774315077 9.993103937314377 13.778144571382214 2.558384949157883 5.302246931529222 0.0 
5.19732587732609 7.3562926529367125 38.89444128003367 2.582857071481235 8.509532957946512 0.0 
6.398351656733688 9.966644333074404 24.711718247903462 2.5962406173553 5.499799232441141 0.0 
9.928243309501287 6.3266370493059245 1.6264664571367575 2.6020580325572453 14.84315866870563 0.0 
9.641991332648363 5.937142614974386 8.061806375312393 2.6203211828435142 14.4619285163568 0.0 
9.130527714313416 5.519728859621811 5.596639020532393 2.6229689532267146 13.81428243708796 0.0 
7.3808524066635 5.12022344654061 39.705078189479735 2.6555592003928057 12.143680983907458 0.0 
9.873712819174685 6.116935929938322 30.381855120764435 2.6790025000461073 15.076503725348307 0.0 
9.317850068857883 5.561596100658495 36.97831375333224 2.6920745652880376 14.359688531757094 0.0 
7.475930272663682 5.061588695591734 37.67433229462917 2.7023451957720637 12.459959965945618 0.0 
7.0166513293956125 5.143429573859706 10.655466435188565 2.707768390964488 12.017434595627169 0.0 
7.057227308478943 5.124328325890753 6.419566999516526 2.7155267891031727 12.09610209240141 0.0 
9.880799892344477 6.004949215631786 3.730841108707878 2.7541805353388433 15.415112024734519 0.0 
6.032521529581253 9.915515833819757 28.832461415350068 2.763908667607523 6.1947982383271665 0.0 
9.952247716209733 6.078491244227042 26.225374363342752 2.7647489079800085 15.57645226698805 0.0 
5.603563000560837 9.507500890447226 36.39485031042415 2.774166752825825 6.811948259832885 0.0 
5.1074237983893545 6.867401263215584 34.40350940788957 2.7860706221293805 9.650769477922179 0.0 
9.951497199316758 6.011846060305171 32.68761331206546 2.804954373367984 15.749424872799263 0.0 
9.652143289214873 5.679435759337361 22.314670966314097 2.81165171516958 15.338735417049012 0.0 
6.477776335240559 5.220408805414134 31.15624400770721 2.8314986605859955 12.02366163063466 0.0 
4.982854258409319 7.033854839943999 20.021536111036248 2.8583140914663447 9.703516219590512 0.0 
5.81497121180466 9.906152237139796 4.920114754147832 2.8971242432570383 6.669754283854342 0.0 
5.562179713475452 9.67606359586188 9.18480551987134 2.91483765953316 7.053138975529304 0.0 
5.405545907897082 6.002224766015516 28.577842652361042 2.9242406293784438 11.06007268612423 0.0 
9.927168742318358 5.792544140003988 16.06642241011904 2.9277460915114952 16.25155829647447 0.0 
5.727661987585462 9.869010107076807 26.654580524264347 2.9291730693747775 6.833337747025379 0.0 
5.764366062919725 9.908924659827953 29.93599252057333 2.9332060648543195 6.788633254856222 0.0 
9.820726399799153 5.6288007793282695 18.192176032905188 2.9643538851836704 16.26169614340593 0.0 
5.4991789871862515 9.748910466753777 15.617722938210406 3.010288737948855 7.271057508225372 0.0 
6.950823615892659 4.844022123136758 29.157289046976572 3.0138663397260137 13.39365933211636 0.0 
6.478343901475105 4.998542127213806 37.348612015094275 3.031110301297643 12.971503952219042 0.0 
9.745470830853643 5.450411155750631 20.275809361350376 3.0446695533971964 16.52372202288835 0.0 
4.917644527122993 6.563626813326749 0.791993491125627 3.0707847307803204 10.865219517757584 0.0 
7.047543787898725 4.757596679521782 14.838500435629228 3.073747283419496 13.775973642326512 0.0 
9.810980618579727 5.448803209675932 10.046483793907392 3.089198565641106 16.81381196895432 0.0 
5.353671068215391 9.702878002858814 13.437902981435187 3.0912982456174936 7.597807280951553 0.0 
6.072487184459118 5.143903812508766 14.704793856903805 3.0993203423912545 12.83262377892065 0.0 
6.528368276607593 4.875809258246024 18.807030513261054 3.123036421110548 13.4618131088447 0.0 
5.316171161285277 9.71474564058133 24.556611536320126 3.1278983756418297 7.702253649007453 0.0 
5.873177146801677 5.239700234971634 26.393371434371183 3.13433708024344 12.757987709525848 0.0 
5.321753554376615 9.758405635134547 33.85457868394468 3.1512019922440393 7.722157961199082 0.0 
9.14831730146328 4.879464714064019 18.19100694505324 3.193002365075091 16.494047091315707 0.0 
4.977203893814018 6.114714712626469 36.568115858022665 3.2190924524748414 11.828391040450633 0.0 
6.624871755283223 4.7287475768003535 27.05578134101419 3.223954058566778 14.043207571395406 0.0 
4.632872001236558 6.818044543002923 22.1036593982559 3.253463990042248 11.166254048759134 0.0 
6.199754689998825 4.889557222822791 12.477704145445003 3.253520155567797 13.715993539554875 0.0 
4.932821978751475 6.087501737343192 6.944047598061378 3.2711454380297216 12.020551413695681 0.0 
4.771499710903219 6.369679920130242 11.497720806526221 3.2827956828047133 11.737822848666895 0.0 
9.446702154009492 4.931777956809352 7.490594210979687 3.2895552410844395 17.284350484847295 0.0 
9.690914213051872 5.087262520422604 3.369062111499023 3.295044592653179 17.602984169215826 0.0 
5.839593004974624 5.058049428769982 3.1696540533250896 3.300947252621209 13.51803900928222 0.0 
9.593826301961464 5.002155488292598 28.68715552389878 3.309130534192538 17.54961397586812 0.0 
4.85125182628342 6.141970474361104 9.178781088866145 3.314890636197772 12.092926304058 0.0 
5.241881131346237 5.573107038365158 34.6485724456014 3.321072601692464 12.807414946457415 0.0 
4.764140540853152 6.249919991925889 32.29558900816045 3.3414961829097356 12.053291983337772 0.0 
4.955927678474129 5.857004595125295 26.496700601324406 3.374947664897001 12.612383956901148 0.0 
9.5804269242801 4.903367137140897 32.813945928945905 3.3843435672282034 17.88232305581468 0.0 
4.915015877881292 9.6103119662866 32.86876681019883 3.3908546982397088 8.683546166547025 0.0 
4.883712294425269 9.569522700270417 11.146718010332044 3.3950357977388403 8.745531934939013 0.0 
4.816790344787808 9.480225118001037 26.813867535258915 3.4054952415752604 8.883751152356474 0.0 
5.641285569840386 5.062504000886355 1.043319665416874 3.4160373670695154 13.82499316633162 0.0 
4.613155455292549 9.12149259383878 0.30867626870956855 3.423563294670556 9.344331418753661 0.0 
9.080344946820203 4.5773838905649615 14.114243595793532 3.440248632784666 17.577743118290492 0.0 
4.581180859679256 9.183560369209994 38.1749022540429 3.47800374873757 9.448860395742816 0.0 
4.748093486393074 9.510798575975626 2.6032567045562587 3.480208950852446 9.087222497644312 0.0 
9.427990205487797 4.6946326139830425 12.009812127180197 3.4858171198800827 18.177188538377425 0.0 
9.470021984377043 4.692249255430374 22.298689144674306 3.5083208579969467 18.3302315962839 0.0 
4.578747435306131 9.257859692325914 8.707299968205746 3.5114788452756827 9.473108475007312 0.0 
4.550367407265712 9.242888082080823 36.037324372392526 3.53077378971048 9.550869375482218 0.0 
4.636609435294588 9.416182253424756 19.27941659928628 3.5311986789225385 9.358415322947195 0.0 
5.874858985892727 4.739611594000998 8.105425298481997 3.546631102576143 14.73734588610871 0.0 
8.552864456454673 4.278818565342713 32.35604571623526 3.56282077682104 17.59921692850274 0.0 
4.3569710166860975 8.861436316421031 4.629364492794686 3.5704252361683375 10.086604381866618 0.0 
9.307132020156237 4.527999680600946 34.78408448128469 3.5785396723249336 18.47446969597964 0.0 
9.357779592213944 4.524829206506828 20.1804154334032 3.6037039090831273 18.648604847457925 0.0 
9.300543192016672 4.49643044552826 9.558510177627028 3.6041502515981056 18.58701695967254 0.0 
9.095425900011882 4.396729283575645 5.530017131925398 3.6131143560717645 18.40503643896036 0.0 
9.33268735146104 4.50165849688355 38.885912934932676 3.6133947713118193 18.665959015108665 0.0 
4.424923913193018 9.173106305569108 22.67091836820732 3.6168166306859133 9.899915762037118 0.0 
9.372301906899342 4.51003498410447 24.388425045392644 3.623428870746074 18.75707494761986 0.0 
9.200878682189707 4.415516021268511 25.39909902192929 3.636458765729306 18.628830942115428 0.0 
4.417718735810645 9.228996507742995 20.38268004181549 3.645754941515322 9.930577036858303 0.0 
4.4244193180744436 9.26451421198362 24.704718014591663 3.654208555938867 9.918421027674373 0.0 
9.073585702987714 4.232245293753207 3.024870802597796 3.758520624723901 19.06420391269564 0.0 
4.046914967434773 8.860146818623354 2.2914369761796145 3.865910593548196 11.019116261644921 0.0 
8.939832801944569 4.067417084960454 7.51808230990634 3.870028297406159 19.446501482061084 0.0 
4.044573995719599 8.917573780914571 17.29661183969268 3.8850238618413355 11.01925759301501 0.0 
4.006325833494897 8.912736015374529 10.787872744220714 3.920083073916511 11.134806483982864 0.0 
8.944407735529254 4.007284550259746 16.053298315161406 3.928680284321506 19.72708747757051 0.0 
3.860048203059666 8.517876159019309 31.54154302948848 3.965016869839217 11.68370894458402 0.0 
3.8341287833661157 8.414520647075387 37.8589070471576 3.9718553694276473 11.810291105487504 0.0 
3.931823292053366 8.8458078358475 6.853302994208583 3.9723126999533873 11.369183460510257 0.0 
8.56559874291966 3.8451888965479384 34.384478714226624 3.9890789742865005 19.619482592462937 0.0 
8.548562486497937 3.8297030959611718 13.706344331274423 4.000803651850236 19.657305413495102 0.0 
8.5883977403521 3.7527038089276576 9.881270646218923 4.0842732046459576 20.091084337192562 0.0 
8.316472864686885 3.689204713695652 30.17790151722142 4.100115835400042 19.88963136598492 0.0 
3.7271286597465956 8.611815084412461 39.992726546707935 4.114148643395505 12.05673349933766 0.0 
8.559529331049266 3.697376591833196 0.8039611550631633 4.132686078841533 20.2896221979814 0.0 
7.807676508930367 3.596948402851254 32.30209377781396 4.153452076076255 19.630360156596772 0.0 
8.499281284600247 3.6593774116045292 36.60772139678781 4.158679550547681 20.350711256070344 0.0 
3.6122985131445784 8.399467599474827 35.70504313821541 4.188362658258375 12.506030434724373 0.0 
4.382864533901831 5.2456823015341705 18.993188980903888 4.196332730123449 15.866685675691624 0.0 
3.463720539834352 7.816103319446562 18.918276101655437 4.286789155006317 13.40123937741274 0.0 
8.103995443218782 3.4590079327537815 2.8791384621308325 4.305569148787373 20.64391209573486 0.0 
3.439698931868641 7.491749138704584 25.15092445635498 4.318030662847842 13.823898476152372 0.0 
3.408947965777397 7.9485771534706515 29.51930286985828 4.34559151896594 13.453432063328531 0.0 
3.411038188235569 8.07545567246153 25.976518674014223 4.35115053735072 13.343782653557977 0.0 
7.436475126319607 3.4071609762434 4.936041462055428 4.354141549453749 20.204612217302444 0.0 
3.396497240099066 7.85841628414131 6.4468162649254594 4.354852508539415 13.572745161869765 0.0 
3.3798896649437093 7.865961379781684 27.20514486430592 4.3716485885952325 13.617964107186715 0.0 
3.38664611151847 8.075430366154372 1.966619469377335 4.375472783522057 13.42022200144364 0.0 
7.930151927918104 3.376746160666901 16.247615180512824 4.376962858007171 20.806154371443846 0.0 
7.864310801754723 3.351628088728143 11.847865738421532 4.399857091913673 20.848161740640315 0.0 
3.3520162277880985 7.614749971934149 39.74929103170074 4.400062934860254 13.958476726824195 0.0 
3.32483044393786 7.821538102578149 14.809768651441225 4.425747767329232 13.83235545432592 0.0 
7.527352340103177 3.2701027138169394 23.872419353441707 4.485426587874099 20.914335632141608 0.0 
7.037511410463444 3.3150914612787403 20.91881853990833 4.491776234079623 20.451486130844902 0.0 
7.471655706561551 3.2417501347197977 25.046799960737488 4.516834333190527 21.006559574632146 0.0 
3.2167032573145633 7.612362036856554 31.597742742145236 4.535385713050289 14.385993536081415 0.0 
7.649724607563774 3.2131118894604036 18.717441008128525 4.537996130659852 21.284519404667222 0.0 
3.1938224499314565 7.616845642661582 20.93098570282592 4.558122853832135 14.452938574754388 0.0 
7.3772561958585365 3.190596440278128 30.205684045108796 4.574614602775879 21.184205952622893 0.0 
3.201537804715864 7.251660732887043 3.981242193743526 4.575680317403704 14.874253406915482 0.0 
3.173155072389582 7.481389127001279 35.68669910185182 4.584720415956282 14.67208876005381 0.0 
3.1602770407470295 7.422673562736616 37.764891155227964 4.601380166778809 14.783265263955766 0.0 
7.489780469714631 3.153669401320009 36.52228277674214 4.603690821102554 21.434023598755008 0.0 
5.04859585134412 4.008670709587973 28.685534714008696 4.614664585175193 18.86023160313233 0.0 
3.477456745060037 5.933592270323851 29.332665499463083 4.64262457083924 16.451500676740952 0.0 
7.3236927466345385 3.108141703753594 28.0322542518197 4.661393173366047 21.539394049883782 0.0 
3.0983800023962456 7.24677771075404 8.34512352008003 4.678760655825547 15.202957691205391 0.0 
3.084051861656591 7.160515351262532 16.846143008593266 4.703037760937866 15.366068052880227 0.0 
6.511036701526363 3.170978771141103 36.29379961863676 4.743676366417203 21.100547909520728 0.0 
6.726683699889094 3.1176856109443847 32.24697547065579 4.7439975599829705 21.324138831053403 0.0 
5.258704007087349 3.699836894488559 21.98330274960746 4.755037003594053 19.78539122730649 0.0 
3.072757402933865 6.878419952599321 14.55665616981591 4.757756833933081 15.823463992685063 0.0 
3.0436358559821954 7.031357877736999 10.404287007312504 4.760914823433319 15.67825453745371 0.0 
6.931417640062996 3.0523441670684672 7.485026386654432 4.7684428700232635 21.648100478161094 0.0 
3.1067695076033157 6.642882348021007 31.212476933300564 4.773394903090026 16.113354305629777 0.0 
3.2099392253989123 6.268869088392011 8.017144392713739 4.775552388404102 16.508807601733526 0.0 
6.372222474858658 3.1723314875660735 13.717011112850741 4.78051460812679 21.130042734794607 0.0 
6.961797744062503 3.0347109256815124 16.000495719721577 4.7807126927532755 21.736760265983182 0.0 
6.669109475537851 3.034341341285785 9.55528718698148 4.837950073262272 21.70821158115022 0.0 
3.027029660662551 6.655674776452042 39.72246212800814 4.848092049575235 16.334568141933143 0.0 
3.065108002847982 6.44674233543147 35.54962802016509 4.862786604945323 16.59628089372797 0.7364841289038757 
6.507837238989326 3.0306393568788472 38.30926432678006 4.88009561429718 21.740926146401662 0.44525859635865783 
6.351923034134433 3.0743599175942666 0.6085855652253684 4.8801874331507955 21.579398121759084 0.2655892251527635 
3.0051091611182787 6.602492281341089 20.832252388852623 4.881676252813729 16.49458534648754 0.863694487713315 
6.467467753941747 3.0351437616733605 4.903117418626131 4.886180339515403 21.72784689196432 0.2964178788440815 
5.994844082857062 3.178566087202503 15.763246180715996 4.896792859878484 21.280500578179655 0.4385347969945977 
6.395209881199227 3.030312899866839 29.854520132825456 4.910285387751264 21.766578621428796 0.24173318572836036 
3.078631508966377 6.234652088313016 28.403006889722377 4.911004263129472 16.96886166133262 0.6694799171048263 
6.245276782222636 3.0555603827287072 20.140825470701813 4.929701338045187 21.701543762027498 0.23420961115024433 
3.316241512540925 5.578175747506755 20.8140003131061 4.937107949886577 17.75916150494841 0.535114877474654 
3.532507192383843 5.171102504747051 23.21259533154945 4.943476294402143 18.243444496173574 0.4452337758970298 
3.018187789607831 6.3146611482416795 37.64347918482862 4.944718840721212 16.990593357452678 0.9116995326613623 
3.053809367949146 6.180979384918196 3.723570022033961 4.951366694470716 17.15171999128403 0.9011468726436956 
3.017983051069695 6.291448185703249 23.232937550596148 4.951702515292291 17.036744141348173 0.6522872501392837 
3.1807770183001853 5.8228482793882 10.35917283929475 4.959003167043832 17.55845422519541 0.6844551130419595 
4.283153138289933 4.175096791837715 32.80339234901899 4.979855430660405 19.632256919699188 0.7662684396144496 
3.3738774160359544 5.360923257034971 37.5716620654799 4.985793472824216 18.15481604476268 0.5520876320906796 
6.149138424226296 3.027584203020206 2.6316479299282634 4.986378319417107 21.8680325047808 0.3616467102948405 
5.861884798006924 3.121477614867171 22.588618848056527 4.998819709258681 21.62021897577883 0.25385226867751637 
3.098434105381365 5.909104059952089 6.027497439394317 5.002595639671882 17.60131797951162 0.5643804756227218 
5.622329618783564 3.2118892633556406 17.819085645461662 5.012128321297501 21.421708954902545 0.4011257502738049 
5.541144608154838 3.242066533561042 38.119936966510124 5.020010585638622 21.36907590479003 0.3568065233502773 
5.765726806150585 3.1363514479464385 31.93360239024225 5.022259757290067 21.62694016800096 0.26250833094393977 
5.631601688318751 3.181823458586953 29.125010045497845 5.035459097287002 21.5425823976324 0.17717375038503994 
3.1096700703877502 5.794523677773174 1.7008441127483707 5.035528721241194 17.82787490087136 0.5724729994355744 
3.2523090125576264 5.458272126275546 25.19389649717131 5.04789469637848 18.237228736462942 0.38254190597063586 
5.886406563968976 3.0548678864914987 7.011072077667201 5.051459794763959 21.89575604643831 0.46768959458920284 
5.648670985059629 3.1398959478518185 9.390611943417916 5.066423097281094 21.70817612450395 0.11530163772143272 
3.322512861371737 5.256718158824745 12.375162881028096 5.081249521746885 18.56925299570872 0.6474923958054276 
3.1157109936775207 5.638723742457181 27.376213577515287 5.092555549995053 18.175712006266945 0.3637809546177748 
3.4749137784258073 4.975859461298446 6.107953188997882 5.096294529396909 18.94394757412407 0.7258350058694792 
5.365527784895299 3.2372678046808296 13.59649206824443 5.1039650871921625 21.570836402597624 0.262733212737943 
4.589312280557275 3.731748760982274 36.01860220268103 5.112366367906701 20.684035703897166 0.8098716811768133 
5.411405089096604 3.191000523362092 0.2039315961241357 5.123817169385338 21.71691672025383 0.38464471860201876 
5.3051976893102495 3.212737772657471 24.668491511092526 5.154008814313691 21.740453611653365 0.0 
3.507315958774699 4.810939498184248 14.787058233203524 5.161244472702422 19.34138626892135 0.0 
4.933670242067819 3.4172938442860827 15.663415409832027 5.167596727413588 21.373191844127856 0.0 
5.016319150086039 3.3615207486946765 2.1911477057274737 5.170276697462491 21.48397454120493 0.0 
3.7495709400385486 4.4737575731251535 35.652810290762886 5.170802365536595 19.792775384166973 0.0 
3.62017216174913 4.6369457302276 21.0524274520588 5.1717100518242525 19.587954183188785 0.0 
4.61041069354572 3.638194891183284 17.774473017767896 5.173389823519326 21.00535417600939 0.0 
3.4461308133497237 4.877238084083251 2.054675362194253 5.174558048890685 19.301932472418933 0.0 
3.4096042029208657 4.902941374499919 8.191454017826878 5.190836010927008 19.32099457479311 0.0 
4.080553546328183 4.05819015023925 1.9245783349205965 5.20521827046236 20.456657681869082 0.0 
4.3183589168743985 3.8274711649096114 33.808293133966195 5.211755269149831 20.813882269298176 0.0 
4.0984574857157625 4.0280670415907665 10.601416370954865 5.214072082405283 20.52538750306367 0.0 
3.4338719579324763 4.8227712042559965 18.94842942795554 5.215134676895173 19.491786501751342 0.0 
3.6384988006208125 4.521522654965462 25.69715222973334 5.227571910542957 19.902740479962617 0.0 
4.107639673219529 3.9937368824035175 15.371436820269253 5.232236745285899 20.627490267930852 0.0 
3.524888517233867 4.659072313498777 30.919381048882165 5.23501681038199 19.75270326210257 0.0 
3.6710075631195345 4.465729709784139 39.96251574471982 5.2368512141670225 20.00202910907163 0.0 
4.030966516388702 4.055074551692691 8.526931498838849 5.242488351991921 20.570156631149175 0.0 
3.759743275317639 4.34966872729029 4.138988620563648 5.2425567706073 20.169890591195408 0.0 
3.725917003666922 4.385933537626663 12.773400418669112 5.245015455138533 20.12980730625465 0.0 
3.9216605148631434 4.1592088940772385 28.49040283283741 5.248805957532812 20.44401204161377 0.0 
4.056228726420866 4.019983661069565 6.5061084034001055 5.24947312691535 20.64026199673012 0.0 
3.8599659319954736 4.212186735935659 23.35384930849402 5.258182931548257 20.399685145762362 0.0 
