282

6.851872752910011 6.822820799640863 15.921964331042698 0.12522350676210303 0.07771420288029063 0.0 
6.9542954338779275 6.8045554183606 18.358602785688376 0.21145429287642692 0.055179542844567386 0.0 
6.969267125529528 6.777989788911304 13.854372067952255 0.22104637663006788 0.02806513020673762 0.0 
6.696478833906802 6.993110469596765 0.24085751884995688 0.24893215069077845 0.44496404290877223 0.0 
6.667366476255761 7.228579738842338 37.653226720966785 0.4856612663954083 0.8459124464886258 0.0 
7.095946784054455 7.099230205711219 22.391426932406134 0.4915698464905267 0.38839979296633986 0.0 
6.082962479632666 6.779501944686453 4.3099234654227345 0.6676896122586333 2.0680972280574466 0.0 
7.293946615780349 6.233847724668754 34.65270253444416 0.7498607151655023 4.142230416921249 0.0 
7.266861172949669 7.53841964298903 7.786297011440418 0.9427359150652204 0.933797052012002 0.0 
6.096419348414017 6.029748413863041 30.803719709867735 0.9725893354650572 3.8665113395102093 0.0 
7.725912943851224 6.594880206148995 7.948236208282864 0.9881640675620327 6.053053909116496 0.0 
5.639346316793466 6.5917595587631705 6.255850506809445 1.1218697077927842 3.68322753395244 0.0 
5.8088604748646375 6.109912569265724 25.668946709696918 1.1381807961637818 4.255488505433238 0.0 
7.886682687024251 6.865552661987284 9.96890529430474 1.1425410052479599 0.11575056465004252 0.0 
7.198559834741722 7.805957343204112 30.89947783270489 1.1472801907163759 1.3412896230503861 0.0 
7.617121631522732 7.515804972589281 24.454097897175053 1.1568738824509377 0.8369190563920625 0.0 
7.576750136261234 7.64268825761647 13.989155893386808 1.216720227946547 1.0022465439120865 0.0 
7.428023424356947 7.784610257452547 9.777928422599146 1.2369859129362584 1.2254510149261257 0.0 
7.004202072296319 7.969083660034293 2.039459652915813 1.2453046469528464 1.7001185796998755 0.0 
6.342212918407888 5.566052325083977 23.67323858967938 1.2522070119802353 5.485524353140731 0.0 
8.012217848694156 6.794129691478634 3.6834681917406016 1.2629890447791334 0.04413867571063612 0.0 
7.950854378360969 7.144883159167879 27.151957863484398 1.2641138981211761 0.4016048939091448 0.0 
7.038170729830034 8.009540933452062 16.079782577408878 1.2920858069695158 1.7389887992739474 0.0 
8.047294197553295 6.700110148510989 32.3946923592372 1.2982531464575944 8.1072629560637 0.0 
7.802240991327629 7.538777676937987 18.13247297223203 1.3150594387577477 0.8459197537202634 0.0 
8.017997940230277 7.18564779734683 11.942113867623029 1.340748962245121 0.44370252832861823 0.0 
6.3489584168294115 8.050021924959584 25.956338189595783 1.3604746806933208 2.5441179453645972 0.0 
6.713223285747725 8.11492608392162 28.680573833775398 1.365421451889787 2.1815801635215983 0.0 
7.676553149280831 7.792553232016926 35.85999644849114 1.3947824131495081 1.1775313431999734 0.0 
7.912127193926377 7.536664287749318 31.80471844671014 1.4033461142866135 0.8350833209541211 0.0 
7.800759389929635 5.811832263860209 25.537499551427075 1.4086355088023863 7.824034959772462 0.0 
6.743802776707234 8.168575904396516 35.8127898227756 1.4185894409979718 2.2345123261543964 0.0 
5.6753114086356025 7.681220552031208 23.891853751250068 1.4220152196562803 3.4520778986580716 0.0 
7.96035322492482 5.907788785482355 10.347843753447378 1.4745421862209294 8.368406293071597 0.0 
6.283541335083125 8.150450639635146 37.87753233858572 1.4760913522307866 2.793232252464083 0.0 
7.8670226331013176 5.780875179589241 3.7286770526478747 1.4788314577384352 8.234967486111103 0.0 
5.39298098410935 7.341935864361128 34.50334954061658 1.4805028459971932 4.042174428184165 0.0 
6.788024922829013 8.269572080724787 7.27413437806954 1.5200477634845595 2.3496565536105365 0.0 
7.188573790708338 8.21132201278287 5.239011041073191 1.5257158958797228 1.9517389464382582 0.0 
7.746613585398652 5.590864326818199 32.607894471263776 1.5286707125616643 8.289277197716917 0.0 
6.373005905933214 8.278130030925672 11.598336314632704 1.573945976956686 2.8530437533595077 0.0 
6.548076762694274 8.315699047039756 9.507487529160926 1.578666050710289 2.682240752899494 0.0 
7.319273035210919 5.238060810292327 17.112462884260005 1.6155593155288805 8.194908875893368 0.0 
5.384127835064671 7.722426558848114 5.958878172364194 1.676669372088102 4.230059897466571 0.0 
5.070932121558588 6.760779139754229 21.371650441362235 1.6791024775955692 5.2642767944464275 0.0 
5.1056516244603785 6.396293570704394 14.962629813945554 1.6819601119719936 5.640400281677515 0.0 
7.104522595749351 5.102060134629301 36.73384567076383 1.6856429250511082 8.300594840389039 0.0 
7.89855102289275 5.471706283639474 39.5275107441887 1.7184889518046917 9.35610089445327 0.0 
5.182630319809224 7.465514049775578 13.136520158565745 1.7229649067254909 4.674991876632529 0.0 
5.08315112212467 7.223253501067411 10.37510114050852 1.7327302323058862 4.96418836616758 0.0 
8.493648491268567 6.740397250120111 1.2288308147256224 1.743674933555107 10.946229924589705 0.0 
6.498167222139944 5.0238841789607545 13.008923585578692 1.744389743046748 7.967527137847352 0.0 
7.575334720277063 5.213007346920767 27.9098000909675 1.7445698083236323 9.080802163249478 0.0 
6.590022622435711 5.012550987333389 27.27886327701082 1.744798507836514 8.061966884029099 0.0 
5.0644145977097885 7.214645712370666 1.6558603450123712 1.748454685268766 5.022636230973891 0.0 
5.378096436547491 5.66348104452943 17.362529423674225 1.7500408075272267 6.67014689467025 0.0 
5.041417403775004 6.351346875409581 11.400717148150392 1.754473938782977 5.914008164413131 0.0 
4.994494987332009 6.5908226761106485 17.11176714521555 1.7627068020357264 5.697101199026818 0.0 
7.326745645999313 5.081187917179506 21.504556230081892 1.765663985005879 8.908023508610226 0.0 
4.980557014369603 6.589532656837429 19.180228108628437 1.7767043219450627 5.742367554969114 0.0 
7.2219523073988015 5.021173716310328 14.929484092676216 1.7920879720692553 8.922600930984027 0.0 
4.949014500277244 6.6386333884217255 25.47585537849102 1.8044254743230725 5.780207249810001 0.0 
5.237784959709078 7.737682466787422 17.243116995611807 1.806186862780638 4.629285545789378 0.0 
6.9881521223926235 4.957052260894674 34.69446086647942 1.808695117636748 8.76212063568359 0.0 
4.9727251199952445 7.0939750482625215 39.14378746895461 1.8102554606803767 5.341005934111708 0.0 
4.963167875448939 7.095815813050052 23.458502714375108 1.8199883565240529 5.3697308098122996 0.0 
5.35137970646106 5.577010874828998 6.5669802300833595 1.825388236312588 7.008533673010513 0.0 
5.467550985780518 5.424063417178308 19.53358942877156 1.8446634640869828 7.27472826291539 0.0 
8.218690985064605 5.62983916732901 21.36969708662126 1.8471094988278876 10.402200016074827 0.0 
4.978768927607247 6.183407842858536 27.675408288634593 1.8596467902114653 6.417998595255224 0.0 
6.992502096877791 4.901392676480862 32.33984009986328 1.8644453072049911 9.029182623150243 0.0 
4.935439359382762 7.210521330434791 27.500079861889027 1.87208712785027 5.416038036008906 0.0 
5.440692342603111 5.40492459942568 11.205179804477794 1.8771026543448017 7.3966572652136495 0.0 
6.202873239614437 4.953905197151062 21.715520058248885 1.877579354581576 8.292702627953696 0.0 
8.229621513447494 5.583604283872894 16.80344564109349 1.884080356475359 10.580270171695657 0.0 
5.27489260330986 5.536833803673989 21.56772460425487 1.9098989637355372 7.314643725570921 0.0 
4.90756506380114 6.1503182750258585 4.358615530096138 1.9375718478017938 6.696755137109125 0.0 
6.2295743443003815 4.841609118105048 0.48876254059442914 1.978079528535233 8.794855458556572 0.0 
4.837542889023915 6.190567720792927 39.87344415464851 1.9926004808645943 6.826994307825752 0.0 
5.304595963782607 5.342645180918495 31.09524341457035 2.0173845480486516 7.895344937439198 0.0 
5.208881428097987 5.448151815015596 13.200427223330152 2.017388199977508 7.752876260629488 0.0 
6.178623888296535 4.786849666902407 3.115311212563128 2.044609960693373 9.055910211577174 0.0 
5.27155032561819 5.316954127873149 15.347325733190772 2.0589885651211084 8.053522549918023 0.0 
5.0887024659289235 5.48548365530878 35.42463100445438 2.0878005370968467 7.917355470201398 0.0 
8.87470392945264 7.091381924901819 15.436458205619466 2.1519545549293455 0.34283025935916633 0.0 
8.679807450366951 7.749529568502512 28.91979892002496 2.173296149585372 1.038614907484403 0.0 
8.93935044637901 6.746107403583768 23.162500513203234 2.1893539068334342 13.752223701164965 0.0 
6.071661889638605 8.949267996423753 14.466706786879435 2.3015043584713064 4.303758915705089 0.0 
5.474153009871339 8.70088529590533 0.3504478460405309 2.3310381764355537 5.011654861432472 0.0 
6.5231072579154095 4.203127578759474 25.319727150617375 2.556959023231746 11.822193964559748 0.0 
9.21686728865874 7.904430503786351 6.737446763780056 2.7236269950062777 1.1921326573351152 0.0 
9.331034592341073 7.683389959017234 37.18466787758915 2.744623176768615 0.9523880548014585 0.0 
9.459698726755626 5.987121559052349 18.44803171849742 2.8150400894914056 16.914879459918424 0.0 
6.976252117347739 9.560506896479152 23.482785462701088 2.819599091317986 4.202520270257917 0.0 
7.440666919096827 9.598212758782575 38.83912447255034 2.930757020366333 3.906397328853128 0.6105679660838864 
8.933436421461767 8.707584302360628 4.358032899415022 2.932495679010374 2.143396109165529 0.28648318106363296 
7.761206000889629 9.50936246355281 10.825759488292157 2.9388124781107483 3.583971491847091 0.28016643363708005 
8.925230218625249 8.72923196929611 8.805418647322128 2.9409157914337185 2.1711468213884366 0.3367400624781443 
9.309325822901755 8.207132173975495 10.725722831389067 2.945060753228411 1.52428066488301 0.34319249335508767 
8.11783715809375 9.38558564418866 19.327135113572137 2.969392223825501 3.2427960830188525 0.24628579623273975 
4.871619900625742 9.053386783142178 29.433931886809138 2.9721881620246244 6.702013811948607 0.0 
7.764166119608699 9.570823896928506 29.953404410048556 2.997595765883897 3.6740283080485447 0.3520784699693334 
7.8106616870471814 9.56997084845705 21.549510185484024 3.01284563171055 3.6486755886763937 0.29172095458324443 
8.202996095195706 9.389892144870014 12.797843836593636 3.013341698048923 3.217182883722465 0.5445942128253812 
9.344370072663688 8.301590163582606 21.769196857021683 3.0229436166854446 1.6293428756937693 0.667945489924726 
8.023911845518333 9.49418276725071 0.9296718369547179 3.0254570646809134 3.4374576931080068 0.23834839609583233 
9.00793724905107 8.7906027851372 23.74335319783024 3.0434093295779343 2.236544041282116 0.618471049114767 
9.773844474066706 7.112271139176155 20.174199843923418 3.045468072665309 0.36313098749971573 0.8026632699976147 
8.07358781686908 9.529830060544459 23.562800476007162 3.078853662399509 3.4680774193562094 0.4131597101372717 
9.074283850046035 8.795821127563194 19.18306195879036 3.0963978267607617 2.234869338570081 0.4622676653028931 
9.085091045943622 8.79478278553438 26.502454510810253 3.1038342147840003 2.2323168040523385 0.47345714332468697 
9.453656936038948 8.276323228846131 2.1267919984711767 3.104742086986742 1.5956449112802602 0.8252692564053177 
9.1460649763432 8.725240407384376 37.10861251173765 3.105270042656918 2.1408481737286635 0.35316379066732767 
6.772729238452378 9.856773239662534 29.746665518661217 3.106856382416777 4.857509152172209 0.8998411591213642 
9.742901590819638 7.59521326822019 28.140598028535734 3.109959067432587 0.8559800306576584 0.8084931092658242 
8.59849712995155 9.256169751547825 34.84351579218596 3.114133661712741 2.912625665153165 0.45494032045911925 
9.634894126132776 7.928426828440536 12.897295437853003 3.116296505306228 1.2084899559062592 0.7841188543451254 
8.846821317140364 9.065824984064122 32.856072254074746 3.124052655258846 2.6085476852790386 0.35954409038463886 
6.908357421745102 9.873105963930222 21.111641302591504 3.1271181517426356 4.753640523890972 0.8113685395165535 
7.80125530298206 9.69601743357287 27.744814128719543 3.127963623663673 3.8412690732244936 0.5833250673566834 
8.803481995481794 9.116264763616194 21.55006217210226 3.133049191650125 2.682046005696 0.45021755933420465 
8.844929770044367 9.079734144410438 6.455142132052753 3.13311217881677 2.6268501235306676 0.32771343507141415 
8.329440621820654 9.45609470231642 36.920730794421274 3.133301966897257 3.266397740882237 0.38669197386249854 
9.190051308818555 8.722688108961918 17.01286114854628 3.13772987443261 2.13327752951416 0.40967815657306816 
9.619988336751582 5.471842232486413 24.573437309312197 3.1417384250993 18.423790596573568 0.0 
4.491544206452398 8.938003343043547 22.59579953399087 3.1445160518875515 7.458910885453141 0.0 
8.003981372249527 9.633691405943592 32.61849280528206 3.1445421616924993 3.649586856264392 0.6384801474558494 
9.81383487651404 7.4611919429181235 4.72702457095739 3.1452946014984766 0.7173959622154129 0.6837380269353696 
9.069448188587977 8.876528800530142 12.864178605539117 3.1467387306588104 2.3349854483091192 0.5934608818001669 
8.48125561170253 9.378575260335218 25.71367991606413 3.147483739798804 3.110906826306696 0.420339352539752 
9.862394303010102 6.262409467344332 31.24907714851713 3.1503559838445536 19.304711925520152 0.0 
9.348519527955023 8.531544306872885 28.52993622193631 3.1505878585614466 1.893490188227382 0.0 
9.673699828703239 7.927021491983076 19.59097805873249 3.1517297284109604 1.206255429494142 0.0 
9.884045682285738 6.353211301097593 4.573595251296943 3.1590637236736043 19.45114329556141 0.0 
9.714326129295337 7.869132610091214 17.22645564145978 3.1685465437314706 1.1438136969397092 0.0 
7.396820165101108 9.855176901372868 36.80689598171301 3.171829111853446 4.330908205327841 0.0 
5.626505747036216 9.720806919089089 17.609427848038976 3.176150671323738 6.137436024664652 0.0 
9.827131467614958 7.559590925358509 35.1522594979989 3.181850960590242 0.818591139665898 0.0 
5.419809115957964 9.655597473943034 25.19454739137541 3.1956070579113245 6.3915980668092125 0.0 
5.653386211595002 9.752258011796421 29.72133003710732 3.196265785305682 6.140036959579369 0.0 
9.821704715052377 5.860074254007285 9.336062489207592 3.198020902035458 19.1919270577571 0.0 
7.228555966566274 9.915373585726822 18.888008561259014 3.201344366098917 4.548303534476631 0.0 
7.074955287919506 9.942743256154662 8.435126881366863 3.209237516742556 4.715545352602067 0.0 
9.9618699870232 6.713626620654324 39.84932373137636 3.2120759387451336 20.145694187107395 0.0 
9.940120036681279 6.362474182827032 11.460118999762159 3.2135715500687008 19.80299429378509 0.0 
9.96538173617654 6.835380698493831 23.058611723111483 3.2165151286777665 0.08539072834301464 0.0 
9.961048715038283 6.516385768402987 35.520060110204966 3.219535596876307 19.9951190364108 0.0 
8.73545640578689 4.209061229246318 0.8582434471124074 3.2246561019741957 17.33470968324771 0.0 
9.084009434828515 4.523587956116632 11.575232887579503 3.2256023671583307 17.809765126500885 0.0 
9.52631975377138 5.107772187646612 6.877620998113372 3.2256570745893267 18.54439928243735 0.0 
6.568145289187518 9.9733594563797 6.198048671222814 3.228485298228432 5.253243862663734 0.0 
9.983242272366992 6.733616929711454 26.099332406954893 3.233283779196155 20.29893799499333 0.0 
6.182262440176318 9.941818003638067 23.00022726043582 3.2419173501467675 5.663072156392634 0.0 
9.99478339039479 6.537459257276513 21.043761021657673 3.251736892477523 20.218573094422403 0.0 
6.3683676504337186 9.988599561988483 36.7294530076105 3.261007570237682 5.504887600963897 0.0 
9.860564089806552 5.753381942239113 37.578350541030005 3.266321556407016 19.510135536300545 0.0 
9.862561330210006 5.72266389167291 29.095296675408942 3.2777213905076423 19.549583929892503 0.0 
6.090822488884129 9.961279277527137 12.71363599761289 3.278235743419944 5.813142963368325 0.0 
9.929606881994264 5.939994041692888 26.939707204059715 3.281159791372298 19.79766754072441 0.0 
5.7488365982810965 9.875771342331308 14.78664467613082 3.28219052486004 6.17302985587007 0.0 
5.585094900865496 9.833402949639357 10.535763662792277 3.296115537998366 6.368155346664935 0.0 
4.561192136253165 9.219739468200544 36.14581151473814 3.300074681759111 7.576848977835134 0.0 
5.181843528067439 9.657817799432767 7.6779941039608275 3.3037129226314415 6.823421156885189 0.0 
5.516248597406648 9.818271986710391 27.612996596860732 3.307028198826373 6.458994880801569 0.0 
4.381652368670201 9.066253274913933 38.629202233860184 3.312717877570469 7.842244642532464 0.0 
3.65690260522158 7.942433174625615 20.337416178909628 3.314988441839998 9.194571310863736 0.0 
9.833500668621005 5.524803769036076 35.469099644230035 3.3179936976664637 19.59266875264973 0.0 
5.069249875140013 9.61199969306364 0.5435889219127716 3.319030464655789 6.975933833362376 0.0 
4.194755303343083 8.88007733153308 20.56827694454401 3.3266356725833948 8.139250116303725 0.0 
5.5231421000487195 9.844969705059011 34.24733823625049 3.329266853513836 6.486073467772293 0.0 
9.702122364231625 5.187546386293114 15.34006358335153 3.3401029547578647 19.360576426711866 0.0 
5.314571528052932 9.771413769367827 22.37293581259371 3.34505546498138 6.737992198937597 0.0 
5.097440422777057 9.673288189434889 12.768550233723616 3.358060004639697 7.002618488921314 0.0 
9.316880873522662 4.580042770388211 35.64191056698343 3.3611890451447284 18.760096514192 0.0 
9.464381716845176 4.766024695400372 20.05933131383285 3.362146057803642 19.002891831268748 0.0 
9.485817111282795 4.767237242941111 28.68818108841927 3.378763592968218 19.110442173024474 0.0 
4.029884621714402 8.778731013464974 33.33029867668388 3.3933430708050163 8.485966060822612 0.0 
9.558774441165877 4.823330536509653 9.299017826180126 3.4060635758736026 19.35309488995457 0.0 
9.243134251841155 4.415368511192987 2.9955004787765205 3.4155852479820803 18.890259166509345 0.0 
4.742582548244355 9.515815977231451 18.09205376607092 3.4175229107530356 7.513854400164625 0.0 
8.682613426599158 3.923581650930778 22.69301313775319 3.423979459726141 18.18864959426096 0.0 
9.4749264806341 4.665887349450102 22.741715215529204 3.430561158913079 19.31494684869429 0.0 
9.084623618333474 4.23520398895283 33.47943446771396 3.4314233805316503 18.737804937709974 0.0 
8.899681039420312 4.072662968148748 9.459700805546134 3.4335494977304846 18.503076932691634 0.0 
3.919677537094813 8.695548239226522 14.191356934960176 3.434513531081673 8.721524376626906 0.0 
8.474429119003823 3.7727296320214094 24.721467537234755 3.440609630648567 18.019754140809187 0.0 
9.200691961395666 4.330684140907669 5.061118388631513 3.4436870234829695 18.954844653103365 0.0 
4.534836678474431 9.388273992263763 24.59621739634816 3.444914831935263 7.817327534734623 0.0 
6.861359861129902 3.30360378746672 28.933634043101723 3.4481948715863777 16.360614742889062 0.0 
9.240079601154962 4.361799812975228 31.365580348756332 3.450216884978859 19.040602893559427 0.8560836735914356 
4.475527679693556 9.34791356180165 4.861995870089125 3.452879843034378 7.906781400305491 0.9911661493456991 
8.12904547859375 3.584352787372776 26.69801356552595 3.452982581312043 17.690414740280502 0.3205812701098417 
3.5079382961975476 7.984570764550963 11.928324672503713 3.46916835335883 9.636477116711724 0.7280104293540617 
4.226306586736179 9.139445983777716 16.19045580517413 3.475410846726278 8.283682963383626 0.9597260692745612 
3.9101239846647147 8.759017528624096 11.346350097735645 3.4786559491843243 8.786725062923093 0.7991949541122743 
4.011621370853181 8.910048456569758 18.566369904860142 3.4877681762550377 8.627744183701367 0.9150578655698111 
8.332551183372072 3.638039396452063 11.70603783651736 3.4912414763271227 18.09455952638813 0.13820829703846357 
8.87694969711141 3.9751655804742327 28.795183811997582 3.496229550505406 18.762080976779565 0.5051389390602791 
4.144422848719129 9.082680770859461 9.31989046960129 3.4972034356060036 8.433156397974336 0.9342636884582076 
3.8677388479982184 8.732460724536683 2.3936691033112467 3.498225246131122 8.882315201767366 0.7797519139663952 
3.7189634979325703 8.503000376504183 35.52247123407378 3.5014557825123216 9.164165194566802 0.9006530308781155 
5.996198486150284 3.328424386390793 14.54187785800461 3.5036261789647796 15.750707837951616 0.42164095751600267 
8.915453840796989 3.991914098954881 20.44561574967737 3.5065978061600247 18.858470282272513 0.6183864527978825 
3.251355282056105 6.361168688497296 38.25410964377487 3.520185314894888 11.448614690149991 0.10546473491470734 
3.402431512787687 7.839387887864774 13.970187955295167 3.5203665642661988 9.951988065416948 0.5298189819391904 
3.9518072257577455 8.887482421453306 26.65899259691038 3.521180754213488 8.765161193981761 0.760558815138528 
3.4184253643350004 7.913079974369108 18.349561887897366 3.5287596375759036 9.90068518332285 0.6398554079715646 
8.210844484614473 3.533288902787241 7.567187648314139 3.5328878967723054 18.154388425146742 0.24634531632532286 
4.997798358511499 3.6808020119264153 37.26190945212822 3.534145849060271 14.820943442069478 0.6105038180907089 
3.2306135989350784 6.339997244106861 31.392055994339064 3.543188239402568 11.542177455831283 0.3743255194030699 
3.3224803427260365 5.829566395278112 5.698986426177768 3.5489560467411754 12.080451990237663 0.4432720306351497 
8.678334390205038 3.7703011032741856 35.50307152337497 3.549236401762563 18.76397289026665 0.549851192932352 
3.7587618461372756 8.671426956439898 24.655116700827776 3.555191590063463 9.139021319444469 0.816198928162086 
3.50137016512482 8.209484460275515 30.638052571567545 3.5614169502919553 9.684749855672727 0.8030350649365662 
3.3163465063239066 5.793911619657116 26.58126757732663 3.5642785112362803 12.165453212437594 0.5706608217201892 
7.571764205013114 3.2771074753320697 12.269409102646431 3.568792358282455 17.646742786326662 0.43963922613490036 
3.174608869314241 6.687620621918864 7.523253317310065 3.575935251678389 11.296514458580239 0.5258948497023194 
3.3550229438735624 7.881012388264519 7.0669642508625365 3.5784156038717394 10.09118041571273 0.6630068567172084 
3.538949741831356 8.348035303855081 16.321817265912387 3.5867200326833593 9.611738245088292 0.8546967879963222 
8.29334063977454 3.503060602805774 18.51695319781946 3.595068257965583 18.536530487496535 0.4434199020688405 
3.141240820624761 6.813467066046869 13.99755901102597 3.6093172322750537 11.275534164164242 0.6292308187099473 
3.322495636854004 7.900355707837663 26.492800683568504 3.615398237254029 10.187400950410655 0.5599926087356126 
5.841107315943903 3.2442143398712755 1.6973445969819352 3.6216873147601927 16.148085374973412 0.45536503920759835 
5.37885462946908 3.3973100544680275 30.464490825882912 3.622232667568383 15.663167671331685 0.8886683573964612 
4.461006020343014 3.9390420212362898 24.972222203556974 3.625048716539034 14.605257969937192 0.6683099446638583 
3.1209487137944922 6.79981891315405 2.6512640933118945 3.6293932222918066 11.352254606397473 0.5461826283559083 
3.3459382246965568 8.012803857967285 33.32328846707212 3.630745123769925 10.116563161218963 0.6396668096679201 
3.2954020792508185 7.871307374490096 2.5406476561405142 3.632021065760831 10.270400409072018 0.6586968414873736 
4.220652810633606 4.1366979250566995 20.594915184954964 3.6368867097090942 14.34138841689478 0.8529690904225995 
4.6034141283086605 3.8131382756552945 12.171484264719524 3.6377173739126345 14.846313576456769 0.5054016507818402 
3.850892772617561 4.542938854196104 1.5806409799659207 3.643616557375144 13.817615109437785 0.5179437233300771 
4.563234516142153 3.8338439129144497 1.7945320274642782 3.64498417083506 14.831313150018765 0.4079607113803947 
7.4409783063468105 3.1678307890200648 8.195340075110167 3.6482032942168283 17.886930732276994 0.2723673623827089 
7.568620562824144 3.189408490980332 31.19259045559108 3.65348484600408 18.04227170119544 0.39722044438216436 
6.797940017412788 3.0958349125784883 10.3474497561675 3.6544795431634043 17.26927052073068 0.5606271327017377 
3.1971874799919053 7.625728365589901 35.563464105246474 3.6591497608905037 10.611246711794518 0.7195142104014676 
3.1556555148756633 7.437275032689579 22.62157345059942 3.6594616063435055 10.805156928959246 0.7168166780491384 
3.119014441418239 7.213340807407805 30.77791997082769 3.660429050048453 11.03498986523429 0.5398657763991583 
3.774873519544556 4.617542176738198 32.26114527968864 3.660430841130271 13.775958154974425 0.5519859016637491 
3.2462261700209893 5.664504960329533 18.36974090035396 3.668069046895786 12.625576538537292 0.8799156059738992 
3.281070444440619 5.555927612127596 24.562512440223486 3.66868929304632 12.741755401865642 0.8541443430423098 
3.0795216423048704 6.94360297300405 28.293212086405475 3.6755807004423593 11.353484718587069 0.5882387828820475 
3.7193334607061335 4.670267938101249 18.36479920250006 3.675625813611214 13.75792843269356 0.6022657487497977 
3.111610975005231 7.2892090180057485 0.09892939569012071 3.678127385273805 11.014018658400285 0.4646256994164705 
3.1641377511673037 5.928088741568907 9.801709340627298 3.678851204430435 12.386359008314592 0.7457389159946626 
7.244993233085623 3.1029845366892372 26.868638257405834 3.680453788655465 17.84022764608917 0.3608017550960918 
3.219102025995676 5.708331403680133 36.23367007726416 3.681346760003306 12.621386898714391 0.8523953285917657 
6.350476930264346 3.0892054561355033 6.367969924550927 3.682531109934997 16.953208014921643 0.5986950636413545 
7.041345436067424 3.07108460978868 14.450210509893317 3.6904336617057654 17.68240784288349 0.3764214759671144 
3.1361440003122407 5.96941141305024 3.3114003752642525 3.697198091603348 12.40159768519484 0.7872629072874483 
5.416385017961714 3.2947044292173375 32.856282858598036 3.703727366017544 16.089147387463186 0.6518325834079995 
5.449415107138043 3.2768929289468556 16.71993708497671 3.708637727055597 16.147706838851235 0.5094639619576609 
3.056297079491859 6.401111662507316 22.471673365159255 3.7101434388725156 12.005163959418454 0.6934824164762867 
6.938983492405564 3.0437577816201262 37.52702005578495 3.7110572808437174 17.677010705450762 0.27444419727343794 
3.1574582886099005 5.818960926268359 20.368921857211987 3.7112248254306555 12.600249162583253 0.7435445415507278 
3.758481782029838 4.5435576996931895 8.086201841597735 3.717199062873898 14.040189578049063 0.8121089716899879 
5.556891333231855 3.21620476206896 35.25502523864532 3.7297743999257302 16.361692673549733 0.5336877794261466 
6.256731554947493 3.0508787029441047 39.541168842015466 3.7318644307124833 17.091280657389124 0.3549620159479258 
3.018477579560855 6.841737099135344 5.270631656494508 3.7326498991464194 11.634719164672092 0.5888394612113191 
3.0183931648321654 6.618758499058013 35.84700516942385 3.7339140193422793 11.861705391285732 0.7046634853104319 
3.016764848633235 6.672540894679497 24.738268285416112 3.734038645809319 11.808293039604827 0.6933348645095921 
6.598467749006925 3.0070049415345075 35.221173048809646 3.7460611354845947 17.501323608120998 0.2601679814708807 
3.2639332484634167 5.367184634097507 1.2162557736479584 3.7503119513374976 13.198189220157985 0.0 
6.533064743314629 3.0021945230427693 12.335791444371623 3.754078688400625 17.473622869454978 0.0 
5.5173442594519795 3.20297425962991 22.944939144712144 3.755107425567738 16.43958578351978 0.0 
6.441677606946966 3.004366628268831 16.775807205418495 3.7583017512547006 17.401910468555762 0.0 
3.0079449715460713 6.2967271943008 0.6832631698685745 3.7694073900765552 12.296314940603924 0.0 
3.405659980613242 5.005230626911962 10.152592875741256 3.772112184246094 13.664308773853232 0.0 
3.261199345425233 5.297598120217679 29.631773265353026 3.779047661482526 13.362995081190984 0.0 
3.4811372547010997 4.828117294926587 20.478676041899675 3.7919779508408755 13.928293270088986 0.0 
5.686983947321753 3.108544825940628 4.087942630765518 3.7934415657731453 16.798727900447574 0.0 
3.656977879640534 4.522942410170225 24.697681508477807 3.8113739445836807 14.352235861790486 0.0 
4.646568771151909 3.5691484791036903 34.95324096304204 3.8134288157092633 15.742312279493888 0.0 
3.44324777326797 4.849459064737251 14.318467058385863 3.814009194483759 13.971614423214731 0.0 
4.271416446791838 3.849571907584938 39.73669366471523 3.815214220657141 15.280905077376971 0.0 
3.3569497176224807 5.004018077768122 3.803677547881442 3.81591969143779 13.801543790935142 0.0 
5.328268779646326 3.2078245500826643 8.091770900657579 3.8168477282864486 16.529622909759205 0.0 
4.996664842206716 3.344906647777038 14.353024666324131 3.829992808466747 16.22722123327906 0.0 
4.832126864972537 3.434370870400219 10.106584703768426 3.8303568876947574 16.04144912029983 0.0 
3.401519736423463 4.886275224557579 36.84992497637843 3.832204341388843 13.985552899263524 0.0 
3.7730702282287716 4.314388655207927 16.218662718941687 3.8463376722458658 14.721128173019629 0.0 
4.274674107042829 3.798612537802428 18.440960163098985 3.8520028853002235 15.463836270191166 0.0 
