153

8.904378019779971 8.96394945277064 28.539894721608945 0.26383127436306886 0.24951701104560442 0.0 
9.192689698024385 8.66634230213385 2.6353361746326467 0.4505250039111992 2.7465860104527913 0.0 
9.320260090954394 8.51543349777646 38.446626390309575 0.6166182087002472 3.6336989647926643 0.0 
8.120122333180628 9.45685603181394 4.93425251709013 0.9467794489053745 2.1763345667983334 0.0 
8.19872448902815 9.539921267644278 26.44031495310847 0.9632654349004843 2.1000174116859505 0.0 
9.575486426356617 8.125479667949268 28.37859305921252 1.0351103734596498 5.833371194380131 0.0 
9.492744898738229 8.026782034486647 4.575758661543222 1.0366842384462744 5.713277313460674 0.0 
8.090853452389325 9.560383452631589 11.64179665368863 1.0446030401670132 2.3541596010580044 0.0 
9.59188599160238 7.9741111712568085 35.796034799614205 1.1448910417261553 6.341047223941349 0.0 
7.980655526679195 9.65042798371077 24.06297503921276 1.1843401000045155 2.697750694639552 0.0 
7.828990545193489 9.735093328951674 30.56802422174413 1.3485797279316074 3.132193451219404 0.0 
7.599243645090228 7.977346624181214 25.14062007222755 1.3860856494204778 5.174100165194762 0.0 
7.750363569407133 7.6877685700304745 27.4275865766016 1.458632443141024 5.772304353438276 0.0 
7.825798065569857 7.569510076169459 11.997450058766951 1.4992350302303694 6.069149414019343 0.0 
7.289482309262168 9.342543755076141 15.846644613326504 1.576140865099914 4.344120469381085 0.0 
7.640439118728682 7.603435862488512 14.524225008501816 1.5955358569067162 6.2918210845654166 0.0 
7.518387284659625 9.84700723143156 17.768866361652435 1.6493316059547372 3.9813794016818633 0.0 
9.820498389748122 7.49383956102019 24.821679728551757 1.6504259604451414 8.942268891173136 0.0 
7.334592272013956 7.8736409091877935 18.92180918683774 1.6647475161392533 6.152871795975635 0.0 
7.701084873556555 7.414956162860991 5.6354772450329875 1.697811823955976 6.870096939931404 0.0 
7.7994799560281525 7.237737633073403 3.5818258555715516 1.7861763128019255 7.414858769430062 0.0 
7.078403118686099 7.949174360341724 37.88157341444196 1.8535257858342415 6.6511236816571575 0.0 
6.957899051435509 8.241675415578756 39.881963914131475 1.8627988868830623 6.3670098581915155 0.0 
9.871993213096465 7.246187541475496 32.210202560605524 1.8762517636628728 10.044305316273942 0.0 
7.0824946442986665 9.790599518303013 36.50723331277162 1.9655588184496282 5.078374778394394 0.0 
7.0374930379886695 9.715622156017734 28.632555023135865 1.9659873456178714 5.166943343464865 0.0 
6.898288576025125 7.929763174043938 6.020970008704893 2.0252465648245215 7.206997762780459 0.0 
6.889501331676771 7.835272425866341 3.8228597888564195 2.0732056891955892 7.460521435338496 0.0 
9.905806189118458 7.0222469004688195 19.094825358307716 2.0787060205195296 11.021259794536892 0.0 
9.861978476208577 6.9773812836385565 26.759277298942777 2.092527955642658 11.033160185480401 0.0 
8.265701644184839 6.68554076306647 38.880173274075545 2.120503911433657 9.504028635508178 0.0 
6.725904928650529 7.993241466990597 27.637206955092253 2.1609359858968 7.561928937173974 0.0 
6.59203479050394 8.313414051608268 8.513663591194621 2.2016859757305296 7.35629947431682 0.0 
6.726782300840711 9.66800393976329 32.540104100350675 2.2217428050096926 6.033447739158216 0.0 
8.34821146549718 6.556517294011446 28.104026379077766 2.229977669827389 10.104527374306173 0.0 
9.755668955502006 6.739800672032526 14.957568301851254 2.247725825411406 11.63482030505406 0.0 
8.004536721939196 6.383482679465178 1.0957298598954743 2.481152902851508 10.934997087017038 0.0 
9.990234367440593 6.464612787282938 37.83965963688192 2.600226143671242 13.546125146475106 0.0 
6.4026560907113925 7.379121650947349 36.05864284890616 2.7183323704756273 9.9767520831181 0.0 
6.178045379505589 9.764821009315858 26.670752629282703 2.7649253608065854 7.647159830177042 0.0 
6.184462584313245 9.803484783663256 5.3447704555164535 2.773411693329841 7.632309223945896 0.0 
9.975236106207147 6.165488163078949 20.92092069165043 2.8602281292125404 14.744696719254524 0.0 
5.970104801585913 8.056581064829096 4.1572462135004145 2.8650736698764385 9.701267870545944 0.0 
5.992627906301125 7.944888825671038 6.5342105326045505 2.8725084623267305 9.840295004011761 0.0 
9.823933945228974 6.063487019181158 23.059700436744198 2.893213803856052 14.73421191261522 0.0 
5.916898127258893 8.113900627970935 23.689569211544445 2.903633694601461 9.763334697643277 0.0 
8.697589937287349 5.830161497337377 24.994631239400185 2.920308835774849 13.70921830048071 0.0 
9.970009103684312 6.06634708912668 39.820633970571066 2.947951010297057 15.149720719213292 0.0 
9.933781877503776 5.96756633596862 27.01401528278445 3.023785149153536 15.46557048907199 0.0 
7.540822739042689 5.963701774576297 39.12106356375364 3.037361922691386 13.069595284413598 0.0 
9.726731913008589 5.828797935895471 1.9741645510336028 3.0801666723114156 15.508832868931506 0.0 
7.040349346988847 5.999459631186221 21.78675268887686 3.2385764891099464 13.460368183766704 0.0 
9.833647415955035 5.67795037838277 16.679341306387784 3.257572808055805 16.45564971980257 0.0 
6.855829372528454 6.095571579084476 24.041749727109377 3.2609619144878126 13.345816181048662 0.0 
9.860122355927901 5.65739659859862 6.543989708183375 3.2858130566863206 16.616435448617192 0.0 
5.538008992776529 9.775165743933787 18.247118654991276 3.3716243908566934 9.550612700754783 0.0 
7.342061155694051 5.60923577503522 19.70604850655149 3.4419023382606557 14.769089722614382 0.0 
5.444029447575334 9.777665010699646 38.61019519994307 3.4620133835263207 9.832847013284464 0.0 
5.392108905830408 7.84438687250247 34.3166896002366 3.477868274819981 11.842218151956775 0.0 
7.463974493268385 5.451550658922981 32.89643484851 3.5402866634801935 15.367075227904554 0.0 
9.780547556650664 5.353712029368063 8.785140212059048 3.549197126953901 17.77080443709397 0.0 
9.770557723170228 5.324048521505736 29.336924706932045 3.5747281853756965 17.880465621786556 0.0 
5.174109168066256 9.567461865453389 27.110746241917973 3.668138375712992 10.699412424661272 0.0 
5.1749556669967305 9.673656566763583 22.38465199452054 3.692435975919458 10.666558529384101 0.0 
5.113687548851365 9.426795094917363 20.394546250571324 3.698759230185548 10.939365005122536 0.0 
6.180508456253774 5.982014619045323 4.152291121509549 3.776775061154977 14.971749648835054 0.0 
7.407063662180107 5.183974718820808 17.592435081568034 3.8105136548038008 16.58420660957025 0.0 
4.973475173242111 9.585059841771901 13.984003171696237 3.8677467221185537 11.309197237886092 0.0 
9.609425572437559 4.952449036197406 18.851464929608284 3.893585190699908 19.214649808272952 0.0 
4.881291148285056 9.587893541386222 33.37116870052578 3.958405457508656 11.591417208750222 0.0 
6.789481301947092 5.2770896179406765 39.32787956973536 3.9880747344088876 16.743805179892878 0.0 
9.267285701982463 4.758462444759122 2.0595076516245356 4.024916962171246 19.485694785173546 0.541485486598144 
4.793694604584857 9.490247253937579 24.85665523627646 4.024961910223884 11.900305617486875 1.0 
9.492405802739148 4.730423363608903 14.478557525011368 4.087561952039616 20.0087312392717 0.5312007265685565 
7.050631266387887 5.020357942277574 12.868807447550331 4.0985465681763795 17.561681571862284 0.48523636895356687 
9.423705587015043 4.67743342166157 33.70840306948249 4.127914455627011 20.129071480552927 0.5715711312689745 
9.41911994996304 4.651149322709655 6.391390483941258 4.153107075691895 20.243105085489592 0.6921875855250138 
4.60015902457795 9.331328723201509 38.106216020848215 4.190360748874843 12.581196774317046 1.0 
9.406897482287782 4.57431174481126 16.659236389167106 4.227042311919439 20.5790382890318 0.534739797784347 
9.268846436508447 4.508497713114663 8.974498773720335 4.273118682453257 20.656727258459213 0.6648317066317012 
9.201337347389373 4.486565118334703 29.449549118193765 4.28725814377311 20.655403233786814 0.5823931777947664 
4.845245385600823 6.88739101142845 2.9625907695568046 4.326247894305089 15.51686725946135 0.9999999999999999 
4.448812316833303 9.272949258055046 2.6505798706900023 4.332861803972663 13.087859527211076 1.0 
5.046074464149639 6.490132732528378 22.8241409861472 4.3389012943041285 16.00805382296582 0.4277895565219851 
8.84522852337583 4.385486821511135 20.704911264279488 4.365551941835916 20.667414941164868 0.48109943280218176 
5.100972960096598 6.332694845718876 38.51613627736794 4.377072371672677 16.311911789366864 0.4055023019032585 
6.2753432496048145 5.127958219520325 35.31245471740725 4.386697241868514 18.04254167681384 0.47292648149197686 
6.660632888597236 4.885781916387492 10.830019582014003 4.392907502318877 18.523647907640964 0.19326653235777447 
4.760985044756371 6.857208628437563 5.260608153492946 4.415302876294959 15.827243611180862 0.0 
4.309775202509211 9.033032791229287 5.053248664296611 4.449236317972239 13.694464098790586 0.0 
4.271654112010639 8.904685173107763 28.87918034993551 4.481016558243298 13.922812788947542 0.0 
8.477852877103237 4.209379824781637 2.5972144439230007 4.548768584144618 21.163257207786497 0.0 
4.131669109606637 8.469169152590009 9.286244013035379 4.626861374411229 14.81671726587652 0.0 
6.12840706439323 4.91446925751983 8.162982230467122 4.6458632778563125 19.107606495957683 0.0 
9.024409463570125 4.101185026588503 12.63160396720604 4.656906828648367 22.21972493435678 0.0 
5.204470160704361 5.708896546002398 27.162230778669603 4.671091099438323 17.986300997017064 0.0 
5.775256452783419 5.128983863497233 2.268502592198878 4.686241247793387 18.860537465602324 0.0 
8.995018966348972 4.053401643993016 0.15317801240776419 4.702985265926125 22.407425885061343 0.0 
5.065749859627626 5.826485903279437 31.775636748984795 4.703257782703146 17.930548792464432 0.0 
5.284749286584292 5.415626039560266 20.722546626386205 4.8089512593585955 18.792157882328528 0.0 
5.208859364566411 5.481671469079865 29.61109786406668 4.818884558271298 18.730756559114706 0.0 
3.9082564944623535 8.75357452094488 37.446633612112706 4.841744825020829 15.207215451572235 0.0 
3.851577660030646 8.572237925143073 2.181763315832576 4.901646741246076 15.576778456390077 0.0 
6.872463063409311 4.140395958473908 23.614066231062786 4.977307943850373 21.52982816789056 0.0 
8.538688388287666 3.656208078224754 29.816693888993825 5.098173078622108 23.813202472476792 0.0 
8.478058697402474 3.6470580691677394 11.765146293967561 5.1101828168378205 23.809099375746488 0.0 
8.394351086812716 3.627311852955499 10.756887335289818 5.135018987435346 23.842273027548632 0.0 
3.613545882009637 8.450817514921598 15.507117404888987 5.145159965015456 16.463348090509843 0.0 
6.623788851942647 4.048039150770645 21.631670516747548 5.160349762739829 22.126082170492197 0.0 
8.07299088653722 3.5865888317395545 0.3459140882759826 5.207605614121365 23.861332521477244 0.0 
8.001638458499485 3.478614937698179 27.460534343656185 5.324241304811025 24.33904819081158 0.0 
3.403237609877193 8.100102166041731 31.37175520252017 5.386115042497275 17.57246470918949 0.0 
3.4442907795633646 7.694801172673545 33.3547685539257 5.409620587159274 18.05683177118725 0.0 
7.903683891906483 3.335135347350594 2.437940261975946 5.480603083724503 24.977017368876087 0.0 
3.3050904275497794 7.921471731877752 8.792692775422644 5.507585618330204 18.134276032027753 0.0 
5.683341139523023 4.1659655245985245 17.57650540044647 5.515230606077248 22.738092388537503 0.0 
7.888250108938297 3.3010731596255756 14.164494405752855 5.516649036008875 25.13130255715762 0.0 
3.308877934185473 7.806355706782853 37.6029820572304 5.522343151888972 18.297250645203754 0.0 
7.767887036823938 3.2604968252655393 38.30929212029758 5.576664861533118 25.29215215721738 0.0 
7.5575297950766505 3.2175202355819126 25.515163767117393 5.659533331762042 25.468447947974326 0.0 
3.247753769418722 7.394112219612896 26.71749757817158 5.666846147104134 19.172092214486636 0.0 
7.32784707417788 3.1319277734461117 18.222542559018855 5.795278637580817 25.872779215982927 0.0 
6.726707323065586 3.2891431952454537 38.55658911391567 5.823630336703256 25.376830591873283 0.0 
3.3250203355747647 6.4338564870640536 27.312537092262758 5.898722330466369 20.911594572072207 0.0 
3.046083584334909 7.046520482729961 13.111804036271309 5.952856872347282 20.429081134642725 0.0 
6.952732242218023 3.0366451893326687 27.59193183747808 5.989373471886537 26.398861722896708 0.0 
3.0158028729695854 6.816387133105423 37.6111987600078 6.051435813975401 20.979273051830955 0.0 
6.7033249552561465 3.020714873932344 21.558637851596266 6.083879255422263 26.582216773629877 0.5131662364459676 
3.0367368424899297 6.54452027726917 3.9782004277121246 6.124174778232476 21.495832087439492 0.9985812783265197 
6.414514470049996 3.0719077264473196 29.715829175597825 6.139643680832339 26.536561366095558 0.5209896147777424 
6.124401725964351 3.172359303654538 5.2231576564949975 6.16472562521221 26.338328717402323 0.6929025561562506 
6.245410111649745 3.065126388609489 25.62385682554816 6.2121460451530375 26.696100671633484 0.5343508766852502 
5.977411876230246 3.1736023443156585 3.158639803745217 6.227636447191735 26.473579269012536 0.14702686812923563 
3.555450169633641 5.290525986932223 39.301201872294016 6.241098331804299 23.273809298135294 0.5729235964724424 
3.1610944631091655 5.868745270983248 23.59500548045429 6.2878846931039085 22.746975068717564 0.605626527139426 
6.015575693469156 3.0814002558404843 36.56967375032064 6.293655483709927 26.82944885223701 0.7968441385072198 
3.140571260519481 5.768619081008121 37.36987314414813 6.352505251272041 23.060339365219207 0.18897087538431306 
3.1676194200755354 5.710182622347768 6.360990659372426 6.356371813274794 23.138671801776457 0.7323464783016028 
3.271754826505278 5.520901735315658 4.238905578199692 6.359107310299586 23.3647049305806 0.7079099053689626 
4.902995436824465 3.5671393690946704 28.22944907325755 6.454571126611107 26.295039033874808 0.0 
4.883334205687987 3.457113863252249 7.3156073597960685 6.554826315126824 26.753254510926993 0.0 
4.998763753024399 3.344958084106228 3.421044383872342 6.579228791674007 27.012235013415708 0.0 
4.895250643795453 3.4181925388709393 13.713934495532072 6.5793056929824205 26.88574802958518 0.0 
4.14596560916034 4.045870976254598 36.84732407146817 6.582246010601412 25.919198596458543 0.0 
4.039315801786058 4.150839050429639 13.627802261985941 6.583526946504851 25.77458913107091 0.0 
3.795110250313005 4.407149415532022 19.71845774999848 6.588723975897542 25.44076969976983 0.0 
4.067007611681545 4.089304931134848 24.055816686670234 6.60700357454062 25.929875764270975 0.0 
4.745884641836355 3.4934783716995543 22.072374117752346 6.607871021007625 26.837306485276518 0.0 
4.6766308932736536 3.537952515017441 38.807410520443135 6.614965976129101 26.784079380836147 0.0 
4.024339809698731 4.113544575772634 9.227411778574258 6.620315939216616 25.934841649457706 0.0 
4.210160974975691 3.903682244496558 5.219240043088661 6.640552248152376 26.294139372991623 0.0 
3.9005066968317283 4.174097249053373 21.704335820094215 6.66756861858915 25.989995847911093 0.0 
3.9934910240662536 4.071676467700751 7.2255297798369185 6.671663114321888 26.144273693848504 0.0 
