428

8.831939407483855 8.918342864839012 7.784083351891962 0.5336394984614112 2.0343666705244416 0.0 
8.73089096555061 9.379543341606517 24.234511268427013 0.5350286599814611 1.5499984346366027 0.0 
9.362030329358813 8.713349560567615 24.753739420150787 0.5482193802112567 2.696248057872616 0.0 
11.833243366593344 11.832322810181449 0.5618876799752712 3.6526069302666455 2.8680998429594524 0.39755571662696576 
12.618956584162056 7.737273584185955 16.23839886046607 3.692994675743589 21.64518562019972 0.2853739131874267 
8.806111983915898 12.931717305469903 4.30798291203611 3.708379550183563 6.270063872280399 0.3756956543011619 
12.274205573197086 11.410552110566961 11.595036512135636 3.7166927195332784 2.305606532701436 0.36360748458910336 
8.776685582652227 5.553540725688823 38.59607935442935 3.726638928620585 17.086775960677365 0.11820832278133793 
6.177829001627776 11.368851540343767 27.87959241660557 3.7319922954444227 9.47111876017577 0.3228153225649712 
12.979304312170573 9.04960174537175 14.12595798131251 3.734684740809066 23.265221744712765 0.5182671944319431 
12.980663119070561 8.994780505837715 15.651517908329453 3.7393828766514075 23.239817489484345 0.45411632090952003 
12.555949577552266 7.4772391572510415 21.502376852395145 3.751264268870164 21.723469353164816 0.43510964268398594 
13.002171333346578 9.541870993178412 26.134580642353598 3.7635061301194646 0.2921643622652432 0.5638870664961373 
13.017286644274938 9.305093240464052 8.749343264751687 3.7676894677344546 0.055095203983874796 0.6934690839363692 
13.022532106678769 9.111108211257234 11.467869870963227 3.77508800227257 23.580654326733217 0.6070528047114007 
12.712424016783805 7.7385422880555925 17.54653408928735 3.7779471260193063 22.182548719367844 0.5363429044815232 
11.267067567035147 6.048206166163412 34.666139234896654 3.784183574349832 19.959909895931816 0.3054569943271714 
12.84680842433142 8.038356179397175 28.05922440069989 3.795406643476621 22.61401348211764 0.3892936538006407 
12.865399784884861 8.07807420862939 30.727603999700158 3.8005954355896847 22.688505444166225 0.5376606649416431 
12.936593612080056 8.323183015726276 25.174142232432068 3.8013105875431585 22.94808458401724 0.4232000583482917 
10.938101084597033 12.658803863379841 38.440124613024516 3.803896561528847 4.226059157293527 0.4556139340820458 
5.471661554341676 8.77470062079875 1.1381840187843721 3.808116451713215 12.440092822109921 0.8506412464905819 
5.833646082799998 10.933182350283587 21.047997006003307 3.808487483486584 10.22127616947667 0.598103993311293 
5.474693574225999 9.785433186664664 20.320623609732152 3.8130863228980747 11.441955404923775 0.6308517590472421 
12.834377829783232 7.94862293107748 12.061632741892062 3.813311776154545 22.63168259651948 0.4720241877668436 
5.443204588422294 9.490330283224948 14.872042504043748 3.8143741230566306 11.742720143896065 0.7524413623012379 
6.746563090864079 12.129342350627212 5.692583332280037 3.81546966049259 8.723967831331429 0.6057884656246778 
5.4341219304018065 9.185544148718291 10.751607162040337 3.8164224083302 12.054103516921732 0.7066695991648302 
11.40682010873427 12.400252330487984 29.772810072783223 3.81784791828924 3.7050185523230326 0.5007976269535463 
12.057429428448668 11.83845208689679 3.343906446832655 3.8186050073135243 2.8442425330854473 0.42474309560875223 
12.71333911777031 7.63959763078099 13.450218550945515 3.81943891631536 22.335848015051766 0.4486097979113939 
8.57785135041955 13.014722137268713 38.79925747485462 3.8242537282421405 6.682781967957418 0.49480019553216237 
5.6872343750355405 10.643932906135426 32.670970417183305 3.8257480112045488 10.592164330254953 0.4801896914417534 
13.03107205618568 8.666676751809353 20.974016269440384 3.825803432737742 23.452624573340152 0.4448824087695173 
5.439637677332092 8.895055266963507 25.456591812418317 3.8268586064182615 12.377886513590411 0.8314588806492121 
12.962641481685898 10.178701465779778 14.87717445828239 3.827034515663056 0.9380667389928696 0.37305637353811444 
6.705343912694861 12.111051550410977 4.348214214929669 3.828954240620822 8.797908009792483 0.5694968543946072 
12.950061599096617 8.261445072040647 6.473186652029888 3.829842905747198 23.063737820625654 0.5992707995971385 
12.645874416898238 11.027945078037057 19.735410558353458 3.833151673996236 1.8487969801938462 0.7607458493457834 
5.861908982944412 7.456854908531318 19.13087426733874 3.8333445004214033 13.908773195279274 0.5064115533976797 
9.506223574849162 5.423032735090448 6.319916999608026 3.835535030083519 18.33094753801901 0.6302055343894027 
12.882303729820022 8.011069003776308 9.35834628337143 3.8377832662968694 22.85197647194707 0.5615822472483413 
12.612528731354997 11.10286539807063 37.16648959067096 3.839232951066566 1.9335767210718657 0.7219278099738096 
13.073479887467885 9.640908216495848 23.144015997333433 3.8434109438876565 0.39158534168657155 0.6475508907471293 
5.779730787352781 10.908278167146925 19.754265492389887 3.8461220583703937 10.368449656603904 0.6492547595125682 
12.569142755008444 11.199337150725277 18.47616872614188 3.84923680166898 2.0440600551730874 0.684886267872695 
5.502438036046049 8.36757028578998 35.72932049233117 3.850052320968533 12.985640385426166 0.7910096470442005 
12.950501731945339 10.31390910373531 32.18113612908217 3.85040460849783 1.0779343642481063 0.4224700356596564 
7.701973401108106 5.724291784915614 33.86190564572222 3.8505849904644807 16.55236715197792 0.5496584608719381 
7.41951325696135 5.861958379308144 0.6229039520287998 3.8509099885586204 16.239441298181134 0.7178539002453405 
6.2625664877443885 11.684514006917407 14.741935383188679 3.8537796304439818 9.47190126942844 0.6658219458336361 
10.149985422625303 5.501217280274101 35.284907234635654 3.8553009792561657 19.076044550982807 0.5818983093429867 
5.515678733754752 8.282392933688959 31.458348596226003 3.857644197474227 13.097198388228897 0.7675347002764057 
5.5332788541194 8.210224777941276 12.937667612330856 3.859423349237974 13.1775190859801 0.854991885233954 
12.811542350665187 7.761887484397681 14.735224613434355 3.8599304105999073 22.72497345216098 0.426321122928479 
13.0453930109211 9.9576714714279 17.6232154576823 3.8608039342631297 0.7116952827203527 0.5087817554522275 
10.728230414877668 5.683162947627316 2.753214046645809 3.861022107894237 19.711595249207676 0.619265823023981 
6.738654756465632 12.184191665595268 25.660579957157395 3.862167223550975 8.800720082873504 0.6654125379753694 
11.588503412618019 12.324001670020047 11.068029096191886 3.862393620297155 3.5551772004502116 0.6621690116428768 
5.440751153456214 8.586385406854754 36.97959789133089 3.8666214067491147 12.814265820701586 0.8455474673047053 
5.5565861288057175 8.10310027828418 8.772936571262806 3.867387360428506 13.314168652082358 0.7528199753379697 
12.001100319510517 11.968317380015861 19.197175879348805 3.8675318158364496 3.0143712074161364 0.6339331106422718 
8.616102314833253 13.065628227618998 21.610521134290167 3.867925160426796 6.71249276723384 0.5839644499258534 
12.944363691780282 10.400533718581293 12.176594271904698 3.8693734537696036 1.1681997622723905 0.5658672704731165 
5.882919392183272 7.343333350766393 17.72351339155427 3.869445636113162 14.149940056299144 0.69858743553542 
11.302738198518988 5.967047189492824 33.29808609728096 3.8718875587594175 20.40943100586285 0.7449585969320164 
7.65267066102415 12.77736096438376 3.590885810983913 3.8721746332276092 7.728896576475183 0.6250249162288626 
6.785956002128959 6.2618104228221085 14.362767824394837 3.8730853040694706 15.580765306500737 0.7350159469459462 
5.533837374409689 8.157700852839127 30.133223428002374 3.873368312815429 13.275866198132519 0.7555027422972863 
12.513839415345714 7.1631895462717665 5.86540711068092 3.8739418682981954 22.13693235823429 0.6050950237610706 
5.797054199306775 7.48813780512641 23.364244171194308 3.8764665736015003 14.007246866785081 0.7529116322026436 
12.170576517412666 6.699858574481173 13.891996232886783 3.8772398022574617 21.578375962392002 0.6437774224445226 
10.74988082567653 5.673276110737586 4.371589152445786 3.878478602654984 19.816931088958768 0.6556176536050572 
13.070506041586206 8.573926577308931 1.152505144689421 3.8798636170187626 23.69835968932611 0.5627243968752291 
9.497039122859935 13.122011368572391 14.060663895011544 3.8798840661258476 5.847301291311247 0.5503483418829171 
12.9935178967581 10.272672564779356 10.803417869353432 3.8806939351230136 1.0348954863442401 0.5529344115033812 
8.32540639390994 13.02022641463057 36.0092249091334 3.881942883917886 7.031308075019979 0.4828405181556696 
5.992821118172117 7.137700119815452 12.297335055105137 3.882141812460384 14.429598344842972 0.6014146294149474 
6.632982352748289 12.11768233519481 3.0563201459678595 3.882316749263933 8.970185000764737 0.7957601676413444 
9.697932985693043 5.39304105970718 22.234674985730884 3.8828824636829546 18.74658504350589 0.6014873972668596 
6.003074819614277 7.119929963851103 13.712012611590087 3.8832617071119744 14.454249548412925 0.5620456858472987 
6.105497711303517 6.970761313225843 9.563845730970115 3.883661112263195 14.636708223014416 0.7378826396007314 
12.10949926507805 11.878898324192555 2.0182454869131092 3.884307202825796 2.8876203244498946 0.7667149402706083 
12.42155536560929 7.006333093185521 28.70072127356643 3.8849458974173032 22.017881598620264 0.5168549938026216 
12.634746555538765 11.160351021087308 38.593126519947035 3.8866373987035194 1.997077216228341 0.7219240115839863 
12.724191767205049 10.992430391797583 39.90170132201814 3.886653072448744 1.8068087344352044 0.7941044880013406 
12.416468584295906 11.50389341357085 30.161700321122275 3.8867156848772657 2.4043294335595284 0.6576696025992558 
9.130292113633569 13.13490551989231 5.540484630817854 3.8867493971888694 6.225018496077677 0.7787693462732691 
10.169304451519627 13.028719074992347 1.975066277521755 3.888937968429788 5.180640489564269 0.8719404122291037 
11.599352719725886 6.147993934474531 7.821723518725506 3.8912594146677266 20.859436337124542 0.891418683709923 
8.878978515366892 5.375173637586251 37.179652638494986 3.89254881548272 17.971618554876258 0.6793131072523363 
12.009026673861424 6.50385370566082 18.183252725716187 3.8927557921081624 21.41065055974967 0.8032263151132439 
12.93082292431826 10.519378812761342 6.826301096104679 3.8935562112899094 1.2930146551264095 0.7123563984098044 
9.974500875705623 13.076759180974069 23.55788253881839 3.8947384184393607 5.389095099642134 0.9415087409711106 
6.786891672686554 12.267498319994225 8.480359602417636 3.8951506701601177 8.785054828379792 0.7939077927406286 
12.945889215458049 10.481598074465182 9.465176679143212 3.8956938932577154 1.2530954030210957 0.6483672630520746 
6.018927736700164 11.426652865930336 10.755671105661975 3.8958498006761326 9.929594975104926 0.45655458423997086 
10.962236180293413 5.750124288700224 0.26468389349640375 3.8962652286069934 20.133489560634004 0.6437669666568515 
12.540651362570344 7.162724080076856 24.43571957390337 3.8968073028925962 22.281643600892473 0.6273697325595641 
13.03624275412026 10.171923721850938 36.393009644062566 3.896867657752778 0.9307479108659678 0.5740144996042149 
11.9113735310539 12.096579281467953 37.68244833638158 3.8969119412012487 3.19161238662344 0.6301975768483642 
12.907422818646108 7.90472945063847 33.53870866381732 3.896985312434821 23.11194780834292 0.6314566577745644 
12.557925752621006 11.312911304443407 35.55097726818775 3.8984581355779193 2.173824189785229 0.7175659659012784 
11.004957977506539 12.731653783002564 39.93568350148838 3.8989473665990806 4.30407532797841 0.8599149762073596 
5.955025302345728 7.1632286802899685 32.323595187075185 3.9001888158070246 14.454692914064523 0.5141823179760571 
10.458140576302828 12.959499068022645 31.63818469902651 3.9012801729394218 4.899781537086085 0.787926561034993 
6.774698064296114 6.233483537310121 31.79480973498314 3.9021136890893464 15.706877253462956 0.8231165809656333 
5.916003396833691 11.278150688105356 6.444857864930285 3.902425984382883 10.127087789500429 0.672772331798239 
7.805570538242129 12.875389232440899 25.017549941657556 3.902540654073003 7.609721456543024 0.7053347430301151 
12.589898103777958 11.269954856163576 15.64512277540765 3.9032213573609207 2.123110565192505 0.7188283070974238 
7.635471708659953 5.69562460522398 16.541462693702563 3.9038808960477516 16.732100965292915 0.48267279232606874 
9.252862999582817 5.345620501321086 31.821354603869096 3.9043805483675404 18.401822871194916 0.7391245223792207 
9.856244776518665 5.392950700093799 19.319024054996945 3.9044029032571776 19.007772842556662 0.6457636002603426 
13.11018714417267 9.836953244628308 20.434589901970526 3.9045561718863286 0.5891866608183953 0.5553270315823912 
11.321748007395485 12.559769289176934 8.29166207493207 3.9047039009028532 3.9496650372109983 0.750044710086971 
7.794700151594331 12.87398069359627 4.937184472940693 3.905269992756973 7.62566324458551 0.6920631552654735 
8.504975254038367 5.416408286147913 2.768213644045403 3.9053152626402117 17.6537451429447 0.859619269012119 
13.119807003855268 9.779074478790214 21.855111040985335 3.905806709400051 0.5307059833591126 0.6406754806900714 
11.814064246712444 6.303511943639386 3.6973075702180935 3.905920804054378 21.20329022595692 0.8035283721237121 
13.08297522581875 8.495978877253929 22.259230703447102 3.9064366032597446 23.786081594523637 0.6365794067592943 
6.096693821831092 6.944030010520478 29.578195834144935 3.9065121842454795 14.739306036896124 0.6859993602116607 
5.487180022176265 10.30019808286698 27.227990095152734 3.9066264473029557 11.209751830716502 0.8571838584240132 
10.527379206512641 5.557760812711933 29.88480484431731 3.9069589009070107 19.71241697796294 0.6355665471056859 
11.759877535076289 12.244146958814149 35.04588800518393 3.9069682942220867 3.4113958533897346 0.6374227498025332 
8.320492270439669 13.044789866736576 16.164435382432508 3.906970021896635 7.075561602132634 0.5822397345681897 
6.560031742474077 6.4161733376696795 39.969169189200855 3.907237230912817 15.445419473979463 0.8518727151244526 
10.853575483873456 12.813564563652928 18.610833395827342 3.907741896774005 4.4858886675380525 0.8397671761277632 
10.940940960477253 5.72555851276136 22.931336108556003 3.909088017528977 20.16982520692015 0.6636980632755201 
6.3426543093413805 6.635106702905517 22.7858767511959 3.910284634164232 15.148760263418133 0.8368220729784723 
12.29292864879584 11.705891881263696 27.45732086751638 3.910347771505678 2.655298704178449 0.725733878236714 
5.458769508789008 10.208613620730247 4.596498910747432 3.9105458329161022 11.31685839956861 0.8475066772522201 
11.151599979414751 5.83287740845968 17.552626375367325 3.910602164286904 20.414135081401284 0.6222376886751863 
12.923729163210714 10.5904361871384 25.261189526366934 3.910633597822104 1.3681772614968715 0.7669178036838883 
6.027218236179873 7.034778469813169 31.000896189042123 3.9106941487432723 14.640806261704146 0.8575716809297556 
5.339619897460427 9.198769048647907 9.443283524063162 3.9107156834413117 12.337108078166416 0.8110501456667253 
9.56657967976911 5.351429428702396 3.4604742165083238 3.9114032255739675 18.748979807638534 0.7121558494491596 
10.86337341889995 12.814295061630165 17.278140389889863 3.9124382519311522 4.482644628713704 0.8386701501553325 
12.410334877926768 11.55705469878157 8.87638386735587 3.912827356760137 2.4673501680096734 0.6131336066836854 
10.629603260214832 12.912060453005346 13.034111418742349 3.9133095861509775 4.7371041016264 0.8007391032332072 
9.541806082309488 13.15256322007237 39.36447020442928 3.9134576114140343 5.855167677609856 0.7009798226707549 
8.385439845696364 13.066905054843048 34.61300585614921 3.9135953365282825 7.019212464697652 0.7317143527074397 
12.957881677968164 10.503260083171796 26.7110591574438 3.913955463962737 1.2757291578471488 0.6146788074664394 
5.3802699687762985 9.83751910584087 1.740203283836422 3.9140757803449158 11.706683679326954 0.796189719307527 
13.00720369108723 10.348566363916078 30.782367464212236 3.9145149932331718 1.1135229715349055 0.714195883467979 
9.74228401047637 13.133763261830644 20.717066715476925 3.91483851785947 5.655823250680996 0.8473178167924922 
6.824906350012778 6.175292416361229 30.277765652396667 3.9159808395974154 15.838427179107562 0.9043129039938341 
8.805750487794985 13.14133031076425 22.850010420990444 3.9166068498851123 6.597399321258994 0.7208875288166501 
5.563440646938531 10.572985502143517 14.163743364661975 3.9167602048794015 10.955335758357698 0.8812098193082709 
12.399302599647303 6.921100617247866 29.724315102376856 3.91687109809967 22.11637829395815 0.5819535892241294 
13.1663257714082 9.155234196140942 31.367133830291372 3.9174721575752267 24.5194284529168 0.9641591901622972 
7.891873677261881 12.926111449067548 9.137386247022206 3.9189670188047883 7.542793745418084 0.6840764979361947 
5.435609765361203 8.350547623874164 15.646939647653241 3.919003373183828 13.219454298022441 0.6900234177419806 
5.927189339642933 7.171993610901982 35.09555642662058 3.9190791313412836 14.502404893262579 0.6566511971577893 
5.705160565145103 7.577447636173801 0.3540990536847559 3.919606871695552 14.041792697402734 0.7059775600524297 
5.55462957965192 7.943137569631574 24.620435192389976 3.919649468446388 13.646315111558259 0.817774208295548 
5.652727793285287 10.807287245115624 34.1486105314679 3.919886591854662 10.713219116502344 0.7570670994389008 
5.5231809177804365 10.46792126045773 10.106295581353514 3.920779599552979 11.079081624739313 0.8683961691939494 
12.120791503087002 6.577415297942379 38.06807995543145 3.9222637397131916 21.703954378322226 0.6626046637345593 
9.485436737159356 13.16551116985919 33.87428352895736 3.9225831002664977 5.926000798436959 0.7492191452301169 
6.067187459457129 6.957279010928582 10.88532173959824 3.922609488843564 14.771929311003849 0.7338545980488602 
8.295251630921657 13.055381420523366 14.65440128229936 3.9233241267988803 7.12717523564671 0.5823944026100341 
11.35939589352108 12.55807431012608 4.032076748643398 3.923379496928603 3.935744255270407 0.6941162262276711 
12.402517884837971 11.585660458403787 31.543961519192635 3.9234778948242175 2.5017798800347784 0.5778682878912618 
6.064183728906448 11.540296714305185 9.271177595557582 3.9236315261147507 9.880848521501527 0.5795904474842678 
13.08452474214556 10.082964621452941 16.378705008384493 3.9239533711193206 0.8393507538070146 0.6523991590681709 
5.7426497886075065 11.010129559329894 39.50126481864666 3.9242275126426898 10.503092580405923 0.7662363086167506 
5.660471237398115 10.838090394215126 16.882056205079515 3.9251430340491513 10.696240572304553 0.7305857752881686 
9.596049658670582 13.160346647586017 19.424078857044684 3.925628773910395 5.819863852413768 0.7698431651972502 
13.175771399175646 9.314056138527866 7.2926420991506475 3.926293960908764 0.06405898048427972 0.8178338754969658 
13.118784188978543 9.920826203910938 0.48488616297448317 3.9265123069645327 0.674133186022619 0.5604136985683462 
11.051971537543308 5.761371901112881 38.69024881726399 3.926528674855303 20.375427998190553 0.6782070362452188 
12.474317058490726 7.009043804337303 8.671974086208067 3.9265895080277127 22.28658093612126 0.5630643805208759 
10.022017423097118 5.399903720629128 17.849279098664223 3.9267355732199385 19.281384975231312 0.6529373045041112 
10.069066070227114 5.409139046367832 36.716912174977764 3.9272232038087007 19.331726670106512 0.6397456934740047 
5.354703266093324 9.750725136489251 16.355464258542426 3.9273479992860576 11.836035877072746 0.6808897160786073 
7.009656209823644 6.023936491960493 10.215145403454372 3.9276743826450207 16.124661584777066 0.821832540444047 
5.670867529533625 10.869571016620045 36.76999366774781 3.9285111071527345 10.672423184512581 0.7597645481153091 
5.689270489399554 10.910596042493292 22.425502757505242 3.9289151001269187 10.628556393788088 0.8651246667975117 
6.319399053047112 6.632967944941157 3.9926362548692254 3.929030247718472 15.207421155718315 0.8153254493630038 
5.360314201706707 9.805870800850702 37.591413536627414 3.9292044941289253 11.78621805164147 0.7776129107668653 
5.355512588724745 9.771407305649317 38.995765500197535 3.9292362839317643 11.821110028666688 0.7145694381972285 
5.5617332966707345 7.89476108637578 26.080474259530376 3.9293744779403066 13.728150955687589 0.8008813515292782 
8.688761740424766 13.139445513507761 1.4481857038960726 3.9297296073084547 6.73596876232542 0.8011834836889015 
13.007935061737802 8.100723014221044 10.705468327787884 3.9297472588296927 23.52500558698328 0.6333504488126458 
12.50949377650639 7.054573248424294 7.258542332558065 3.929910724255471 22.36289587601708 0.4896069630840006 
6.129071495987537 11.63852275001867 7.937301101826279 3.9300427039046553 9.779344747277367 0.6307866696145932 
5.32000460419763 9.284526829105932 12.189800153839144 3.930147059965563 12.312393857873058 0.7754515026346922 
12.27419961405596 6.739053107916524 35.27801397658543 3.930729906839171 21.973758461255983 0.5826252069800053 
11.705529438884325 12.319601746359028 13.720452014549615 3.9309133425296965 3.522434726278073 0.7219773832719251 
5.592891400980877 10.692852245808309 12.69746212626616 3.93144577836878 10.873622411791722 0.8292823704998294 
5.790316007694313 11.118872950260831 0.9529199137767819 3.9321876138903695 10.405808532296899 0.8358016762254632 
9.089121567529675 5.320796169882906 11.884718208682948 3.9324959769389425 18.370527365710053 0.7340744350310245 
7.34802446211159 12.692289733435961 19.631019666411724 3.9327941155932047 8.162834636138339 0.8696262200050915 
9.668498141639102 13.160731239422828 18.008744542317174 3.933059816676195 5.758744009498379 0.6799692387834665 
8.139164631243002 13.023352091442169 11.888211138946332 3.9334642775132034 7.304828608175779 0.7607917862512874 
10.725061883693547 12.896776102405601 35.98191707680486 3.933800134958837 4.667180793574476 0.8054397978242429 
10.31466065423063 13.037298918918525 7.591323147446815 3.9340990594935774 5.101564291332107 0.8286703172932972 
5.819688834009712 7.323540292249534 37.87136360940997 3.934244743416918 14.372966473909806 0.6460643688372224 
6.1189022942414635 6.867677793265814 26.85779377940038 3.934365506623046 14.919141696644033 0.8645106814862286 
9.667579852198793 5.336988432179936 23.49742784514521 3.935229658210054 18.962700385577406 0.5921544938277947 
7.445757644447388 5.752092316803557 20.695909934445595 3.9358161336290545 16.672811985662136 0.3917867956005255 
9.026348066356173 13.179871235710593 25.61518522438373 3.9362301910188267 6.406788373095814 0.7638800193143125 
9.307265790520722 5.313715261764241 30.39449574489589 3.936701272795756 18.608535507321903 0.6085976292914669 
10.391858158157847 13.018000487010744 11.70613325570552 3.9372157324008588 5.026060934386511 0.8516978414099394 
12.335361851076785 6.804029484679527 12.8200122187597 3.93728707537272 22.099483752051754 0.5494535705555039 
12.44309192296153 11.554639709831937 12.912020473084887 3.9379182597682765 2.4619073444068924 0.6589192158050551 
6.563652498692065 6.370591584992056 20.046048138910436 3.937950700326496 15.600838276994736 0.7492350856422709 
9.86964510792576 13.13911044750234 0.6656635191229583 3.938164563936885 5.563823651631566 0.8397569285476922 
9.883180325010903 13.137201792132482 22.180061131703344 3.9384330763311035 5.550536041451686 0.8442760227335162 
11.875228184989611 6.31394555916572 2.248376929525941 3.9385579471180243 21.433451660406106 0.6606759034792952 
12.00540796785978 6.435678535610915 19.477191362776573 3.9386137630219964 21.612001201012923 0.743709990850606 
11.012196870622654 5.727502431945675 21.56005544101324 3.938696094874663 20.387683095977998 0.6793590648184177 
6.157857799854073 11.689960666549352 33.336776574452934 3.9388769262609955 9.742982221089356 0.6363201924409881 
5.987856830194401 11.457681982218602 26.653496656956307 3.9389640509811668 10.03110820059776 0.5317382726248917 
9.790917824938159 13.151753144561129 37.88250326522054 3.9390696483343 5.644843694714147 0.8455543735337351 
6.240403573579906 11.792400223172416 16.092910573864913 3.939729628376515 9.613515217489297 0.7754566524716999 
5.559928741692165 10.63111316429157 15.51780386301732 3.94006338324259 10.966988965397668 0.8201967220965652 
12.892033427432647 10.754001131939397 4.004828077997111 3.9403587262344253 1.54314526241766 0.7283752979211139 
6.33609804687843 11.903152512892612 21.58814682364759 3.9408175356230437 9.469777594887976 0.6954525189018951 
12.75443695855658 7.447485387514307 18.87176337136561 3.940829522412983 22.88881876153834 0.4776586765733593 
6.9143951663355185 12.424704764416934 27.145885820105626 3.941294239237725 8.690858220243701 0.6078613225313729 
5.343074307086306 9.76995962911223 18.951769803083884 3.9413736673722877 11.860710781604446 0.6723203545300143 
5.617335742854124 7.720719050635461 6.035656994415191 3.9414400702325167 13.952910133056104 0.7578655335715214 
6.970754521739801 12.466243120934081 31.195402438023308 3.9419766314788585 8.622346350948014 0.644990377470481 
10.772766653404203 5.613975057108348 25.696846110924348 3.942016700376865 20.139748875408646 0.5780758039679121 
5.323170362551158 9.595731395352471 36.05101357694579 3.942019938975317 12.038044715589198 0.8307918296015017 
12.86745569731257 10.81825605012143 2.6520912730804582 3.9427671451357136 1.612863223530418 0.7149026561883457 
11.9344613857018 12.13809738814319 17.708830905961655 3.943024150918115 3.240868348121868 0.44654470949532576 
5.368822124914715 8.554282457114498 21.08061457879505 3.943040019772835 13.086804447703255 0.699743216643223 
12.552620862624584 11.404278740846147 14.308298260966275 3.9431233122367333 2.279069933085971 0.5967550523208323 
13.184924249575927 9.508027804507352 3.099276804662523 3.943375102345648 0.25821228487962955 0.7681399009950105 
5.442428746089064 8.223932949675374 32.79009960884505 3.9434011266127618 13.426572719549224 0.7000445610759574 
9.176295773119369 13.193900072584745 11.0216296706568 3.9445887105747808 6.269853973510546 0.760368339999358 
7.148609205510967 12.588381771104922 33.972395556407115 3.9446972153523916 8.412458111309306 0.7514968287293576 
5.314083316710466 9.519347360903717 33.50444523655981 3.9451220689127826 12.124409457895688 0.8343177107576781 
12.65976189739343 7.265572928617358 4.372966957100402 3.945177689097454 22.708908948308355 0.5355528004872295 
10.577957853507646 12.965085396870316 14.474958102246433 3.9452923296926548 4.842845848001403 0.7776290884804201 
7.839584642327402 12.934693764928584 23.754801999905624 3.9454074089328595 7.6397588290029645 0.7147115122884959 
9.957940917920771 5.36854332499548 16.635533040415964 3.9454893566202456 19.304476324764558 0.5549549502419115 
8.570618912695258 5.363128148568771 19.926067752640726 3.9457992157781963 17.911357317848328 0.5641912312358364 
13.130172616644598 9.968027705726007 37.76605531428916 3.94604907738725 0.7220502324929932 0.526395522959802 
13.046368420628466 10.329475544283413 33.71601695160376 3.9468570579451 1.0934079443219034 0.5439890089012976 
13.09764956859031 8.36806498079977 2.5551292387498563 3.9474316435835703 23.913002422703695 0.7192314378797287 
9.163567930397381 13.196583538569078 9.507011558911842 3.9475298769686615 6.287204407685714 0.6949940836245355 
5.932693356902858 7.110231241822696 15.073645518305915 3.9475478088058775 14.663037886527853 0.609277056710778 
11.478868468240565 12.508227118180827 6.738954836760117 3.947644690491531 3.8325278561248872 0.6973586753057015 
8.277801652686152 13.076406991033204 13.113056363656518 3.947981773963448 7.183777526958636 0.47228132719317895 
11.94167985741198 12.13856978254271 36.56037962841902 3.948287710313953 3.240228984326764 0.4424747150933882 
13.175810424686956 9.671422485869902 1.8625888202026957 3.948364775723937 0.42222675823665234 0.6797129438782794 
11.34272750555074 12.598213807034323 25.417550633152622 3.94842299027142 3.9965023438788414 0.7498960753387051 
11.75220160751159 6.1953737127069495 26.34040055069044 3.9486395935379233 21.3175168034342 0.5752075576713792 
13.033787650587481 8.120154912002404 7.88132254213653 3.948873118702426 23.66564371707827 0.601719881967662 
11.825148776350387 6.255276061502147 25.15698544747007 3.949653489630576 21.417390017505152 0.5173784950637722 
11.732698805166946 12.321821499188301 12.340513034912561 3.9496684265964457 3.5194111964288695 0.5792837237844705 
8.257302228284708 5.427033744969295 6.956699622782395 3.949749340536939 17.60929767413972 0.6156922335117363 
8.57975883185113 5.357121508236606 39.913061604174544 3.950155208990603 17.941168334431755 0.6905056151576623 
9.451228911735578 13.195549443213553 15.273658557790327 3.9506775980534097 6.004393834386086 0.7698327162743952 
12.898300155920232 10.76697062188123 23.91775383713742 3.951112994503993 1.5569525292795277 0.6039528519885745 
9.284668560652532 5.298968463500243 26.39645716224767 3.9511836342434585 18.65418322299102 0.6267976122822151 
7.4796563911852285 5.7169767352647725 19.257319611365986 3.951755291314441 16.786558771433516 0.7361418592397949 
12.4694695781762 6.95827029906838 26.0211356818249 3.951836204466748 22.385416322349016 0.44951828831572915 
5.3467857114240935 9.871009018619773 0.2855146430535953 3.9523074252580863 11.792946845172992 0.5950195978990069 
13.177883552397608 8.810346121749731 17.030698344558303 3.952412520708863 24.393174627661963 0.6389741072887678 
6.311171684239984 11.892994779139073 17.550124676360333 3.952484442988896 9.52210574779685 0.7657622929190394 
12.218105329177874 6.6383905687350975 36.92651368596056 3.9534988385689283 21.987746874165595 0.5868095762732608 
10.394191764914199 5.465256733002759 32.50960968303613 3.953916588899976 19.79318779642785 0.7558368522186069 
12.520073885921637 7.027286652483188 27.21812562100991 3.953964825920439 22.483052941604633 0.6170341263535514 
13.11023930863228 10.106335737053158 13.696389151228232 3.9540812351877936 0.8631751607385105 0.5886717672923031 
10.340437889928772 13.050875956381965 26.32478165075849 3.954201920437907 5.106491590239589 0.6899083687887868 
7.3514768748345 12.718732075622377 38.0988805295735 3.9543004778645368 8.191662949288364 0.70312824430703 
7.14973719080772 5.899481612625358 4.810994611572141 3.954374455184007 16.42039163571504 0.7394505983360645 
8.320163845722503 5.406175881445449 27.02555403434429 3.954690775292455 17.69741737805455 0.7787042530890557 
7.675757493705879 5.622122348035223 35.129405294439906 3.9547105742707225 17.01703848566293 0.9101539148672367 
5.386326308589524 8.405961083979843 16.964160853475946 3.9547915350184923 13.274925463810284 0.7032386111223602 
9.195747622691622 5.295397762026667 9.098419062064202 3.9549743590859476 18.583123508563894 0.6203434367140769 
5.454216902221047 10.361141144792377 8.635910512881587 3.9550731938909673 11.298926184180644 0.7248050421199924 
12.697082573008936 7.310250535399412 23.014065131413588 3.9553768784478938 22.82500525680784 0.6927872111079892 
11.482605523845171 5.984718055984114 10.460942495989194 3.9555775304018694 21.012498463223423 0.73301130404645 
11.048586525493425 12.773213639080568 19.98321422808337 3.9557487074244055 4.346526069404334 0.7817677269361732 
9.345956075999238 5.294852567699568 27.7825323645933 3.9563112592102607 18.739643067104318 0.72105223554388 
5.354097748404088 8.556333855378071 19.81150136321284 3.957174127352085 13.129097817378735 0.6769735079521421 
9.164221180743654 5.293702546821519 29.20270674281049 3.957227254512877 18.562208568878425 0.6167289065591475 
12.351649583489095 6.79230083302928 11.332481729543513 3.9573368992400226 22.21294841112892 0.6232533913482943 
8.400310890487923 13.11522892295677 17.403287511624313 3.9575202096369604 7.0728146072479845 0.7192204233419559 
12.205337121022684 6.617203934567243 15.389645432657602 3.9579834033321606 21.988347641681585 0.5682050472033885 
11.105953984709657 12.746033994812095 21.459202836214914 3.958133257767035 4.2856908100279725 0.8164438907774374 
5.303089261943246 8.951704812563662 3.7874058434647893 3.9581667970204837 12.733526000206822 0.7081378847019161 
13.165905646046138 9.828798178984336 39.17692214975271 3.958449742100008 0.5808807112058574 0.6942676202121586 
8.568571257425884 13.149713968798597 0.10968164297241145 3.958802112969152 6.90331121291409 0.6909308700922403 
11.200866865250596 12.694976224193834 22.64901637887032 3.959007793777819 4.178851495926782 0.7509513424320428 
12.048228750052278 6.448761939952298 39.473571104387936 3.959421524248074 21.765928849218447 0.622212516706907 
10.447996141791393 5.475968900133022 28.529510148940282 3.9596092608375155 19.876289067472285 0.7723879994646439 
6.60281638779291 12.194661777396483 1.683526125440281 3.9596229694249407 9.119193932481473 0.7403423685669042 
6.428117463558483 12.028564884404283 37.36237378634045 3.9602328045606354 9.36170922488515 0.8261011127603958 
11.965151835845724 6.36641726754447 20.951128630856147 3.9606942404851324 21.655937290902457 0.6129788451175441 
5.306591845591814 9.619955907089121 34.942933698996924 3.960724080953268 12.07248568604166 0.718040932193722 
13.192905743978084 9.625927747227497 4.614864382159361 3.9607862069330277 0.37649446329102787 0.6963496243583548 
5.508630241690199 7.949596160673419 27.331691814050217 3.9609213339487637 13.768577773891778 0.7580201269857846 
8.811051610667418 13.186559609059584 24.287279520128926 3.960956607207028 6.661707919983524 0.7587795277498322 
13.042943762573085 8.108515157875196 32.11862695418457 3.960985992255308 23.729702892050874 0.7121680311945574 
5.5125650729364875 7.937627688119447 10.191729642749273 3.961153988299995 13.781983431333252 0.7509838610519619 
10.782260100361691 12.902922438566092 15.948437856229951 3.961270422142378 4.649050864146197 0.7706994082986242 
11.60082366524142 12.438415772273375 28.182987336974875 3.961359241717515 3.70574037373585 0.6972352645614565 
7.720036357909175 5.595837360688588 15.179816511383565 3.9615266426794564 17.09745199190519 0.8686582689451015 
6.851209657062002 6.096957344507924 11.6704975229973 3.9618017487912125 16.09292019040599 0.8285282325614262 
9.830638327712157 5.330818512390291 0.6268632046731142 3.961959666684029 19.253032230473906 0.7920066362161965 
6.0675022092764195 6.8896796470074 28.293997973028183 3.9622473871165083 14.976235376192257 0.6966083452036512 
7.1278125343780765 5.90367596549051 6.202602733008511 3.9625199284266923 16.433410957857063 0.7301628338210812 
9.637062719044783 13.19361001730302 35.11935938315595 3.9625594654272462 5.836692957426152 0.7189509823200773 
6.898724057647295 12.44009573516818 29.903797359502292 3.9629798582158884 8.742179067460711 0.7147506547891005 
6.137680193213045 11.703582118824658 11.937119267761808 3.9631552825412313 9.804841654005049 0.5266806074882631 
6.0400653185604405 6.924802474306864 6.698238796272932 3.963612517968674 14.936839206853215 0.7523902763025055 
6.566554632515407 12.167232597268379 24.31107717638306 3.963726159416126 9.173949239725033 0.7682352360187517 
11.100588984007056 5.7447924514052 18.826911102974393 3.9637305088078625 20.6040619224724 0.7459210299142218 
7.241283751536873 12.667497577036661 16.82248785817511 3.9641178912705435 8.333279919857372 0.7664637403433017 
12.51440862729357 11.49914408629958 32.97211554931654 3.9642165438942722 2.3916049060418842 0.622145228916551 
10.590878284475039 12.980969520746847 33.156558268821755 3.9646044113528762 4.859731381007975 0.7790992866467876 
5.41368263551098 10.251440123100394 5.76244106016626 3.9648724117221366 11.443608167373686 0.7887730759468381 
9.489271437648991 5.292334597213724 4.81544778638073 3.964891708645528 18.923528903192175 0.8349436617545821 
7.5566854897774824 12.835590262419725 2.335973564065327 3.9653211169449194 7.978237858833566 0.8063701331843792 
7.258876224125601 5.820765407045073 2.131423747357502 3.965378138888027 16.600390621125808 0.657941304939983 
6.443067257506199 6.448504218523297 21.357349346835065 3.965759704585684 15.569657429679602 0.7461848239647507 
5.684988951878852 10.987279043926218 18.2236836711211 3.9657839388563585 10.660603942050962 0.6826739878648651 
8.548505320473428 13.153354615849945 37.24931951891265 3.96588855648784 6.934808314478403 0.7347856968256654 
11.648795795341554 6.091586891822335 6.308954197048422 3.9660805122509575 21.265880226084004 0.7567853763147412 
9.90735102223166 5.338746143240886 37.82185809927312 3.9661085585800673 19.350244732072436 0.7582408308483193 
10.700868737971474 5.5587467605881 6.986792162605937 3.96615312012683 20.175403437352077 0.6703837572921219 
5.293224197259722 8.975827569001126 6.6625302292785165 3.9662633895230406 12.734775180496502 0.6975555232863068 
7.719072124831735 12.90896280748991 26.32889571042562 3.966326888389514 7.802033147623245 0.8603834899996288 
7.24988376370662 5.824775940289907 3.5262495694916396 3.9664372953446887 16.595034170313102 0.6512427379941436 
5.287136995159088 9.420133577065132 32.02008082782621 3.9665134096813213 12.290983600301903 0.8660110755057409 
6.545296293550916 6.348599302775977 18.5170943651504 3.966553686203104 15.715734194268531 0.7839972967932245 
5.541576194029835 10.657771184094347 35.55698938896828 3.966639236362774 11.022428117886342 0.6956478015960412 
12.432007668248698 6.881646053787168 31.350017749381536 3.9666450831068087 22.385147072219645 0.4483258388361998 
7.616983968064133 12.86492027240411 20.961226282304537 3.9666597958985323 7.913879154045809 0.8277965237433659 
11.192773968702994 5.791546876078209 16.066039750240826 3.966770563548437 20.72322606902794 0.7879756483637451 
12.328287810961633 11.752007557274833 23.42690017022332 3.966849841344557 2.7073448195423566 0.5642073580299901 
7.386140312510534 12.751950390181047 0.7815652134218283 3.9670681201534124 8.171755543078373 0.7721801169317855 
8.066264785271901 5.4632432361914045 28.483384330938605 3.9674621418278897 17.494183914612027 0.7921314413224219 
6.364912730825859 6.526023971739978 2.5986145866633734 3.9678424809064654 15.467742476893005 0.8208575606110495 
7.160289357913943 12.623034203011516 35.398100687483144 3.967902506656793 8.433600793817114 0.7466924931218747 
13.157464837934516 8.556390991034666 39.710475304327 3.968548212761497 24.237934110710263 0.7340478581393709 
11.303749437294258 12.645813805005467 26.812218976007173 3.9685561794501774 4.075164468606804 0.7752358965645884 
9.270053030460002 13.218516420690491 32.56478958460291 3.9685670846441146 6.213757483403278 0.7121338993669234 
5.4697239691785065 10.459105092628281 30.05932946377426 3.96893209745684 11.240133451923281 0.7629349553456496 
12.927192185673022 7.756332828530603 34.85496129714154 3.968977700806614 23.40644068848474 0.6981550906868115 
10.373492515927907 5.443299822607415 31.155235980450833 3.9690303190964378 19.842678949525446 0.7316113762467742 
13.218812782547994 9.314568576871405 30.119910886079943 3.969337980575044 0.06457142479249 0.7039042596619409 
11.722536657128243 12.355387502435196 15.025618915902704 3.9694922926142175 3.566078388783005 0.660945936580996 
5.2997228861387065 9.641077355403311 17.589799339739464 3.969588237362355 12.0791164854712 0.7123271701327105 
12.20546769917942 11.900216735259 24.762363189574756 3.969689920477394 2.9018356485702803 0.7051845731548088 
5.711939513995592 7.448142865713631 39.14309491772521 3.9704610733521153 14.343827654467958 0.6579817014388947 
5.279960191149799 9.316721197046117 30.836331530062907 3.9706004334345475 12.407284814586124 0.733436862202722 
6.493543411329123 6.391932252179121 38.48558598037202 3.970718345131148 15.664828339366313 0.8097289541194425 
6.221888868293796 6.681127620585983 24.08023875718726 3.970964911413755 15.268848880031808 0.7571284252271723 
12.401202808257583 6.833348837223099 34.0480304447981 3.9711814339465055 22.353609119657154 0.4781231153880739 
13.220384680372195 9.33107569175327 27.115683462937994 3.9712123813676192 0.08108132496378317 0.757929700160717 
7.95859543911074 5.494383096477232 13.685212868611593 3.9714460925350012 17.399679668672057 0.8376746346135601 
5.465985564393584 8.043628019235499 11.604145588593603 3.9716619449358217 13.703081440989159 0.7861433853624521 
5.281189546102638 9.4046934671798 13.51977954380262 3.971824075629869 12.323120733733035 0.8035702313145168 
13.199961382973662 8.831873535705704 36.94420312179573 3.972030295343487 24.538099820801463 0.87810798322884 
9.415912909428679 5.28113427506926 7.699856667758084 3.9723320903526056 18.885135155330953 0.7576088682471142 
11.606312768101684 12.448117774377472 32.22866933063632 3.972425853292687 3.7174323563610514 0.6796568136060511 
12.895882480826872 10.827334778787819 1.1995152042546238 3.972460706964125 1.6220326912990402 0.6622114448292935 
12.931219127299928 7.7559224178010595 36.14054866836528 3.972863209931625 23.430490128294654 0.689477955846238 
7.883908430033223 5.51935098829826 11.113303098532285 3.9729017387855765 17.327304987154992 0.8582810633451994 
10.73567586682725 5.56528549213942 5.824473427084968 3.9729527791947308 20.244779577880717 0.5991911458303268 
5.3554583085441205 10.037204875929525 21.58786320548746 3.973304229879115 11.690055335986852 0.7280583924715115 
10.75532880378851 12.927136265572656 34.41831365638694 3.97332932477349 4.6974050341186135 0.7370206797418125 
5.80929766000499 11.23737394900668 5.167923013269565 3.973422681472178 10.401631098100296 0.7242093976951158 
11.899374890549554 6.28855016244167 0.9880722756353038 3.9735843329478606 21.625136964660218 0.6435557321300734 
8.590096528397039 5.3313803004199745 22.82341224514777 3.973795785111546 18.063096682187354 0.7736233685929665 
12.329238898255001 11.761990421171609 6.135946886555004 3.9738907972646387 2.7192970772204745 0.6161476305623975 
10.656465262780896 5.533208613901479 26.894497038537374 3.974000848412777 20.164654651380598 0.632566962032954 
7.578660450390037 5.644491429488525 39.17527366802977 3.9740493129957675 17.00226578523159 0.854808758655406 
7.204347136501029 12.657432240602674 36.72073388037011 3.974328888282914 8.391689485134748 0.7603670062682665 
11.403956256798935 5.909606066175423 14.657310961875737 3.9746395043243 21.00642618302885 0.7585603918622282 
10.039970358823695 13.14608739456335 3.300734202325742 3.9753679268585302 5.449229281024458 0.8160821455924447 
6.612003839329045 6.275647434654019 34.55431251767534 3.975650503589939 15.850325011418427 0.7103287596990491 
8.423956758680504 5.361005811355666 1.4068783814868375 3.975754423482296 17.903196417392156 0.6837791983009284 
9.222402483060861 13.225793291539231 6.941159252136657 3.975889072897982 6.2729096900065215 0.6559611804709481 
10.563270229066317 13.002743090383095 8.98702662111787 3.975897307145887 4.906919571927588 0.7154355009340395 
5.742675496293323 7.377183293442286 21.806544122356172 3.976024093320231 14.441109896548728 0.6653435272811469 
6.933949492555767 12.481895477355046 9.884309554929118 3.9760832900708567 8.717927375779496 0.7034470322047687 
10.281481398962013 13.090094636818105 24.906354904613416 3.976214367476153 5.202407540073523 0.7364976110453262 
6.920077437530042 12.472225141245847 11.389515578896962 3.976339272243176 8.735397295367164 0.7487346734982687 
13.203392047139147 9.67981516501492 24.626904887829944 3.9766882898285885 0.4306564513802371 0.6487615372678828 
9.220965771531175 5.273128532894198 10.377880994097417 3.976977451822306 18.71203023281773 0.7616119815703105 
8.7044127608806 5.31049530866391 18.772783230070615 3.977104807337746 18.194351747166767 0.7674600542085133 
13.222221489087028 9.048306632625186 35.517356457702526 3.9773387802408435 24.788576673410546 0.9555745351179808 
10.48151635872488 5.468083995189037 9.739174703265313 3.9773761714542837 19.995038558568243 0.6825036235315035 
9.234955833228662 13.227435375536004 8.383749964908858 3.977463826802085 6.262829771742624 0.6451120975761916 
5.317797687010666 8.651126183925086 23.83511035946438 3.977545081813503 13.096986310104196 0.6895112413802177 
9.618860056704149 13.210487924011804 16.80846511961709 3.9776277273866536 5.8786522396002 0.690117107639514 
13.222308414115686 9.035606107258873 34.19123044238439 3.978089852944373 24.780577900503744 0.9368980969829847 
5.817772684348851 7.238765801263 25.304924778046107 3.9780959451062956 14.606149591803412 0.5765740822042714 
8.55121881819331 13.166677649307301 20.14662493625808 3.9785247201230924 6.951876768479412 0.7131085136272481 
8.868242170097286 5.289589421328532 35.74706438738096 3.9787675217766734 18.367154200906626 0.7015495412673463 
6.1384565675696035 11.729817274080194 31.94995250815495 3.978843581334568 9.822570912102968 0.5851977372960941 
12.38162784492181 11.705195826075244 7.459944766042547 3.97933153977737 2.6458907182527263 0.5930703749075362 
7.072913798194627 12.581035936525957 32.6852269153208 3.9793849701327866 8.554410441671351 0.7209860415663673 
5.867913690181718 11.347036417047795 23.6118105935139 3.9794559353616292 10.293127035247934 0.6917605374573152 
8.970086703753047 5.280315869990432 13.134312892834977 3.979540619903968 18.47299874322233 0.7163377327071194 
6.146211078223445 11.740636528938449 34.632447505693435 3.979544696347236 9.811007829418884 0.621393178570111 
12.380524019075423 11.707076469114227 28.895033780713263 3.979623777329078 2.6482460916797876 0.5869901927755956 
12.844797879489747 10.957299018018581 21.002873646385673 3.9796283408518467 1.7645518363111456 0.6788557138836818 
12.749767036714555 7.354064302635729 1.7203966062677623 3.98031926857808 23.032961531118307 0.5968072383476474 
13.19021514417331 8.68555530558816 19.670045275860318 3.9804388194547626 24.44348099209725 0.5838718995341599 
6.587039739953282 6.291439242893823 35.752976954030935 3.9805073922901797 15.84053327180959 0.6922515349697727 
12.977362899577805 10.64710858409481 5.306122465169565 3.980596259469236 1.4275102302554075 0.4990469785283616 
11.477966366539043 5.951309760328613 31.93631266227022 3.9806018926454416 21.122744863919994 0.760978355846269 
6.1830803592821635 11.787644629510527 13.307840323583655 3.9806577783457455 9.754011442794493 0.5883879669248345 
11.345546777465167 5.865194894415797 11.9624679218621 3.9809825293931564 20.96678926213802 0.7157039210553247 
5.7954415051388235 11.228539863404826 2.310329415182437 3.981029312313527 10.43612385878171 0.7595556280937389 
13.231005930229518 9.271283435571451 10.282710535366746 3.9810628230602334 0.021283536958264904 0.6757897464968082 
10.861707691566616 5.609719057584648 1.593441287608556 3.9811112798774397 20.419881502676432 0.7163200635076048 
7.547204399388283 5.651270340042693 37.90523449831379 3.981252067242049 17.00169128979569 0.8339761218686017 
13.024304907311153 7.983028777989006 29.38579710447742 3.9812803984091705 23.725728893058488 0.670559193053003 
9.23493090508199 5.268444985875316 33.290830415437924 3.981583530220491 18.747701221399154 0.7293483670524901 
6.408277763617225 6.4601593204954035 1.4310299761309082 3.982285309438665 15.601711521188705 0.6952125273875588 
10.984866654288187 12.834862134993095 1.4134588648534638 3.9825869526060984 4.460804648815611 0.7293569197158007 
8.501551891755298 5.338138563843289 24.06531249882653 3.9828174030986054 18.015660151310794 0.6992574919513164 
5.282461933396993 8.90121544704543 5.223662636458393 3.9828393106330133 12.861690611858968 0.768307195230909 
8.733277056561485 13.199317722337199 2.9060263425471717 3.982977915108553 6.774630571176299 0.7387016603292493 
7.359388559873313 12.755902104437798 39.51664326208059 3.9831848040781748 8.226712981059485 0.7129225830215794 
7.142489968865563 5.869639646575138 7.422946355315297 3.9835203840747364 16.551128274827004 0.6943204974163294 
10.167691314634887 5.373360318539476 33.84279283163788 3.9837786796997983 19.699122336369566 0.7580778934571629 
9.089042958466209 5.2692068214815855 34.415373687606575 3.984045870639299 18.61337299895121 0.6499824853298728 
