351

5.927332118173084 8.410949122490873 28.237246741835882 1.759901471852568 4.2611032011203935 0.5745349588494582 
5.91277725007647 6.058082246188356 3.1786537157475223 1.7913214716416601 6.931700400149609 0.7507982976488984 
5.522859219036537 8.020936698877286 15.75108591181106 1.8913906711578365 5.147920889610642 0.7041691740235142 
6.356838702806371 8.921748638378087 33.56879257486049 1.895384027769463 3.9072978152115017 0.6771440886996185 
8.7512218485634 6.0677356893802035 27.044226372425648 1.9108678496351919 10.731608695280874 0.7552026724875812 
8.624541513740294 5.919130204581265 28.104348387200517 1.9132639089663934 10.549599630477953 0.6882023120054335 
5.367079022314558 7.589797127265175 31.767406463583264 1.9133356986962775 5.669312229042276 0.775947197206474 
7.256630234426725 9.16863001641377 38.173223546502356 1.918641472472765 3.00716472977361 0.806309323399404 
5.420541176731227 6.6643669802412475 5.7383805518511295 1.920907499039899 6.629815982203295 0.7601923512267948 
8.835720881592188 8.350427763083555 39.885288329427695 1.9301429936879242 1.1709427551034093 0.713772316065655 
7.79224875246857 9.10246630683359 4.777271438267803 1.930198209383534 2.482301139110106 0.8407378938272982 
8.888699265392948 8.274531080519912 39.8784449254546 1.932614606524202 1.079848941067631 0.697660027269657 
8.745350406956625 6.020122284624653 15.110950301886142 1.936148763489578 10.832546665634682 0.8313309855990201 
8.107349093670503 5.513698688137428 32.84092724840968 1.9364373767290601 10.013409463930698 0.8360308467592239 
7.148380109024533 5.313412458460242 38.94498713775316 1.9392518939758367 9.036842800023551 0.8652474984706828 
5.491465019411807 8.070560984986743 22.95367212741977 1.9405580661332273 5.249222961193778 0.7769364787166196 
8.601293263617094 5.855984480086953 28.02225152524862 1.9414614995037571 10.643531655838341 0.8011430387040407 
5.412064163089317 7.877426650969388 20.061233506009224 1.9420793863658703 5.462334251059717 0.763587423354826 
6.285504512215269 8.937056587205022 22.827158730471538 1.9432991211825719 4.061785437756095 0.715694253951666 
6.600375971268564 5.415067659368111 7.794680799851854 1.9465323201534785 8.510486633222468 0.822896361086619 
6.050451824193733 5.712673071627773 8.618732850910781 1.9499461302247647 7.896867511328745 0.8580538118606335 
9.072859084559841 7.9454649604297884 20.02509433010558 1.9510219766440222 0.7111051018593368 0.7464866974489232 
7.201499048848902 9.200437016424637 12.772569267538792 1.9510399527692932 3.113192339145437 0.8336933133275278 
7.6292850567372845 5.335773452748832 16.714073862135955 1.9514406033659697 9.577661788719142 0.8956631518027722 
8.824800718742482 6.096300749665009 20.761815129601466 1.9521832045111343 11.031618262510852 0.8244505964523224 
8.563870908316083 5.804062446064885 28.05036751221555 1.9537124081090325 10.647674142639204 0.8480111006641814 
9.200440742898941 7.370210377405487 6.282883872025735 1.9541416597565682 0.12028632309595721 0.8141517363369003 
8.403784066775607 5.672710172615881 14.213660760503249 1.9542417640391057 10.443356897480706 0.762522152978853 
6.765035141961109 5.355642727765842 24.862189279938434 1.9554488969029908 8.72475662351305 0.8325583823300072 
9.131868743840872 7.785371813262797 9.910395949074278 1.9565410671594698 0.5422884268272945 0.7686328047955399 
5.723523038961137 6.02575700908184 35.44470826872025 1.956758240916513 7.470032783309319 0.8057899061145147 
9.122242081581126 7.81893385832992 2.702974226663475 1.9567769794223875 0.5772709612245581 0.7853633680225888 
6.95491933775066 9.185143250694702 25.49152288297448 1.9575116852634056 3.371061949446611 0.8308169486336501 
8.841961523592932 6.110434904208288 23.54126932352534 1.9577921493731407 11.084857872177361 0.8440947608042383 
8.37545559682375 5.647356070121166 24.51240632329027 1.9583456963466321 10.427452449212568 0.7853708489999296 
6.807218520819296 5.342091262812783 1.5488522320483895 1.9586146092942271 8.783111406404847 0.8412491086355224 
8.249009680608477 5.563543876583182 26.29282016505833 1.9601414740164895 10.285216916401728 0.8650365172805186 
6.962972900048298 9.189567053668954 11.019674145970669 1.9606899070951396 3.367906797262936 0.8356159386592235 
5.362508690494531 7.780936586432373 37.20764738162178 1.960744017527819 5.62221013088087 0.8815703524358544 
5.290651229004624 7.331071236445203 15.034339511730344 1.9610252807600028 6.07964826818783 0.8828053100125458 
5.778381302782879 8.546646449919598 38.014315274961106 1.9613652403588977 4.745164235418892 0.7458390394753687 
6.078801089044031 8.824481363504841 27.335645364983478 1.9623196612806233 4.337429684450489 0.8114944849714905 
7.999720030673311 5.436400799782385 1.7408065350253104 1.9624531034964265 10.017112535522525 0.8384933171137204 
5.290842245118313 7.3676331709277445 20.964520036879733 1.9626860858057689 6.048256476895585 0.9036112634013217 
6.660898567393335 9.122432850955672 19.24594845969542 1.9629175426484993 3.681667316364736 0.835896096987491 
8.004720188726825 5.436597193537537 27.287972984259767 1.9641874405865127 10.030661181101127 0.8517551426927147 
8.6006800135484 8.676883626092447 24.613099317566487 1.9647731119418947 1.59702004177303 0.9085968218311479 
5.767440549709162 5.960498940237024 7.5933903105746055 1.964890711153297 7.579484819815917 0.8703365535417228 
5.815300236865658 5.90691792004144 10.367265754339734 1.965256442259775 7.652748778146183 0.8701489544991428 
8.421312940879233 8.828441679146293 5.539165826897303 1.965566620579753 1.8326752260413404 0.841800470260459 
8.432937939744129 8.819783825862599 5.549382333062724 1.9655949300977296 1.8182067190511635 0.884603770662974 
8.912176914559907 6.200828334151611 22.1032801315541 1.9656025233284022 11.243516851290511 0.9445113944587629 
7.637707635402165 9.177099094915116 11.79730754058496 1.965713135778412 2.6974685392148334 0.9032324974081818 
5.30542579118638 6.9612700930336135 32.63243233836063 1.965892624931467 6.4658119593528784 0.9145110094892029 
8.758103641019831 5.9887790524473985 15.097335006329232 1.9659742802495577 10.98331078157989 0.835458683513885 
9.216459586959472 7.233762475122942 29.641944607860225 1.9665266243707327 12.33981348303576 0.8648615422197136 
5.321683804105582 6.863808207731298 36.21140035085038 1.9666081083338465 6.566999583133562 0.8322844069837165 
9.132741279286531 6.6814766044621425 30.554688499619004 1.9667062759861673 11.78042514167834 0.755643214223111 
7.369745498120134 5.286164970156712 31.890993550624316 1.9674824036721723 9.391361947049093 0.8817914177238394 
8.304672292906913 5.589071108181205 22.775300900183623 1.967490388567106 10.384688693597282 0.8423596970709554 
9.098328482831938 7.9248294536572725 2.7040239114773783 1.9676668854181585 0.6888120002672622 0.7778905384158954 
5.295825577177997 7.484325634070496 21.007113209181178 1.968173309847039 5.948316034595869 0.9022670389955307 
9.128066202505806 6.659694595084506 30.566435966525304 1.9686526184339985 11.76987961013587 0.7868147559305271 
5.300682612509611 7.528004306850232 31.779659346296825 1.9690415617247974 5.90699019280383 0.8968573180847865 
9.061179599386294 6.477100100209682 8.789409353556557 1.9691992779627396 11.578582854017185 0.9663540059671099 
9.195111381444674 6.939311570191284 15.285765148776193 1.9697679017190348 12.06442543815076 0.7985549423074323 
9.163782151478378 7.716721125320875 35.46827831720576 1.9698707399568136 0.4712018862983971 0.8167666938537728 
7.465520286597501 9.208244906795747 34.65252607142362 1.9700690619687808 2.878624744668878 0.956589648530315 
8.044397684538202 5.446621879064992 34.39053611444636 1.970593902423007 10.103863847142183 0.8289598803594682 
9.073377060972822 6.501310402536147 31.561058784665178 1.9711012200880182 11.616821792473017 0.8730951301118974 
5.661307415160135 6.083045468083739 38.95001283181841 1.9712247483950365 7.44161824848916 0.827810153724577 
5.655646209638606 8.409619225138965 14.813054733837333 1.9714666510371492 4.953822102881457 0.7978234640815579 
8.871952011382911 6.129197019763923 13.451126816676798 1.9715292662639192 11.195350503695334 0.8563812834125359 
7.277322932448028 5.278404918056635 26.171720580697105 1.9717843973875095 9.31913887287033 0.8673255461988124 
5.6809300425381775 8.444206892964921 20.913428296269515 1.971829261019871 4.9118863491317875 0.8212934918273841 
6.094468465375295 5.652011015859374 11.302592510877354 1.9720096148211144 8.058255907230993 0.8839683848575896 
6.169390269422536 5.599792848875602 4.058677634964987 1.972536699643584 8.151752261734126 0.865137209182702 
8.868358780249816 6.122198925724845 13.446314725898539 1.972566958241939 11.193443054693434 0.851978064647351 
5.966434074683164 8.748163050224576 25.52333947360946 1.9728238668701927 4.496463620085473 0.9095443217133193 
7.935069225854468 9.100078796637975 23.864733992191752 1.9728434803557646 2.3992926671913093 0.89775997573487 
7.244940723372821 5.277160791416062 7.036823787347124 1.9728456957415836 9.291757034439478 0.8649474955030959 
7.912490713157483 9.1085487261878 37.41399049194574 1.9730933360168776 2.4237118253636236 0.8626086399575239 
9.102175300436604 6.56969475191419 14.335200736691917 1.9731620749752203 11.703182892366199 0.8631889786734828 
5.305793719154021 6.912938952652892 36.240999402353935 1.973207594785627 6.537736624525392 0.8999517061028084 
6.458343574725246 5.442464285381499 12.260090986901488 1.9732980654985242 8.48435184909771 0.8411022401145284 
8.699339222446152 5.910680585315877 33.58140938841069 1.9734134580139666 10.927223055314439 0.8466541404081691 
6.971222881533981 9.203657852155454 11.020388855902127 1.9734476646389356 3.379597077957481 0.8458294901241518 
5.808837766495081 8.598825669521291 30.036877995551308 1.9738995085972406 4.716194869005211 0.8210665993775049 
7.387053627708269 9.219181211237553 34.58341586043028 1.9739448674061237 2.9635013637719023 0.9516025523923094 
5.277023570500619 7.313410479822187 22.272916484859472 1.973995157114477 6.138067293571149 0.9119451396129775 
5.275943359505581 7.253884372033982 22.21494776720928 1.9740604621505926 6.197809471093759 0.8670842307971675 
5.40371664651771 6.551284940046669 2.4646885321810146 1.9740731892083923 6.91592733136711 0.882529422490801 
6.7345619855551835 5.344364610693187 22.211980465052726 1.974113113201304 8.781307113642715 0.8354924462789285 
8.292010318640303 5.573034011136452 21.549916107743876 1.9743354405870257 10.401531779720418 0.7999573082491276 
6.3304124429871536 8.997340047299604 30.8591596111834 1.9745476737495697 4.058179393071308 0.8258807568393334 
7.0841322442277885 9.217944465827008 15.536349599142234 1.9749221587151387 3.268263850006825 0.8610197210992084 
5.735062947141612 8.517373254201924 31.543262850539307 1.9751630918963685 4.829152419800254 0.8162388573297252 
5.33313981604188 7.731546434592021 14.020419554854648 1.9764209909612478 5.7226669138016515 0.917189772133622 
6.440852015497381 9.05320912371355 14.635677795882138 1.9764320389703376 3.9382203517241834 0.8015420521860839 
5.770740535837753 8.560761198833603 16.58028409912476 1.976437067725984 4.776088678067557 0.845788644470728 
8.265409934453467 8.945793620027192 8.296794471883885 1.976555928050537 2.038369208922793 0.9429973614637552 
8.243803091400228 8.958805360147123 3.864565026701399 1.9767802971863593 2.0638234325855027 0.9118691901864977 
9.129087394499646 6.635345823323746 17.142494823820165 1.9770607459238652 11.797226154969861 0.8555416028982991 
9.125780895911188 7.875130341235684 19.9932034610963 1.977205581875293 0.6360437037082871 0.7890207267190616 
8.851480816662631 8.409891307719041 36.212231786455725 1.9773944097879432 1.2394785228168654 0.8245832062537363 
5.41583041720882 7.989079538230591 24.473864413301214 1.9774773379908848 5.454960892508515 0.8162423692030377 
8.454952110871618 8.818208124246453 9.98248792097938 1.9776719420688946 1.8108483995114675 0.878274096813376 
8.943745320119044 8.271005224290182 23.731881092336266 1.9776816926525373 1.072857733899541 0.7780711742725159 
9.210616002780592 6.9892171457567684 27.052236677816836 1.9778834160350776 12.165863604908553 0.8934777897980105 
5.915823889079022 5.789419334877211 13.035330237221068 1.97821176173906 7.857831379923827 0.9025627381547898 
8.683685484890395 5.886947404899651 12.43141541089598 1.9782230527913682 10.925799570122297 0.8295955097758722 
5.680372087083175 6.045824397832575 4.890642365954484 1.978325217415709 7.509710601409465 0.854739137699797 
7.625215207120457 9.192481291241009 3.1088355748474683 1.978388237549898 2.7301431589096783 0.934969965593143 
7.740945311822385 9.166745803700067 19.13809879153326 1.9786211803177969 2.6118830766609804 0.9153960085805604 
9.146136424178163 6.684131413895036 30.54842792298225 1.9787724972405485 11.859114579329074 0.9304073968102353 
9.228695576526615 7.230480713888959 16.342056763544228 1.9787918503714022 12.41359627754686 0.8156606235165783 
9.105338261312799 7.938562456077165 2.726636302807968 1.9789892166988263 0.7032716373326071 0.7928624280640819 
5.2962413446713725 6.934370035104756 1.50909072730758 1.9790894770098941 6.53447646576571 0.8973403814273996 
9.197934422219015 6.899380272784846 38.12814935073384 1.9792379105044824 12.083438598590524 0.862567731161984 
5.4223634790057424 8.009789084782057 17.341896039959714 1.9792763087113314 5.438272553823861 0.8621198287136382 
6.729566138864662 9.160029666939227 29.947292913719615 1.979662782497113 3.636270009121816 0.8835617370060608 
5.402942464372291 7.962644151739498 30.772520643111086 1.979768478112431 5.49061864983619 0.8465486608464903 
6.115470103021606 8.873113938409205 15.661992422763177 1.9803173847128763 4.318754900364549 0.8937555928958284 
5.457512995043137 8.091845502036268 22.891304848901562 1.9803316672310014 5.351879322010408 0.8046595664359434 
8.883677998554601 6.130383968405216 29.721234261178957 1.9805160593051048 11.25402476863291 0.9363182113902987 
5.753546345674948 8.547450466094169 36.350311873055624 1.9805936613830657 4.807499029877597 0.7977888176085725 
8.307161913702336 5.574892704733566 15.917623734586513 1.9808017978681292 10.449449539365583 0.805430478932647 
9.151571712446511 7.805857372236018 33.92528278407407 1.9811492613747947 0.5634214877724517 0.8690201936610492 
5.2687806106875605 7.253761666681314 23.5932727584118 1.9812229603766902 6.22043382850144 0.9267230781503746 
6.436165233326266 9.056534420640544 14.6349809482282 1.9813867972725423 3.951007800332725 0.7258855753523578 
8.06179149818205 5.442531208252246 39.96082800899129 1.9814007342440199 10.17354284277406 0.9096551011382671 
7.221540926133011 5.268721681918924 18.56915983401013 1.9814827005511673 9.309057190510797 0.8808479867017394 
6.209866970305084 8.937158302291996 12.906869462031814 1.982014090882086 4.2083310247641545 0.8919856166732423 
8.788235626567015 8.50018707027065 1.9244808806482254 1.9822049726281914 1.3527789142109352 0.8478924900686735 
6.310619859449673 5.504493285899439 9.565392783194 1.982228225364197 8.36237328133623 0.897778215919029 
5.36049318336455 7.849829625540389 37.127701138076944 1.9824307276138942 5.6186087748503155 0.8826384884695604 
9.209489738774103 7.552704645083459 14.490598514519291 1.9827329972833219 0.3038930721967503 0.8911735583746934 
5.3646050082469525 6.6363870921668635 4.132197571750567 1.982734242299484 6.85279912354598 0.9364950341876327 
8.80500873942541 8.480305437198028 38.161030374846234 1.9828524020936171 1.3272125297341582 0.8633845853745031 
7.96015704233319 9.10161314532986 10.835293000548432 1.983127394983431 2.388805166287595 0.842765738648114 
7.355699699864935 9.230387369258535 1.30473406633552 1.9832061312103353 3.0094631002830354 0.887255052343189 
9.125322701896321 6.604265752647372 28.858282196214596 1.9833829570841288 11.80423958410471 0.8793517468157382 
9.233583124863681 7.252258836009206 3.5242384153738655 1.9835844110055125 0.002258836497412986 0.8654375921938894 
5.500373679876233 8.1845772671223 3.2383931863240214 1.9835894051672145 5.258482303592597 0.8433395133130221 
7.116919502063466 5.270575193699051 11.517929201633216 1.9838933899609101 9.21569684283432 0.9286933269799861 
9.062869363988295 6.443513921308028 11.596008287634596 1.9841661034326934 11.636356459830868 0.8777340482064441 
7.941867421377946 5.389651248027759 6.319077953835013 1.9848370229640635 10.060029014632192 0.9254406810159308 
8.347308000045977 8.90418442121126 19.9318975915175 1.98504683731718 1.955452554701484 0.9601011460863329 
5.809204620217862 5.884141936345159 10.372201672734924 1.9853109520809353 7.743302899960863 0.9266118470326346 
6.785924511476223 5.3186563183937565 23.77934037281871 1.9863168114701495 8.891892763875038 0.9173781581384421 
6.182948110477398 8.925687008827778 1.0038918003401918 1.986586692416904 4.246975098028948 0.8625643730374732 
5.905125449287256 8.712139598657332 23.724456298773447 1.9865899836444958 4.597849367759647 0.8766464150142135 
6.026872732195928 8.815449769458747 5.564799850157463 1.9866235914093793 4.438210026935726 0.9246647737186606 
5.433454680911051 8.054263812565177 27.432711073568996 1.9866245685850779 5.413133792088125 0.8423250507307274 
5.265665911566348 7.152590608834073 3.274604933286078 1.9867235248033694 6.338924491688893 0.9354794506114809 
9.102442904082665 6.531664241478021 39.91547998155275 1.9868444767665003 11.748727437620307 0.8921084388469877 
7.213372128184812 9.236530055019228 27.35337993986377 1.9868677008015447 3.157594433034115 0.8815365745519951 
5.703508766124685 6.002549309041552 1.6737906261479765 1.986899182854004 7.590680045715452 0.872076896008131 
5.32037136936637 6.776253170783313 12.965254640290453 1.9869329909068105 6.720488497518753 0.9245253187326831 
5.452480776132749 8.096679292917385 13.085304422057256 1.9869426728588342 5.36750960627575 0.8322392659475307 
7.044939154523476 9.22667779141977 18.294530793143544 1.9872858479442967 3.327047805574823 0.842658210795722 
7.236645004759076 9.237253235501989 20.071713441433246 1.9872981099751976 3.1349956671587833 0.8822780313178988 
5.647323685823476 8.425150281924003 20.885716146391637 1.9873473659953145 4.986061633099498 0.8384530790389891 
8.784847853849865 5.987521526390761 17.872490070826544 1.9873625312947427 11.118993147840355 0.7630433623020024 
9.05361154819876 8.084780777037421 1.0179147176355556 1.9874288823772115 0.8615085748150602 0.9246274860291488 
7.238637618020483 5.262573922986466 37.180258103898176 1.9874585568805345 9.354315358538921 0.8752859498388947 
5.443530477098193 8.078898926594059 15.734981868661805 1.98756272043975 5.389084136650833 0.8505397985256972 
9.122853284217712 7.915807885557891 7.183820412135454 1.9876819576270608 0.6789329615708821 0.8773092688032358 
9.074652870012756 6.4616009765864035 26.17912241779736 1.9876949253256375 11.678367127113855 0.8883520904871074 
6.190059403281175 8.931692775912952 29.121150198414945 1.9878542856885841 4.240460710895954 0.8554021281536593 
6.1061952449904595 5.624076961851934 21.38721979433039 1.9879424145490427 8.1492341465486 0.8868201580934028 
6.629687853859883 9.138919200060071 31.876928470652174 1.9881657131649122 3.7538478643260014 0.8184462485908511 
8.780694697186512 5.9810375012508885 35.69815928258231 1.9882887313532958 11.11652913424216 0.7638684359605646 
6.241399577134944 5.536433441965144 2.379595752538016 1.9883624322087246 8.312142574145867 0.9116446531868092 
8.868753183350673 8.40480120022645 9.137188310360713 1.9884485612286757 1.2321534107821623 0.8910268529071866 
5.976823762997352 5.72255368001969 5.864717464253324 1.9884843451457244 7.988801756974134 0.936451775534784 
9.170537056944013 7.766808478662574 39.01709090413066 1.9888573580608295 0.5228087287887533 0.8039839343748364 
5.298549908575051 6.865456507633439 10.154201374159562 1.9889774148652146 6.6355372052266866 0.8905006922065316 
8.80966059710812 8.484414220170786 20.8456129260329 1.9890499353036646 1.3316966917194506 0.8819040097122363 
8.383673086768924 8.884358357871356 1.0682603984529848 1.9890555320573977 1.9181350867151572 0.938902599741075 
7.261274970905756 9.239046578133959 10.048233406943638 1.9890785341346737 3.113162223838962 0.8668147387642706 
7.865718643561092 9.141405159703208 31.536044305604406 1.9891010346839155 2.498471188500771 0.9067691905569794 
6.664946709369339 9.151157180512907 16.451376594126806 1.989142020543922 3.7183719782131224 0.8520627540351648 
8.493619936043395 8.802530852569364 22.986846994034543 1.9892065235928436 1.7811935323260997 0.9219213996445899 
5.269446862601624 7.437551401422937 28.230503999972072 1.9894135463081208 6.062096646104628 0.9477069491735073 
8.109022657967724 5.455597984276457 37.95415074984085 1.9894216548873334 10.263169846136641 0.8570028207270136 
6.689255589807367 5.341190893350994 32.73622228082985 1.9894688987738562 8.806703675152143 0.8848324277345925 
6.4678354245931455 9.079287906701401 17.47747814948235 1.9894913090097628 3.9289452031249326 0.7117805560929286 
5.260605701749343 7.270520045293358 25.204247704084707 1.989500124697424 6.229678566926937 0.9046388026869148 
9.210642792843831 7.587866323836751 37.22928705506206 1.9895411063643338 0.33951173682291547 0.8897720364247956 
6.232771348471779 5.540138316485672 36.20660877849096 1.9895680702706238 8.307867491208885 0.9240061346302355 
5.33841707201036 6.698223616470862 38.14015606958783 1.9896247053155363 6.809696229724242 0.9148635221434618 
8.503556797974227 5.704831353209176 31.803294747785365 1.9897112335142428 10.732437232528943 0.8431932919288726 
6.850399313561237 9.199419065380363 23.693271708422635 1.9899536178189652 3.528148056482518 0.8888379401723978 
6.846069760869483 9.198754975473747 23.709747891152055 1.9901772766559578 3.532919319370812 0.8849980538131621 
7.22989972540277 5.259862403017072 18.567406821486415 1.9902391001997382 9.358680187799678 0.8863188297358027 
5.298402753428071 6.8594812479614085 36.234814832575864 1.990285584663897 6.645735540971923 0.8943815067254435 
8.525479415065684 8.777886058676518 2.8912267299839236 1.990297351290598 1.7418944083553818 0.9197256396573422 
5.259759427288628 7.227457946252363 7.751132396009307 1.9903682276035397 6.275468737459274 0.9555786632914544 
6.2416634442655194 5.533868005389914 38.094451336260455 1.9904400600256378 8.322356603995447 0.9356875096515481 
8.619526594542599 8.694430413363033 18.898356626649125 1.9904728865793517 1.6162849999611204 0.970193642314531 
7.132852050205983 5.262767874281495 21.2565493660666 1.9906820850222742 9.263652649596331 0.9000757070230199 
9.225053709411108 7.000133234737644 34.613791902505355 1.9907964625850778 12.258015598308749 0.9205903829109747 
8.568412821225584 8.741664676628478 11.59345091674161 1.9907977985403646 1.6861539469799034 0.9379179287758419 
5.503636640937421 6.294225462046185 6.679436747344681 1.9908013334527288 7.251207384395737 0.9424815390915174 
5.557479289998916 6.201629233018659 9.40590408248103 1.9909062305502032 7.35871767364511 0.911593174660807 
5.714221745700096 5.982928462967823 17.773376278497224 1.9910010362472295 7.628348854915142 0.904349430675047 
7.050473227971581 5.268884894183264 0.3752866429128403 1.9911373622257547 9.183151548476255 0.9258542198326427 
7.86886847527331 9.142662138548413 9.23281691907755 1.991272999963028 2.4985933183198146 0.9029692392507034 
5.291974589410485 7.613380542838367 18.536203356822345 1.991458994663898 5.890925113182538 0.8808701930724132 
8.089493565055774 9.055934934304812 18.063928398232466 1.9915196290050878 2.2616888800183617 0.9554943493624077 
9.151318373095231 7.843222079584365 17.135739426499352 1.9917138327520587 0.60236285485073 0.7544765574227873 
6.9752575605382585 9.222717935443075 11.030849708657911 1.991757882088121 3.4042672204993902 0.8641284041745394 
8.404431226216463 5.626864345769976 2.6641833565164603 1.9918034059857357 10.61753835060642 0.8921487330374158 
8.408196070016935 5.629511231733899 11.480145978354109 1.9918338245645035 10.6223026152763 0.8962952636441026 
5.27135769278491 7.478968890176727 26.434417372452312 1.991846412896893 6.0280938713466945 0.9073691502006598 
9.240018747237862 7.1633111098015085 22.061688057387517 1.9919060163677376 12.428798336401297 0.8925178401885646 
8.386930417176384 8.885649680660407 30.269553777526014 1.9919740589037152 1.919009079835746 0.9289358747587919 
7.065721433895213 9.233673292209307 32.77851209768657 1.992214426247874 3.3139054713137313 0.8244402422850169 
6.314404543683818 5.491108175578725 39.73358590927484 1.9922447911578252 8.414305866498152 0.859658599445604 
8.220810513819606 5.510251958309601 29.085721112553884 1.9922841921543888 10.402447145185837 0.776805299216122 
5.972010309702563 8.778540789398509 21.829911557977123 1.9924092434441163 4.517102993327764 0.9120459836205298 
7.44308837102745 5.266932713788075 12.48159835331046 1.9924454774648082 9.582570002168353 0.9532886118233597 
8.535017551045232 8.772742607444915 7.2735272104754465 1.9924896875573634 1.7331947872184887 0.9184095286796345 
8.753865330313566 8.557059508922395 4.628322106308687 1.9924897720147983 1.4256216851595234 0.9357422584263646 
6.287391700778386 8.994819588306061 30.841081151418138 1.9927393541220761 4.134814544841779 0.8871078802250632 
9.242674745117728 7.230320326098365 13.511738729422937 1.9927719210674555 12.50127526121528 0.9707950013489229 
5.9726216644369625 8.77953193862213 18.315132062582506 1.9927778008174855 4.516833797810971 0.9135798477657215 
7.554068619720912 5.280547648598567 28.27396696850913 1.99278706588025 9.696048855598526 0.9250907565572254 
6.468074542401121 9.082989243434524 11.924536994894154 1.9928012915963023 3.93380688308347 0.7151586531306063 
9.22773283859447 7.4948800243595155 21.002734267002182 1.99283551935057 0.24550051251599925 0.9113181452677034 
5.749468168290598 8.561478707303923 6.504976557007197 1.9928803721459902 4.829394954233056 0.807664798094052 
5.861405592237109 8.679572187318213 13.828402215472034 1.9929553602688026 4.66681375233493 0.8619545366725805 
6.04698939450966 5.661075207211232 31.970637769942968 1.9929667619057425 8.100104646144116 0.8802528460338542 
7.185400577475981 5.258002269284537 35.43598592541454 1.9930449178495677 9.327392169424842 0.8369422007224945 
5.299584685559944 7.661933362674587 14.06571514796228 1.9934414950247958 5.847658261904339 0.891558609503827 
7.1763523039212025 5.257850232707558 4.182403032384279 1.9935106416723865 9.320533120853622 0.883519632237796 
5.574580775915408 6.169688916555426 28.51192308169299 1.993514889195815 7.4045202704329185 0.8510824891121546 
5.893761090035509 8.711180631093214 13.863618599519867 1.993597957860017 4.623082376070167 0.8512160625342916 
6.553509127813843 5.382022499858218 5.058576451246772 1.993599627827657 8.683117808072495 0.9165153017543455 
5.2821499577473805 7.569617974464727 2.359406896764419 1.993637238414896 5.942192898603247 0.8932236085538814 
6.936323391676771 5.281158523889433 6.027196325029784 1.9936724336415956 9.079974607283013 0.9745971110706361 
5.318944236071101 6.753989921574524 34.561946983738636 1.9937407959167297 6.764796122296193 0.9196230598379382 
5.294337796687591 7.638103672571702 35.34112063254476 1.9938001690561644 5.873110615792605 0.8721115906724712 
7.338456212716338 9.241969335903596 7.249498155135264 1.993932380184524 3.043576405874038 0.8661892372045932 
5.880423612670553 8.69931580266223 23.72653000170331 1.9940551087111036 4.641989862661816 0.8711746103162851 
9.000581409862603 8.204930754837878 8.150005770411184 1.9940982972491041 0.9958062915087336 0.8600531443562093 
5.256946136881158 7.18453084978748 9.20559346098213 1.9941288601598677 6.330221494531845 0.9195397003846574 
7.247132341721127 9.244284918377216 29.027037335003925 1.9942869801337064 3.1354863222360123 0.8040739908101813 
6.323384900611247 5.484028225761477 39.706896998196 1.994309868055209 8.434281199381402 0.8676004065351026 
5.66994464317694 8.466854995267479 19.262832169008007 1.9943196860414996 4.956541672334385 0.8181257397207577 
9.152111162608145 6.650593383084146 36.40100876056116 1.9943207282984878 11.921867701437158 0.9237129330273723 
8.778041439889671 5.968369963980079 37.16475409648642 1.994363605576606 11.139048185186681 0.7683122912024101 
5.2582279883857055 7.352471577133063 29.93408559542076 1.994406219998873 6.163095213278382 0.8400705072917194 
5.6106977711447215 6.11394391688037 12.138109753497382 1.9944761772262418 7.47452536580343 0.8807216202563319 
8.840562145126755 6.046241759939866 7.851224951372814 1.9947234991403922 11.240941265987562 0.86211917097796 
8.628289366483285 5.807979149920659 0.8150101482627576 1.9947695881540888 10.921749798087916 0.7940367021400876 
6.096560000640023 5.622344310060031 11.317400482487123 1.994915255623031 8.170934441636424 0.9089058006279053 
6.3639296797861 9.037386857567629 24.650408565637427 1.9949617517560156 4.051819509145176 0.8515764037660027 
9.244592438136467 7.293377443053451 1.844506532674984 1.9950640583292132 0.043380861425339035 0.8657358689288613 
7.808589652054009 5.334606624271078 25.310502110189034 1.9951827443039019 9.968234208506688 0.9092578128671209 
9.234484082466112 7.456919076878862 8.954718589910051 1.9952424859995759 0.207291785356432 0.9061657574059631 
6.86538087141629 9.207867152600574 13.725933093034179 1.9952883654511613 3.5212334319402228 0.8641649702886649 
5.497957597427797 8.20475451305564 32.60655030111143 1.995296659800514 5.272858959614677 0.8490917312788118 
9.102646314824307 7.990950861573175 5.388360213790392 1.9953211638977129 0.7591324634048071 0.8447156035668307 
6.652527144701251 9.153768732488539 28.224145775920093 1.9953218285830119 3.7410262613147083 0.8150474049405255 
7.250987121709597 9.245324058003467 5.640720848977729 1.995324302176641 3.1332609628737984 0.7883461297408312 
5.441036900110499 6.407983846138729 11.173711722298187 1.9953292209871425 7.137763192451146 0.956697703871527 
6.0043485965073735 5.691079226852297 20.100948380290568 1.9954652079088182 8.058145940085893 0.9187836118370912 
7.002956452619287 5.269856136931256 8.727053793457848 1.9954949843964183 9.155869578837693 0.9169889705178222 
7.722485125207205 9.189117202497698 0.36286867562856884 1.9958501242740083 2.6580605218642326 0.8787755061453718 
8.707753420173932 5.886550337695608 25.435864515765495 1.9960060159395197 11.040311450410595 0.8548296396583092 
8.222142786327925 8.993274454027716 35.37333653445461 1.9960128804882638 2.1199577787014015 0.9340686385300923 
7.595961767944745 5.284180769198844 5.2176655522079045 1.996029757560518 9.753786450675069 0.9631647059010394 
5.7287294009699465 5.957706398020564 33.941833186909676 1.9960678819093909 7.676450973931299 0.9027918685269163 
7.957996166698816 9.116305304762447 6.379674182321004 1.996084683234824 2.4116919033878155 0.8959484528096155 
6.488042870830572 9.094996891593658 35.37621207202007 1.9961443326278738 3.9173270845345165 0.7458770608209524 
6.361869303206596 9.037701268827202 37.12307464552683 1.9961593025490567 4.055958114613741 0.8369708199705033 
5.780108627025243 8.600665343805588 34.47891353675783 1.9962157997829486 4.7878032837479765 0.8187128925774241 
5.902679312381521 8.72301140767676 25.483724889279316 1.9962554051099293 4.614659838130741 0.8463803478528105 
6.684133613786434 5.335497026602438 19.423897433945314 1.9963783214096749 8.833979881488787 0.8867734251140645 
7.811959131364677 5.334297857911578 23.733112393941987 1.9964249954672257 9.977588969546254 0.9170498706077389 
8.847423250049651 8.447601233130044 6.379927597721824 1.9964993747541702 1.284376597831482 0.8097933067111444 
5.871087263275227 5.806182126747181 27.511817001129927 1.9964995333398141 7.886134238737 0.905655494832048 
6.710852118210749 5.327672293715281 3.249675657813512 1.996503004953337 8.862373128531488 0.894005955300273 
5.586301871843894 8.353748058513714 1.6250044930007945 1.996534807686288 5.1028112044162 0.9132700511010519 
8.986755718273912 8.234911339550886 33.00954970764467 1.996589785542601 1.029992195185251 0.8640128446013661 
8.821258179316303 8.481960613525905 34.60696795535566 1.9966419857719875 1.32765819651814 0.8402457995093024 
6.331742705973234 5.477020150927883 28.485621701077555 1.996660713103041 8.454880418230552 0.891210351683797 
6.285238644059444 5.501885439489538 6.8439231887637675 1.9966644661998034 8.402160391015132 0.8443111368959749 
6.487032841416733 9.095155762875594 26.392241150049244 1.9966769078520503 3.9192451419445966 0.7435440184445171 
5.6638586419842305 6.037022822233418 35.43775464187949 1.9967869293919902 7.576722951873908 0.8254808116888173 
6.585038189060651 5.36713687713493 17.792751035950246 1.9968344321582956 8.731951564947511 0.8953752376747183 
6.017441910211504 5.6786716182973365 25.628363199824413 1.997065929769816 8.082584516194785 0.906653431197593 
8.3112662933594 5.558116379873322 18.65872958843437 1.9971871042728466 10.530405344033888 0.8272668710003375 
6.3009474023956535 5.4926384477726415 34.6791185366714 1.9972532283780406 8.422859526551784 0.8126291060900487 
7.2658563829500356 5.252791000082267 33.65996624123008 1.9972719429843924 9.42777884447207 0.9048856121796611 
7.997378916022621 9.102173841177247 2.0616645988602755 1.9972789444783183 2.3712972379154813 0.8445075884564464 
8.140604523882052 5.462250766690886 13.241413613782726 1.997304117843977 10.335194333152533 0.8096982802395702 
9.234621389089801 7.0247982472873005 27.03828415087184 1.9973577264620364 12.324087069797713 0.9298101578726244 
8.191611577482824 5.48849832135156 36.39571261688047 1.9973784135038015 10.392945991148634 0.7765935457227376 
5.370182835929782 7.9255359943256565 8.521087595377281 1.9975138172144276 5.586250043775879 0.8374891672942281 
9.024850527552596 6.333460076230963 32.62707517639724 1.997533435769294 11.598679451604577 0.9225830447464088 
8.056905288178555 5.422659568544258 30.865335860227603 1.9975658178201232 10.243943899026755 0.8030003053334098 
5.582887530724168 8.350605814992804 1.6362053160886845 1.9976479032129084 5.110162060981789 0.903057192362959 
7.770636518760744 5.321310618420753 19.47205438612142 1.9977249848975314 9.940775100388757 0.917881741979351 
8.975648304550376 8.256594861035184 3.6908072631122977 1.9977725809661147 1.0549438755822695 0.8596829276350001 
9.247762553528988 7.239175118713366 28.091071761605306 1.997791880636602 12.541671656962734 0.988187155662411 
8.94818363488899 8.302392266507583 18.026298642504656 1.9978381166675516 1.1083823164691644 0.8874256965936863 
8.257838593900757 8.975083468772011 33.93306837936863 1.9979118112635292 2.0819362201593155 0.9130784855157543 
8.928329438535933 8.334027101110072 10.729217828064037 1.9979750899842184 1.1458089355457943 0.9114205619323417 
5.571662334353807 6.1659311893833895 37.12875365525216 1.9980046311453887 7.422773120900954 0.8601151146062219 
9.209741247701885 7.639216011185278 4.456492345460568 1.9980177329811462 0.39172064805652074 0.8402675803738355 
9.234759451420903 7.0198882658544886 34.59107118520211 1.9980544262346938 12.323522732619507 0.9268566548024387 
9.163472632547947 6.67467023257673 24.43383953533641 1.9980945565196044 11.97080646643777 0.8982371262826573 
7.96751552368894 9.115002768709385 10.820466471782836 1.99826521113397 2.4049639704555634 0.8829336280360707 
5.329880397317746 6.695866270447079 39.766258079701 1.998480292330372 6.839902823094059 0.9016450127581921 
8.977018830319953 8.255772486689787 25.452285855949775 1.9985425527773615 1.0539495600666378 0.8643888737706189 
7.54060698378947 5.2726736732975485 29.874950658555534 1.9985674422690427 9.709668112368494 0.9195189265357938 
7.891871121846977 5.357230974754833 17.726829934113866 1.99864281951244 10.071833172720666 0.9163305423619169 
5.396950318083432 6.500899673233448 8.458340185552721 1.9987357061935058 7.047061927608544 0.9692914425035236 
5.298646200092287 6.817127578461857 30.84927635786441 1.9987896802171468 6.715712591256796 0.9102651064925874 
5.655026124636718 6.045325693081015 0.4649736704463976 1.9987950992640795 7.572381995682743 0.8096336440713425 
7.812643514729027 5.3320276407112015 14.974573991015113 1.998796061548669 9.98945659704302 0.912240724400566 
8.734086626415909 5.911088046933198 38.66205134989474 1.998799222726412 11.091671846493952 0.79792800100754 
5.534184900231164 6.224728341052073 16.51498439129901 1.9988004981079475 7.355991333754481 0.8939404985460953 
5.279959041307809 6.911829296714862 17.489515514921422 1.9988548730423648 6.6193928497824395 0.8341748896906324 
8.205165990854361 9.005949564405093 38.92335547020256 1.9989249467699466 2.1440515408945764 0.9356512188442309 
9.21612902706305 6.888959982531556 12.501753524965409 1.999003062847457 12.197074417780627 0.8379992943294423 
5.255130077146912 7.3787964926709595 16.534080587869752 1.9990233979691738 6.151231452145325 0.8202664314334579 
6.592447849148419 5.3621739660194265 5.071488267793708 1.9990652729874432 8.750346264716093 0.9044068308166795 
9.0074765766931 6.29734451209875 16.054397323503593 1.999068882318285 11.5675311106517 0.9204187117158446 
6.73539368828393 5.31827305941675 10.586954380314623 1.9990969533849872 8.900056291620466 0.9224736967892785 
6.6893557579696985 9.168886619768125 6.4922003598202735 1.9991117591687753 3.7084637679035737 0.8359762608519633 
5.543662891595719 8.291623143970417 7.579489908529553 1.9991410909618919 5.184830709079829 0.8796554465969275 
8.541771826219344 5.7241777071455395 16.91679464160049 1.9992018708438877 10.825498061057816 0.8128936091763906 
7.993884786071513 9.105744909866965 26.68056108263086 1.9992883097356955 2.3782594541074324 0.8708396073701455 
5.628516546954799 8.419718089640417 26.500217311228 1.9993621477189722 5.031707408393515 0.882453932862355 
5.418190891800233 8.05133684006709 29.105882264448894 1.9994162498420232 5.456844230577932 0.7452356930425487 
5.678800336517984 8.486560280444888 0.06223348122502159 1.9994373482807448 4.948244907390473 0.8037051673749152 
9.249449892434049 7.250152299365709 7.94434374195589 1.9994498982344182 0.00015229936585647863 0.8917479897044222 
6.438911045084918 9.07764551200805 38.876418840223295 1.999538299295219 3.9760282896780144 0.8332408953603976 
6.124683035477263 8.902831482891335 20.06878886254082 1.9995474941794777 4.336115664109304 0.8401120120408693 
6.015407177179528 5.677084272067763 18.695137545654582 1.9995707852777869 8.092100961653589 0.8654250143488135 
7.075016549762186 9.241936050394374 36.382409288648375 1.9996070705810847 3.3161829965584673 0.8324737437647047 
9.02803218414718 8.165062605099155 21.91663729197168 1.9996844798902769 0.9504461643688433 0.8564342777861004 
9.193530285825965 6.778925189963344 9.752056318565323 1.9998053526715596 12.089603729553396 0.8879784769323193 
9.214846436156568 7.622676192195154 31.90004566737515 1.99987726171039 0.37486754649939513 0.8055071239630098 
8.875577191041112 8.41493746076863 31.021188161941584 1.9998951201338446 1.2435349749435787 0.851805644182099 
6.4644599553426545 9.08918365655431 26.390154758869592 1.9999174193692943 3.9487483639444143 0.7646815487607034 
9.173807454261288 7.796664344153017 22.8628487105103 1.9999692563235936 0.5537110655929656 0.0 
