429

12.24083232807665 8.573064491041777 34.64392032090487 3.4953135076950352 21.784691314171933 0.9002811499423635 
6.906202666691145 11.719496111228676 5.895548201065843 3.495353452931344 7.43269761581055 0.9609093118566938 
11.51663904312759 6.613809854776292 34.94253279555667 3.4953683541951412 19.663803382412983 0.910379497439415 
11.77722227702677 7.002562865087409 25.93799628773627 3.4953699739796735 20.13217201319007 0.9409671332265184 
5.582034995826204 7.272956076085904 32.5052182194609 3.4953770927957692 12.506013514674212 0.9292985730223629 
12.219353759640036 9.176047833566745 12.069427824690557 3.4954158931399513 0.4271098853270985 0.8785734472096761 
5.344535954469343 7.96210348978024 39.86712954771088 3.4954207581088865 11.775914033705195 0.8718222968059486 
11.403389938576952 11.025417107729705 25.17873819586132 3.4954257509337032 2.477772699128778 0.9457922730587006 
9.930280586763919 5.459856334031052 39.785046507925976 3.495440974499123 17.67582209780366 0.9222150753383312 
11.557808568348781 10.831941719938008 18.049143389091554 3.495464244089941 2.230203256236848 0.9521252384978284 
12.233297782059122 9.041483524226939 6.6726322534573725 3.4954722260938884 0.29182240081517463 0.8649327270670627 
8.095432341467905 12.183667684559772 15.607026473071187 3.4955017647808844 6.149176193444617 0.9344853786489483 
5.425637391930579 9.830349359476863 4.719718303200729 3.495503037969241 9.88311324136869 0.9167279373023697 
5.254701355479133 8.711012626675675 36.3603330597586 3.4955160748690823 11.02047580303077 0.9309136263998047 
7.631908630742499 5.438120422539125 35.68530827186328 3.49552208484091 15.334167224113802 0.9176550683541507 
5.541358936183819 7.363161754461878 11.759901070706114 3.495525396230828 12.407586287486595 0.8865074749034071 
5.262579087685657 8.98793654695027 13.91882700255637 3.495528346333644 10.743405500939744 0.9152893903325825 
5.287257464255239 8.272277251721334 17.43643792735378 3.495540715408558 11.460787546183358 0.9143199797224769 
12.060165188085028 9.873282876596164 38.84204142177245 3.4955626146965497 1.1435728623475114 0.9483132175991664 
12.195537306245685 9.33947446113233 29.994881741903498 3.4955982991553873 0.5923046648613699 0.8801646650173633 
6.001554626322681 10.909934490725682 32.244276518535266 3.49560709695965 8.653459468557692 0.9450821734748702 
9.057608247711427 12.23206997936509 31.018752710035166 3.495630726386254 5.182917266331717 0.9170818376861516 
5.313647478531202 8.108948853432775 24.55877537338055 3.495635167508206 11.626561543919465 0.9413424410616199 
12.239866752950656 8.548976111912083 29.227171253058003 3.4956516641296402 21.76269232287477 0.9199454566986389 
5.507486281118952 10.056046852225357 11.427027316248328 3.495662111437484 9.643429978670781 0.9175447659888568 
11.293542552716653 11.147939817920093 11.748996896560627 3.495672193991736 2.6425229489807656 0.928043893135007 
5.754074669638252 6.948840698601369 34.26691003748669 3.4956749583046114 12.87420817580729 0.9184996266087767 
6.609864452497122 5.9860224082315945 1.2047760924380313 3.4956762277824454 14.169790608410903 0.8866447539476991 
11.840933588622905 10.3828280272627 5.010053806378515 3.495711346191482 1.6989229778940533 0.9363683360588553 
6.409337024087948 11.346424265034148 28.706252959184383 3.495729127215609 8.05568639570253 0.9704397816385811 
6.565992499253019 11.479526526509929 13.485387281639355 3.4957408116507165 7.850117909034623 0.8918837580979656 
10.492686164076934 11.78039789369014 8.868304021529788 3.4957497708713094 3.6667290605122496 0.9072612130875801 
12.028608479458235 7.537135133602774 11.352682288062681 3.4957566771324653 20.72586760648446 0.8669924761092048 
5.695331432334488 10.449799783236216 25.88744729673165 3.4957573373124107 9.20713810048629 0.8708186731091904 
8.361193094407916 5.275922931658904 36.46530738490779 3.4957663375302332 16.08379775086124 0.8646597687534958 
10.013939476525103 5.490726981797216 16.448399005776025 3.495769387059626 17.766661727544065 0.9027865181036753 
9.159098834847171 12.221749468473607 7.676649699382409 3.4957697619437247 5.08110387734369 0.912639477992338 
7.181121965799356 11.873947845896474 23.489915003191598 3.495772937431503 7.118129281521689 0.9075892915680945 
10.985002637446492 6.061994635253484 36.93967118573733 3.495798854382048 18.89838675359893 0.9001353808456491 
7.543781941817054 12.031113967379405 5.069512120698583 3.495807613530648 6.722735974413023 0.9257138267488442 
7.133547165377358 11.849639948961336 10.031204852454849 3.495810003383563 7.17163059142473 0.9366878695453881 
6.012705447093328 10.924378079656693 11.60916966840172 3.495811994753725 8.635720154414294 0.9482293519744734 
6.18841245895465 6.37112545151553 17.15899819010839 3.495822485176553 13.598835771725053 0.9327250901470497 
11.536116689300124 10.861499176717048 35.96129869366621 3.4958368067850993 2.267104262579508 0.9284673925617267 
12.245329005552222 8.810523754718933 21.132922731525674 3.4958529691535882 0.06052677869678291 0.9081785710068558 
6.687636245156474 5.927287069915259 38.521460120640526 3.49586220308522 14.268009214129272 0.856277364222969 
10.478746912156653 11.788532585592554 34.81924141938421 3.4958898952911706 3.683015035511186 0.918583502558762 
5.268612352373369 8.431668742158188 25.532663685979614 3.4959111462916828 11.301501594213264 0.9060171010868668 
5.254422476475758 8.79997367117459 23.750660946162867 3.495934723472185 10.93282747141215 0.9474909826396514 
5.846438493875292 6.802961458089271 4.112195521333597 3.49594457958576 13.04788618935039 0.9255711644686728 
5.736814695812635 6.977334339423054 36.959979002513165 3.4959446822796605 12.841887647178172 0.9520636346388002 
7.897175309771944 5.359655154016586 24.885289263782887 3.4959616884269296 15.612813242972404 0.9200632638327871 
5.269367595003436 9.077060058411584 37.316453568035854 3.4959648482958703 10.655358450797369 0.8486961749761989 
5.312083118166125 9.384717379494951 38.27659409402827 3.4960175397488045 10.344805954995405 0.8694998864533628 
9.248198594171056 5.289649256007074 1.6796316283476997 3.4960304790843 16.97455588404688 0.9435821611452202 
5.3207040443137625 8.070055889598652 11.00403570830224 3.496054167909223 11.66748344366989 0.9374164476834016 
10.221423629145919 11.92136337513795 39.23275984067304 3.4960882645573075 3.972899713145928 0.8768993702676935 
9.296907394884675 5.296949710410686 23.689412368390393 3.49609267626194 17.024111537925002 0.9515911790745578 
9.500104272908482 5.335316415442293 3.4062889800314267 3.4961007426679553 17.23096848143532 0.9491831397447651 
5.305087561748367 9.346101885490402 35.58371314082446 3.496106286299946 10.38431319589894 0.9298416582212189 
9.488716294284652 5.332792320308634 6.09812108337178 3.4961421723927786 17.219508319805456 0.9480655790928124 
5.310747966989879 8.121765506002973 27.26558578524535 3.496159768376145 11.615175322730092 0.9226555584859876 
8.166793534698934 5.302795357255032 10.112973874422075 3.496190731371992 15.889465030618737 0.8862927913047894 
7.487081933231204 5.489856276075454 9.22461278428343 3.4962121137047224 15.183378187768113 0.8817723709437904 
10.568964694106588 5.764213301245194 25.312379754788587 3.4962200687124096 18.388549380015554 0.9212406298589385 
6.867932629208214 5.803549236251019 8.4913069288935 3.4962479447825277 14.48830386875455 0.9266627238345847 
5.8578486487961055 10.714504779012078 2.103341314329498 3.496257780117453 8.897718843190802 0.9158325593641047 
10.985984261028085 11.437786584897697 28.651076798341578 3.4962583344943687 3.065873612366655 0.9039304907320439 
10.265344695781858 5.5991719738377626 23.5692031276079 3.49628185326693 18.04315305374866 0.8968161644323568 
5.865495029358335 10.725764294275717 10.613885923347347 3.4962856679898544 8.884179350923226 0.9148500028617265 
5.523058576052263 10.09571624424267 2.8715217405699036 3.4962984946380757 9.602569774825469 0.9171513242846225 
12.048468435917135 9.90948905162736 15.566029783486925 3.4963279141958856 1.1818685522193064 0.9524778268666452 
5.342348069257492 7.967469165229186 19.165980101444617 3.496347549723891 11.773315596175063 0.8854043632671884 
6.847670767788847 11.683538520704502 0.4858858957039658 3.496355925843682 7.50352744383083 0.92405425266626 
5.847817867826137 10.699853373928477 10.618898440745404 3.4963680166895323 8.91575547635632 0.8694331890057064 
10.522651062315596 11.763703962140365 0.20038445055256204 3.4963843267222736 3.633095924737326 0.908060343612946 
5.263607582095323 9.014253333277395 13.908351133785409 3.4963927004516235 10.719736063327574 0.9111488895500887 
11.599575646201126 10.776011783063101 23.490599748926655 3.4963988772068126 2.160990999751924 0.9660773700776041 
10.73789875256619 11.626312283906334 33.10918435039867 3.4964144212328008 3.3777106576859026 0.9259704777575388 
9.251244149537486 5.289687476420106 10.125663789226358 3.496427956971146 16.97950571018635 0.9317729286079545 
5.255785183015725 8.625342536369391 33.645331327513226 3.4964377115102843 11.109066915966718 0.9409423684983634 
5.253959391669516 8.80328629673637 26.533340985508474 3.496446676915816 10.93112283418916 0.943114636538726 
5.254266851735052 8.820726993180358 23.75187371107259 3.496448562676522 10.913685300726328 0.9544397361100628 
9.694193677203542 5.3834487293396975 17.39484805059631 3.496450937458673 17.432699974445363 0.8694845242834229 
7.281231293320074 5.576984870387147 18.71254818801173 3.496470581382644 14.960923977075382 0.8990884291849539 
8.221781974720429 5.293645388265517 23.90406940985791 3.496484160451534 15.946545273210472 0.8765136360743656 
9.19608157478073 12.217916386204948 15.792116628745738 3.4964886433488735 5.044970875558615 0.898723685443565 
12.139653339332837 9.60773345062308 37.07463437815327 3.496492018175935 0.8665779368625408 0.9405462783267753 
5.394384765334992 9.732519755391326 1.8833219670914687 3.4964980584650864 9.988640361783549 0.8933738079119901 
8.092600871453351 5.315851826702463 13.784697993402247 3.4965050107752886 15.815556431757688 0.8997709852019332 
5.612258794915654 10.292766881345383 33.02994502045759 3.496505329648491 9.386797172448567 0.9519783112277018 
12.149767118099428 9.566793299313922 39.817587978916286 3.4965079366582574 0.8244106370544344 0.9030437881771269 
5.356418204605445 9.59213989567666 31.115350753712157 3.4965121200881923 10.134114705911788 0.9304286416226614 
5.308592416209988 8.131650591190258 5.274457720637635 3.4965185755466455 11.606255841405417 0.9071099565691286 
12.068328480737241 9.8520150628513 1.5510505274940982 3.4965327261192756 1.1211270242494642 0.960817931507017 
10.45726035669967 5.698596801385708 5.925405433689413 3.4965410631182086 18.260674004293566 0.9079334518481547 
11.926977587504432 7.2896335370224286 27.670580930210605 3.496549270022531 20.462916912126815 0.8996465869673591 
11.987951682711703 10.069692487722442 25.34954166897009 3.4965582165504716 1.3532215085841948 0.919298795169354 
6.8301445092148185 11.672355036626783 11.75886334654593 3.496570328993245 7.524777520514554 0.9397873123624716 
11.917965421021286 7.270077743851399 5.669585706157434 3.4965947424645223 20.441650413752182 0.8564973262804906 
5.668719930968329 7.097136076636382 27.140106441580663 3.4966049266350923 12.706490752920072 0.9015722525247724 
6.80986033051915 5.841002281318666 5.650749795513278 3.4966283280306594 14.42077406331148 0.9116471931201859 
5.844881470677251 6.804019754157363 26.15834256201981 3.496648793720087 13.048768381173257 0.9292907261403596 
6.1043863938109055 6.463668142583721 8.783989966622528 3.4966533593551206 13.477051025183162 0.931062622492996 
11.221144927313851 11.2238736245653 29.615904575026875 3.4966566834776382 2.7481972176629696 0.9413054049411165 
12.104710935310102 9.736181200264866 4.275619224407677 3.496661095852017 0.9997467168253884 0.9574992318364551 
12.138530417963388 7.887125076535664 3.738773585481468 3.4966686327141034 21.098335428860526 0.8484378634034415 
11.433728163357081 10.991508837507666 5.785456696454688 3.4966782413343327 2.4331700988614884 0.9565865456536706 
11.70277142590706 10.622952732560378 10.980265906607492 3.496685721087696 1.976541436980689 0.9242791895221966 
5.754591823060963 10.554014641525328 28.527849525093707 3.496704015685484 9.08972760785629 0.9369935073423961 
11.601118829184458 6.725610274558456 24.195351759926645 3.4967173661311874 19.811551522348317 0.9000915605698491 
12.07402595176518 9.835310271782632 20.970785050056392 3.496719450291273 1.1035377127271353 0.9503526815752334 
5.396503728412675 9.740526254554524 1.911374709996391 3.4967241104370683 9.98100680145997 0.8825454512758253 
6.83739691472374 11.677292190259777 9.08744517517004 3.4967256296375537 7.51633949356868 0.9467649296616893 
6.035594702453565 6.545654853185209 5.847550471710363 3.496731852120502 13.370324296227341 0.8869169498510238 
11.67113507890921 10.67202828456534 26.1781125421166 3.4967446111924008 2.034964805153212 0.9347648708734776 
10.248212364547449 5.590449266987154 12.072363105370265 3.4967700987861456 18.02645251610392 0.8961464987243138 
10.310551827899005 11.879241301361915 26.75902414034332 3.49678039483582 3.8750951969385135 0.9181598553292322 
5.343696365009016 7.959629793408215 13.753083229420945 3.4967970368925783 11.782771438656539 0.9138888926025336 
8.884667753148626 5.255789498945582 24.684018865952922 3.496804602693303 16.613004540378128 0.9184486597882063 
11.031510340939896 11.399978266759511 7.594044215328729 3.4968091526580953 3.0071753382903204 0.9132248662854299 
11.927221930352324 7.289537937307777 27.671452427940082 3.496811208983831 20.464465051944902 0.8957131046034478 
7.605431690823549 5.445807753429019 38.3655158571735 3.496816125659288 15.312298807752267 0.9347186406212721 
5.265218310431791 9.040083137193406 0.006129426636945823 3.496834518594472 10.695212752537309 0.8938014795701811 
11.765188542402406 10.521042462845784 2.2833286444702026 3.4968490604310603 1.8571196236922134 0.8750779941848512 
11.723336477687532 10.590443381295504 7.756363106629024 3.496850246908169 1.9381657906855203 0.9486673700926828 
9.527452457632492 12.159331434673152 14.058772014993508 3.49685189210657 4.70883789150292 0.9266644302789757 
11.081796647410755 6.144068542127876 16.288037927912136 3.4968778028412077 19.03114783290291 0.9023895362756805 
11.995977831639948 7.449306095117457 11.31615201675153 3.4968809985037512 20.638827720350527 0.8823323900759248 
5.3434006649021875 7.9603972140750265 13.739629642103807 3.4969117217095054 11.78234348261961 0.9093921510634547 
10.704909594264322 5.850519481650505 19.934928498850113 3.496949927870707 18.553444740668034 0.8411172804559823 
6.211824037876257 6.344476088695348 29.660778464486 3.4969819133877755 13.63880544515391 0.9292521914585956 
9.694386341657404 5.382949232427933 17.39855900528815 3.496983905269896 17.435407880563467 0.8728918930381969 
11.779706737273578 10.496449673238669 21.704764797194603 3.4970286494446037 1.8286563337157382 0.9120161302909546 
8.903620042745148 12.243658258353815 3.4812768497642423 3.497034049547821 5.339458746531083 0.8996265513424639 
6.166653689904058 11.107044369250104 27.736955533055976 3.4970467993008008 8.399797932716616 0.9644239046634189 
5.256472078325791 8.593104000572929 30.955688311754756 3.4970492839183085 11.143253022515633 0.9027434065420011 
8.779483011708253 12.246940181961484 12.154800107700254 3.4970644666914876 5.463692657857955 0.9082799070065991 
7.750748669052456 5.398711752399581 5.494953172007811 3.4970896672669283 15.466272671335567 0.9179294311291315 
5.269986872364457 8.404548058060112 22.82618299498138 3.4971171574177746 11.332533806166413 0.9197066035821497 
5.2846739054671925 8.279484078916802 35.410694061905716 3.4971231281501605 11.458483486144935 0.9042802258287631 
9.116793974308818 12.227839947637467 10.432211535473094 3.497128610870958 5.125806951184508 0.9466624323143789 
10.76302010958753 11.609682343240081 12.53524298430781 3.4971464175585916 3.348296428112242 0.9353646362985164 
5.415783639680569 7.694977803331653 26.31264170016269 3.497151780075414 12.058344924999048 0.8837769773571182 
11.50207045766542 10.907836367487967 30.623299906967567 3.497163077811559 2.325460894067863 0.9156816979528233 
6.968383920213 5.7406736943143315 34.8561826843179 3.4971703804429306 14.610650638665536 0.922071290739923 
5.535736115764321 10.127947912161332 22.199157588568426 3.497174969333335 9.570348371329768 0.8847336829482364 
7.0608372034974725 11.812189231068018 33.35546256416231 3.497180841757713 7.256237373991311 0.9440417269860919 
12.246178275143349 8.833792285578937 21.11517986134576 3.4971822484261357 0.08380030488052981 0.8848784316414222 
8.410109212845073 12.230652147778269 11.177209389972369 3.4972081895458094 5.833829939081955 0.9454803627524977 
5.274153155375437 8.363997032250264 0.7960082371170145 3.4972145456631822 11.373614567882601 0.87382631644056 
12.164184320984047 9.50755038694199 9.416520529955712 3.4972184899444376 0.7636033980091312 0.9369802877848635 
5.357780724244153 7.899439751163346 16.506687385325208 3.4972280954651196 11.846042980338364 0.9132906602842433 
12.011909872053367 7.4888114652796745 14.180078882899274 3.4972349840279846 20.683514912536957 0.8194991156233278 
9.387165506053167 5.311279331644208 18.349890828515406 3.4972531674274427 17.121161447287 0.9521761878365432 
6.8002433649091305 5.846670824360736 2.9869135353492524 3.4972662521173654 14.412258945230406 0.930184854491128 
7.125913185263039 5.652663208609123 26.810765514072592 3.4973065609274205 14.791690605809475 0.9094381719975073 
7.762229254693262 12.104944129590283 11.968810377677585 3.4973334353412935 6.494996709434606 0.8878726856173165 
5.2529642530249205 8.704217505353284 18.3528243425122 3.4973354217800776 11.03298707054406 0.9086052771955302 
5.676426035518851 7.081312108703806 27.119592938330968 3.4973384442594235 12.726743516611151 0.9288399484613508 
5.288687709614658 8.249108820405773 35.43159058531118 3.497366830255005 11.489921487567372 0.9175974571775524 
12.167542304275118 9.4930625669218 9.414871114162153 3.4973900811705936 0.7487695925930602 0.9448666962414358 
5.653062176360633 7.124964508515323 7.9858865122832015 3.497393920060048 12.677432982622797 0.9134295230364983 
6.075942039593739 11.004233540811043 25.0694013797889 3.4974497612016626 8.537890165995652 0.8899147722124772 
7.463262710988717 5.497848436770084 3.7586716376462626 3.4974537368135263 15.163672217510069 0.8657576745703868 
10.704925534332938 5.84989543128512 9.445943944477335 3.4974762835890423 18.555901729695996 0.8548676972884222 
8.125861857291236 12.191353531958413 12.927613531101343 3.4974937531190275 6.121349536130104 0.9231377688893342 
9.99556676766755 5.481801663903635 21.798653947239643 3.4975072461370025 17.755137173473454 0.9048669172647158 
5.825467391187754 10.668264775250464 16.012713503335156 3.497517795233197 8.957372926396172 0.916377699880092 
9.873371521133434 5.437799254608102 2.475657497129255 3.497518742232596 17.62531141489345 0.9083284915174281 
12.189598182652718 8.116091587122648 17.65498749094938 3.4975242006345826 21.338161307740826 0.8501193969308475 
9.601963903405911 12.142176105979509 22.154706985497562 3.497527873610864 4.633281394068554 0.9541213392365605 
6.117752260182813 11.053038259155091 3.009400239156875 3.497529612012569 8.473818469994555 0.8991550839240527 
7.466961203721555 12.003700033563376 8.304708971634923 3.4975351979881455 6.807627580179737 0.903383573949048 
12.220790109102259 8.318249149186514 27.451221925130014 3.497540961678681 21.542843007067347 0.9244614249048898 
10.765248550973775 5.891379933966427 17.26013253007791 3.4975613510175463 18.629566095405615 0.9170489271157005 
11.647668305005404 6.79131062723253 13.364834059398788 3.4975628178526144 19.8968682204086 0.9130302236718594 
7.507662548780285 5.4805079927553315 1.075266168766042 3.497567773201809 15.211833531902432 0.8586606248018398 
12.033946509837842 7.546346858332242 14.178895173983364 3.49758281745019 20.74718612280366 0.846003263000349 
7.789357921377592 12.113075701288366 17.348919814017236 3.4975865072670067 6.46714558442023 0.871871725880953 
6.314698396653965 6.23950595015074 10.519608166553049 3.4976097943578996 13.788252680659369 0.9299142830533669 
11.480571669110487 10.935698449952092 27.89767890458201 3.4976133797593767 2.3609520951347776 0.9250238481562258 
10.462504788895616 11.799697028800832 14.256513241486381 3.497616991533959 3.7044728050362963 0.9147147353200971 
11.07609107757213 11.362019460611215 13.480281328033648 3.497619957023973 2.949318956645568 0.9005008980041062 
8.493107355037113 12.23817363800503 8.48884094833896 3.497620499698226 5.751173612413197 0.9444564256772482 
12.208118012476973 8.225763548526047 32.85010609995922 3.497628345789716 21.45002763675969 0.9237467570971446 
6.667726973116048 5.939738747367382 20.65805807130039 3.4976319512688456 14.251810670498848 0.8763326594267774 
11.559653807888493 10.83313569563785 15.369311075697944 3.4976576228417326 2.231462732559951 0.9336759518727935 
9.799567222214677 5.413527021619636 5.144590213257523 3.497662546531577 17.548339949811687 0.9030262888887025 
11.081444387095551 11.35731530441722 36.74708385461949 3.4976743740330662 2.942238493691601 0.9156368544461357 
7.855182240486542 12.131303196851569 3.345562773819452 3.4977006921375238 6.399053201220909 0.9144591589412404 
12.209206013978601 8.232387768999196 32.844399271177714 3.497717637092413 21.457287705296004 0.92223674951604 
5.529173862428255 10.113931535100544 8.688332278370908 3.4977178618217697 9.587302234074823 0.897296362239837 
11.789084024591006 7.018441277965394 10.378168808771726 3.4977603286072028 20.16562155867947 0.945342582762144 
10.606987817269037 11.714142142420318 22.32284561923393 3.4977910735145037 3.5367233444846704 0.945839866188535 
10.680235336828135 5.8330205653348735 35.11264031300047 3.49779608865344 18.527692742447787 0.8478345160968354 
9.271566858166963 5.291301583631842 38.98318952687133 3.4978031280970856 17.006528178027597 0.9592219888630529 
7.087566081807472 5.672496717958889 14.079979154438554 3.4978154587300305 14.750670006734417 0.9054412227339241 
11.2997665401314 11.144511586090118 14.439695138464458 3.4978557924953786 2.637409653060832 0.909761683607557 
8.243357730012812 5.289028812839831 39.145150065323335 3.497857622615683 15.974834978137377 0.8737932167823054 
5.30684862410037 8.133711669563155 27.287498284702814 3.4978711673805463 11.608408623534086 0.9062528627580634 
10.251102968969368 11.909405122507103 1.9114228691601625 3.4978780498429 3.9429775442713613 0.9080543427924501 
8.430578994617585 12.233277412586855 34.48363423525694 3.497892409968794 5.814343170755375 0.9386682292764172 
10.156552117733225 5.547354591769601 31.639346678446316 3.497903153427648 17.93099450175792 0.9248893522295835 
12.048437363763048 7.585678800796959 34.82259847729074 3.49790407209542 20.791009129698313 0.8595419562494679 
11.483836279088399 10.932090461424472 33.28089318535458 3.4979107453878195 2.3562959876949066 0.9385793025223678 
11.453499620872359 6.530396753004979 7.590805553334015 3.497934929944782 19.57361613731549 0.8762193319341556 
6.3534128743943175 6.202052822029014 39.42433451132213 3.4979514965689877 13.84346783151183 0.8752380886978935 
9.673974099551293 12.12372751662182 27.522769177858947 3.497965907931761 4.559521056894187 0.9367334088496454 
11.911440211106582 7.252978097618161 15.149704731809166 3.4979678078296517 20.431423189406217 0.885248195323177 
11.30832701783532 11.135530051713207 8.965628892370667 3.497969519280144 2.6250880685481377 0.9212527454304027 
7.145993446846239 11.858539817686012 10.02603712890243 3.4979789623008872 7.160929093706464 0.9018945219258283 
7.621154696787771 5.439162864304276 35.668191389986305 3.4979900311016006 15.33447120325674 0.9084750730237964 
5.880780180612879 6.749098793428665 38.69606330071611 3.498003432019827 13.11943601460479 0.9115195670143317 
5.334940374543658 7.9927513236612455 21.872870616872476 3.498007690563131 11.752606828325906 0.9337105740472148 
7.650658569134594 12.070772149819273 29.857763033444215 3.4980107565061185 6.6129558384585465 0.9223273558501801 
12.062252594946097 9.874784310255809 1.528785224732161 3.498021869189041 1.145128429324167 0.950988257611969 
5.970064098123887 6.626710222601915 30.597137013168407 3.498057046038984 13.271144579188626 0.950751670176999 
7.142871077151707 5.642979902906312 26.81026526404323 3.4980619288971417 14.814400755328077 0.9039304242071017 
5.394960757637927 7.759963241295296 23.603642717661415 3.498065336922109 11.99325101924045 0.8932223435629371 
9.260761907047378 5.289422129897325 12.692883006788165 3.4980675980796945 16.996849624532093 0.929393779378382 
10.1742872426871 11.944981829132146 36.55065772113873 3.498071331200356 4.027853948013199 0.9228665624267189 
5.410485257656937 9.79122559858817 7.71645885693691 3.4980722493227527 9.932269677934464 0.8982867322590324 
12.143023585541894 9.600849905306259 37.0801731990667 3.498078703145946 0.8594712027261338 0.8909595002295653 
5.760908473723582 6.932878272462979 34.2511940492773 3.4980851226270384 12.900286174261652 0.924368159696185 
5.850603555462094 10.707074650793249 7.925112775304626 3.4980910410360315 8.912601603596496 0.8511544241422786 
9.325196891894418 12.200478496377873 26.58083022037259 3.498092811577633 4.916970389259742 0.9463820073157698 
8.511683402422975 12.239968940869899 19.261423752536274 3.498096340714086 5.733298218551383 0.9080988753252581 
11.958463736084369 10.143737872678416 3.318431712019674 3.498105887978037 1.4335258649448868 0.9146089102110051 
5.253518596174693 8.643401744862258 12.97924651077249 3.498105972564955 11.096238784993254 0.9477137363520362 
5.874457275325003 6.757976218285613 9.752297218329801 3.498128743821043 13.109007541795116 0.9388413185569683 
7.178830752701817 5.624563641687525 26.792288122343436 3.498131677555478 14.855097909957017 0.9364887292767049 
9.69742460231725 5.382599422023631 22.769079148848974 3.498142368405205 17.444014697435794 0.8830299602633991 
8.454655690344486 12.235675009055576 13.882249782994094 3.4981650232658406 5.7906010852776895 0.9340034453209501 
11.967252695420312 10.123482948306634 3.3153242748986997 3.4981667077882874 1.4114710660479872 0.9096718013681647 
5.43886216662076 7.621403731969929 36.19868761265442 3.498194289608105 12.139054322004569 0.870125529767435 
11.915948877268788 7.261987677950444 30.366927005109687 3.4982013898646254 20.442859910905423 0.8615703243753815 
9.191172182799043 12.220271593382869 1.7636333591568203 3.4982020848881406 5.0526128979971645 0.8972534954206599 
8.690419582376535 12.24770239411832 30.04598246710978 3.4982098084570654 5.554558415980402 0.940936833795322 
12.02513363684955 7.520772403517725 32.12311878647953 3.4982139475991096 20.723884443955487 0.8607955277787065 
8.202663234369265 12.205136668027087 4.29034128135428 3.498220537610004 6.044586853364731 0.9382313650147833 
11.790993406153653 7.020862644419566 8.443946405647893 3.4982219613303136 20.171332085609343 0.9504330738689056 
5.49977552459926 10.043719330943617 0.22690176876670876 3.498237963282549 9.664851657982943 0.9410069293943131 
10.617230912937549 5.791768623451894 22.624487870792883 3.4982401517653545 18.454732100304504 0.9099821682740551 
8.191341950220556 5.296638943508498 26.630642339612763 3.4982569092442968 15.924087025657649 0.8640123786746462 
11.31649758176119 6.3728309779717485 27.86838202208834 3.498262768357574 19.36661228084672 0.9197133128259434 
10.574651752186497 11.73470974715665 25.010167476517836 3.4982633250699053 3.5755236575872082 0.9288082985442159 
12.180323194841282 9.43623447583461 5.739214626788531 3.49829029339906 0.690713509732138 0.9205216175244665 
7.336915388113724 5.549786868079664 33.93814338953527 3.4983099076647215 15.030755366157162 0.9082593518458075 
6.829990803245961 5.825659766491967 11.304288890975954 3.4983140392100185 14.452986851725232 0.9251577792182121 
5.251720007647467 8.765769429153814 15.659631857159226 3.4983155346237536 10.974512900954124 0.9304071394165015 
9.432148350996888 12.181178530182663 11.397484315837222 3.4983299556723124 4.808617026390451 0.9289085900056524 
5.398171613151108 7.748194501553321 7.083749835986474 3.4983378612712692 12.006381702512996 0.8950566067972368 
6.402834635938975 11.34408676567373 28.733830331794763 3.49835266862724 8.068126917923848 0.9676959864810466 
11.985966919655604 7.420662791875884 7.500795765852779 3.4983738105023305 20.617326246255626 0.8841626794964595 
12.245885565706116 8.61790488044879 14.017312815279162 3.4983803408322554 21.84884542791422 0.956598316975957 
5.25162085430965 8.760183003841817 21.05955669461767 3.498393965888975 10.980345764378448 0.9431238098603595 
11.501575776420342 6.589525184762152 34.95596433164744 3.498402589848715 19.65244509501192 0.8792578381819676 
10.435056213463636 5.684154471163627 33.4550490510674 3.4984029569531243 18.243968336270584 0.912970539517521 
8.518047370801666 12.240705737775144 21.93267431468381 3.498403717401455 5.7274026195812375 0.8895609974986051 
11.774010776687046 10.509030665708142 19.069654927962638 3.4984039304261345 1.8431198886781353 0.8877074697245687 
9.59299837211186 12.14532938056205 0.017829581258098415 3.498415049403246 4.6439202549896095 0.9360776699093836 
11.912441473181643 7.254040704755809 27.668202252143985 3.498418254629765 20.435443109053132 0.8466939348989668 
7.805781938990423 5.3814061948190215 11.126862270023324 3.498424212562044 15.529861128138528 0.9158642084206782 
9.29312193046353 12.20602751153875 26.587212049182014 3.4984435956383764 4.950014732280309 0.9565672959737088 
11.491472114343372 6.5766230216151484 11.233544280089376 3.4984620683802734 19.636391683011936 0.8900038251838909 
5.272790326723831 8.364951986833738 0.8152458155241895 3.498463817787553 11.376577899887142 0.8699299670672739 
10.221474901976828 5.576041476189069 28.951745234928957 3.4984641055783015 18.0048529560763 0.903156790925888 
9.539284698082808 12.158270419416802 19.441789664596882 3.498467891306029 4.699241969604259 0.9068378446717197 
9.189478629359714 5.279245433839712 29.13217502284401 3.498468053903934 16.926785083353792 0.91200915948425 
6.5494704122753 11.46973860633004 8.13644758662224 3.498472317056963 7.87526775204093 0.8984774344138767 
9.431270426314798 12.181502103579032 34.631464196775525 3.4984762512611787 4.809742283563455 0.935129508845587 
10.253037395483345 5.590850300420627 12.074798188258484 3.4984779885792903 18.039788526379503 0.9154302354837622 
5.740058978369921 6.966841430252607 31.548807773587455 3.4984853063225922 12.861909295403766 0.9308756739338047 
7.818084544588851 5.377917473949225 0.11746357603855984 3.498486383928221 15.542924783025665 0.9068201391995704 
7.118899266104782 11.844992799337525 12.726457550990673 3.4984953954614055 7.192276426563456 0.9188154284897384 
9.185052354459696 12.221355073039334 15.794540029228841 3.498510625142768 5.059266148103205 0.8954015988636677 
5.890547984314205 6.73428144936015 20.753584895630695 3.498512127376888 13.139085134735659 0.9380089932189547 
6.176402307200542 6.380137232878727 32.354128321373885 3.498521776317878 13.594559797214721 0.9240735577521666 
5.903972553818461 6.715337437601548 18.07778559271457 3.498531687328908 13.162377105607106 0.9274732198963109 
7.153854208711399 11.863207065209565 38.71187701843361 3.49853392407721 7.152939399817754 0.8780549068347231 
5.936235962292953 6.670909521246003 33.29425068680722 3.4985547414238005 13.217371477088577 0.9307927963231215 
6.640414545418819 5.9590148471763555 9.485756294987262 3.498563835842147 14.222186657223126 0.846549121249426 
5.447669645658921 7.594746773608261 18.216680180949496 3.4985705347028513 12.168433269068522 0.8786049905565033 
9.019271518368411 5.261805833250968 16.63623105635864 3.4985719508888775 16.756169989063615 0.9164205677911008 
10.872209543075497 5.9685877673355705 39.60683710898398 3.498575046034605 18.766904039536755 0.8956011278699735 
12.245636303594475 8.606470459643262 31.885585370651746 3.498581697768778 21.838667287133894 0.9464772003804666 
9.34899964047043 5.303072700010009 36.283128664065416 3.4985866261534793 17.088666458903816 0.9750253338115331 
10.22254303960746 5.576387475367461 13.692335664025109 3.498599642714337 18.006665088407367 0.8832709795301338 
5.268815151141899 9.098811226043345 2.706910117030894 3.4986164727407716 10.641836115849792 0.8434001154303378 
9.228923658626401 12.215683388527623 4.439088915882209 3.498618187271711 5.015184449092807 0.9246197934453229 
5.814487500221846 6.846546177959091 28.881633614924283 3.4986240279566956 13.003890329591375 0.9341237909356792 
6.026833839233783 10.946538526249565 16.98789324682089 3.49863050870492 8.616542610401716 0.9175574865200201 
11.98352441272011 7.414040861268472 19.56121247474715 3.498637870374297 20.611829100162026 0.8857670313043796 
10.260256077118699 5.594116531552462 26.26060340677686 3.4986388617424393 18.0485398476903 0.9148462466005709 
12.242250740095505 8.538538918374378 0.0012319300527536825 3.4986470271720598 21.77105755459409 0.8941708869071145 
9.297184173430368 5.294388108009372 23.726903414203413 3.4986660411819455 17.0365151056741 0.9520066859334492 
9.145606344575016 12.226235509073689 13.093768228901737 3.498673705050648 5.099249564653647 0.9228620244760667 
9.739163575880577 12.105931655862644 27.54933534822527 3.4986743001699687 4.492865400371343 0.9376651101864906 
8.142858696778509 12.195591765116518 1.5866792679336825 3.498674488133506 6.105935658934598 0.9239144806685378 
5.251404959616851 8.774613851061382 10.23300103134735 3.4986816228770556 10.966818429575675 0.9352272015324239 
10.4059034852472 11.832035675865548 29.460954884687744 3.498708370207756 3.770818860566461 0.9298675747606197 
11.58430925339499 6.698733964537226 26.87615299820679 3.4987142341328252 19.79121898350315 0.8842461882636229 
12.155335006497518 7.94706851473417 28.40209714892808 3.4987148321217387 21.172921650503408 0.8885461028923792 
5.336595638661537 7.982082589857576 13.732959675460748 3.4987178341221354 11.765766864068564 0.9170825239863828 
6.584250861283708 11.497871328739919 21.606231248259768 3.4987520876965905 7.831162325569313 0.9213088368086099 
8.106917022597843 5.310844072798989 4.538478112923528 3.4987639542310176 15.84077661177373 0.8916207022191756 
9.181805711506 12.2220165852141 7.683084651321288 3.4987648306925387 5.062937464141132 0.9042830685488092 
12.242966342327739 8.951385374848723 30.944506083441865 3.4987669167632984 0.2014967403766761 0.8146965947626955 
11.30203239044405 11.143442672354318 17.107253996955542 3.498776521546087 2.6357735804038214 0.9022640868802524 
5.60040417635407 7.226350049727426 29.832720303672026 3.498780219346949 12.568193885496882 0.937087434974126 
10.683948579923873 5.834291072994105 7.706266951422549 3.498787741034229 18.536743260245423 0.8237942565901961 
11.131031136928799 6.186360498652327 10.366291130601354 3.4987936160760618 19.106469619552186 0.8716881312626322 
5.3946069386477 7.758570791857572 23.600995514142085 3.498799004076839 11.997001801995378 0.9059761092327754 
9.260855374773586 5.288676399217323 12.70576412766065 3.4988189840673702 17.000484132959016 0.9316731079828019 
7.090440776801261 11.83021914679459 36.034799803082876 3.4988407805420354 7.225051033128338 0.9640341647196243 
6.508781633580119 6.063208607401407 6.590267909614674 3.49884377378009 14.055422444889494 0.894578134856527 
10.27964098064662 5.6032334247082005 23.59686014515917 3.4988485833266982 18.07104316385598 0.9204718365798766 
8.430895259600016 12.234278122760209 16.55869048747391 3.498860081811095 5.8155453488536075 0.9238726914685237 
6.577171951779166 11.492430185302641 8.133745683088868 3.498871967991143 7.84035843873027 0.8915355325927107 
6.973612500188095 5.735606343751325 37.57716875337364 3.498874342459334 14.62485028630314 0.9287321062309474 
9.17495164627143 12.222986217176455 36.393091582817846 3.498887989971444 5.070037022274505 0.891936320217114 
5.791839577017727 10.618561281955301 31.27376011599558 3.498890445915832 9.0208957399886 0.9333630425691907 
7.529107384438197 12.028978752364807 5.064931206969099 3.498897031521962 6.743187304937329 0.8841455812405798 
9.557544121975917 5.345568091472234 28.143230070880236 3.4988975590519718 17.303057372068398 0.9199808525847848 
12.127043525061326 7.834650202344395 39.28965369918589 3.4988981440200244 21.058099174433707 0.8587604572268519 
8.356400547909852 12.226709335687353 31.775502635756254 3.498918166168117 5.8905221455021355 0.9477761756482601 
5.5018571066473125 10.050800413402118 37.45342534222968 3.4989304038726874 9.65941584316171 0.912328725206607 
8.814140630330387 12.248356009860338 9.46307971228368 3.4989439538502345 5.431984087180137 0.8851400526442902 
12.0621046879247 9.878105836231981 20.964649106985433 3.498951305964892 1.1486253836066993 0.9223561134512116 
12.048915405003692 7.583816319723056 4.695959414769 3.498975167890585 20.795778408187758 0.8471757236253163 
6.976575093456594 5.733738537242896 34.861047286477735 3.4989811532590624 14.628797402756852 0.9311898482711092 
6.22114560433957 11.168227992510221 33.19080835437541 3.498990022593817 8.322532209990129 0.9386764066988916 
9.056676787318226 12.235525824073065 31.001623002315057 3.498991414988048 5.1891320611362985 0.9147188286537655 
5.3575549990136455 7.893102068017495 16.51132308935979 3.4989937339974193 11.858116158746512 0.9148071476508366 
10.828769288989333 5.935444120647112 29.80081451711593 3.499000793776007 18.714545345417633 0.8841589907794987 
5.6016739591767095 10.27680032403783 33.00150375047791 3.4990107300218534 9.412521963879456 0.9531463261210156 
8.810158639458992 5.251503447655203 5.332546813553201 3.4990137451387624 16.54887541847735 0.8929616541465057 
5.267675686717462 9.09134816878925 2.697778872060617 3.499014317663542 10.650585734717666 0.8096359709805969 
11.40612786474035 6.472254399944305 22.49526297514212 3.499019898832128 19.504684706672144 0.9270704038145228 
8.443270230351901 12.235552845227915 37.14876916810431 3.499022976269917 5.803376419424566 0.9328085595647639 
10.108114003900953 11.974700062928775 28.475607522292762 3.4990233127895434 4.101495162084277 0.9178493281095566 
10.734145895297972 11.632080878384308 9.833581614396365 3.499032026629115 3.386606427297295 0.9167451597299224 
12.152717753662158 7.934681319233004 28.408259660684678 3.499033103915322 21.16219045924903 0.8881904893623248 
8.196355793599617 12.204956348280874 4.2839391081440965 3.499034906343034 6.052251978942511 0.9326195933264154 
12.247002026566756 8.869401977153014 36.37722113394068 3.4990398691583997 0.11942516247835044 0.7662913401327686 
10.511000295054922 11.773612492615683 0.1877288936796404 3.4990505204533897 3.650932359478116 0.877991492906658 
7.760761414227831 5.393697787519038 5.507255039069648 3.4990509457687415 15.485974636343368 0.9013454318318985 
8.392166640018692 5.26929038934696 33.738955331157456 3.499054744814369 16.1304469873527 0.8550872533171144 
8.169586082506632 12.20061785887576 26.353213886518844 3.499091871273509 6.079469735110575 0.913347832771026 
11.187177568970627 6.239237244685722 35.884251119053374 3.499109046052572 19.185322226021643 0.8915817185174963 
10.388935422362964 5.65845379231083 20.89143726455991 3.49910949713686 18.19485357602321 0.90190790672213 
11.912077240755897 7.2516244947046715 27.682001293667582 3.499122980315988 20.43721973518793 0.8109572627872809 
12.248981365481105 8.718341308881442 23.802646618829627 3.4991245860511113 21.953989064007267 0.9858202161304215 
12.2455916094479 8.592446103099384 4.469719586609543 3.499140455950734 21.82814071807438 0.9133994762887656 
6.683893335823667 5.925955209784657 30.443155412393594 3.499146428044456 14.279176980668502 0.8639888120505086 
5.742027388045663 6.962212559390853 19.034315007519915 3.4991546360610024 12.869355797783449 0.9058163450277151 
11.98784491183485 7.423170377237703 37.519294957927826 3.4991594020470616 20.62498916283183 0.8802783077088104 
6.014380727548533 10.931862866580094 0.323276143553322 3.4991625244290936 8.637094216128062 0.9245015864012412 
10.232632533775037 11.919536341714291 1.9061082844360158 3.499165593631686 3.9654599718533206 0.8792366173311799 
11.534668741601715 10.868919564800997 35.97442596483566 3.4991713479837068 2.2760552453157743 0.9378365194013222 
9.057400856409883 5.264341722012425 19.29461877974427 3.4991868937547292 16.797327387988194 0.9002811153202783 
5.316833117907775 9.426539655917278 20.248703481202803 3.499191441793877 10.312206993836703 0.8873553497066647 
10.33558238980847 11.869343371279534 26.76528874412076 3.499196276692167 3.8509552632719632 0.922408853620612 
11.330125422942706 6.386246368259066 15.33156403191721 3.4991968263708357 19.390886077749354 0.9038771829101867 
12.23808500736297 8.471133044168198 7.617701860476842 3.499214740144596 21.70705165123483 0.8576358772359544 
9.715027443782853 12.11352266944786 30.217367444478683 3.4992231588087823 4.51886801595785 0.9469452117940748 
11.245524305524762 11.20294386692984 32.319870442185824 3.499224939007721 2.7181755519954294 0.9195166827084782 
6.317133484239941 11.265105474709884 23.313547393936602 3.499227776584734 8.186706804579686 0.9064042671625271 
5.673230855181112 10.416796224673643 3.8102988885896423 3.499245350800067 9.255911240716259 0.8755078450629369 
6.636692338141193 5.960959453755489 38.493557033663755 3.4992594133997854 14.220872315469759 0.843295133730539 
7.750449064290818 5.396536495977173 8.245224306290034 3.4992598568683273 15.476205018912832 0.9265459807415581 
5.657054035687823 7.113385108129677 5.056827668108795 3.4992603564820226 12.696306836922712 0.8764074968591131 
10.865048440451941 11.537735809307641 23.272903048712166 3.49927147388629 3.2254603381079434 0.9006546195766043 
5.878554073247345 6.750032164546333 23.477882717645564 3.4992960796585426 13.122245199887086 0.918144930720507 
11.521614568220068 6.613795266857153 14.362915962165609 3.4993167871273987 19.689045219436633 0.8863387153056189 
7.434349629598573 11.992578890450751 19.080412387830805 3.4993218997306106 6.845523490118577 0.8887399787316727 
6.448074970064896 6.114337327195258 13.435310339935562 3.499368024123498 13.978153484525652 0.9232542735157002 
6.4020255720321035 6.155265682859721 18.86616259971909 3.4993756715929485 13.916574100838478 0.8951823627959314 
10.480863268714133 11.791340440649426 11.588034242239516 3.4993769918248865 3.6862378147444375 0.9023452733744883 
6.271387446764377 11.220246893254423 33.17058894295281 3.4993770735218495 8.25112839745664 0.9126984480386685 
8.45543182091985 12.236960580999389 16.549251768897747 3.499380588842859 5.7917313435651 0.9238437220100467 
10.514630332735893 5.7281069842232935 27.993262573149792 3.499393891806356 18.340051829491525 0.9004716637527308 
10.472693831551938 11.796015087995947 16.933177538510705 3.4994116582028565 3.695686651868659 0.8949658572856649 
7.389632119700787 11.97417165600937 34.288148513565076 3.499411898757272 6.894058326218506 0.922734394613462 
11.616123773187132 10.75779287746279 23.491908321546617 3.4994139112169553 2.13841689255149 0.9378448969667273 
11.833387818729319 10.4048810402628 5.04927818643808 3.4994159081351888 1.7237475931692643 0.945276838932407 
12.017262282326003 7.496607544250054 16.878015969360575 3.4994278774738317 20.70568593826229 0.8357842492309381 
5.255859639290177 8.557408973268458 6.3203990291548 3.499443979251399 11.186515877058625 0.9008435427577339 
11.56509402635435 10.828790097881425 1.345961769407026 3.4994460487719867 2.225872835156288 0.912155227655311 
10.024355251171341 5.490830444337773 19.13497614633762 3.4994524569914476 17.79512885861406 0.8894563492592734 
7.405873379471542 5.518975701863303 31.239885921297756 3.4994562987931412 15.111214417359921 0.885723745284787 
5.338730166722685 7.969337821083977 37.13392093057845 3.4994564310786527 11.781153201293613 0.9057550681590462 
5.305854286998128 9.369912537231803 0.9506671865019456 3.499490140892863 10.370771194663394 0.8780653240980828 
11.381862235442812 6.443536809615759 25.1460006427167 3.4994958601129222 19.469741327761238 0.9245524210432968 
11.516142646462432 10.893591083178265 6.795005543589788 3.499503946627231 2.3071242362580833 0.9007097249353737 
6.316924771232644 6.234710601841684 10.499405321205856 3.499505082912289 13.800661195424652 0.9128295379487454 
5.319602819906537 8.057913870778208 8.156287566875392 3.499515398373663 11.690730717980994 0.9343687793879024 
5.876362996003914 6.7527940970606615 23.476653998437527 3.499517259490419 13.119555959035967 0.9086450957967624 
10.390578989837037 5.658859145023484 36.05847102015151 3.4995215683289698 18.198638278084076 0.9026447678566167 
6.1477020785413945 11.089808096145642 27.76028001998418 3.499522310089827 8.431250652067103 0.9400412659952654 
7.698522738383394 5.412177451339577 30.265665445430898 3.4995233672662764 15.423137675219866 0.9170194167921504 
8.525924024013834 12.242344004012278 39.87157311598266 3.499525208563965 5.721270716828233 0.8892646768894767 
7.353959827115501 5.540985273215494 6.463694758505746 3.499529065606859 15.055140980074523 0.9121920734239211 
11.931465615853961 10.20774804666859 37.891985291558385 3.4995360881732758 1.5035834397852028 0.8425610799398336 
5.508120381422502 7.432017402111024 3.32580764298816 3.4995516269497102 12.345479754343113 0.854435242864217 
6.318350194921182 6.233266673554883 2.1961985043412824 3.4995524586694438 13.802876467649028 0.9093116454323563 
9.310629401107134 5.295645350162703 21.069946067107182 3.4995530246359023 17.05431064673785 0.9667122958334219 
5.408539551034961 7.710018829171661 10.020953195913854 3.499559796270829 12.050122166743826 0.8806322441595384 
5.867005262522239 10.733750414911258 18.71723521777595 3.4995605959870244 8.885058901090893 0.8768352243561407 
8.496910183714183 5.259599062991503 28.34899230603289 3.4995647095285105 16.23799921625398 0.8855239592361382 
7.133563305610801 5.646111542478776 2.046570648482387 3.4995701369884533 14.811081995841459 0.8828148118169242 
11.316778711203279 11.12879226568772 35.01394100157867 3.4995722017958264 2.615599105366961 0.9226607065985453 
9.576144469856368 12.15066269584002 5.444631099569424 3.4995744678392238 4.663101808022091 0.9202404317914568 
8.846079392190324 5.251726377853627 30.088656332608107 3.499592774167986 16.587533891031345 0.8817802834538883 
6.419603504590919 6.139175425680232 31.40343241576594 3.4995932311751496 13.941269336166261 0.9394592422862565 
12.216416402641913 8.269192167340519 32.84363248497075 3.4996026700829375 21.50631864429437 0.9062727178636074 
7.759171595197815 5.393590995670946 14.841933467006193 3.4996031678040267 15.486923872525804 0.8988191225974672 
5.344161346057996 7.945239420003141 13.748930217245103 3.4996251981894253 11.806424284313824 0.9220306950037513 
9.917733930812512 5.450935424763802 24.52303450798332 3.4996327814142494 17.68219725960383 0.9110730434339432 
11.415141708052504 11.01814706197034 3.124628645622444 3.499638755461158 2.4675903387681366 0.9086159164214308 
8.128719068266227 12.194063901395406 7.538742254725321 3.499652290304129 6.1218324078624065 0.9184360464352637 
12.162546105885399 9.52595710516075 2.5005105655098774 3.499654319192549 0.782459886313486 0.9217150642707432 
11.412353523743574 6.478545600864223 22.488958268334564 3.499661608319166 19.51709020212643 0.9171234302802115 
9.800641670293919 5.411750620338136 32.58793559236686 3.4996795339246165 17.558951377982336 0.8899866278511565 
5.3944051138282205 7.756040159286213 23.598512635434318 3.4997104458874833 12.002496756579994 0.877750710648082 
8.94858748400039 5.255915927352795 39.950065499276704 3.499722916964783 16.690749917526194 0.9021580823285865 
8.959872001404763 12.243434115055663 22.92706875389915 3.4997325859568718 5.287369096419241 0.9004728293523482 
7.223949418282652 11.89949253866413 26.171574517240245 3.499733365423841 7.076455450714956 0.9231634311468363 
