428

13.177904697940404 9.193325311822047 19.825988216171375 3.9283135486341174 24.625645316318064 0.9879541662649948 
5.821268787056585 11.167268038811503 24.48377761486269 3.92837300459879 10.3384209527431 0.8191519061671259 
9.642517093695238 13.15908706721532 32.59411654205502 3.9287442482188903 5.778083983917078 0.5830954027777178 
10.522449117138565 5.532772076542418 11.494667218084388 3.928983353316666 19.81071131612151 0.8948782816404648 
11.38402547820103 5.950925210604364 37.71063218912924 3.9291168483053567 20.771475232922942 0.7589686948816261 
11.01245005990259 5.7375562609503366 17.758391630282162 3.9298207635514144 20.346466726559196 0.8319126553431919 
11.789783405604824 6.250853035744825 35.86741248701594 3.9300613558297885 21.28145076094546 0.915347580982239 
12.86251697922146 7.699948102385509 4.350905157322572 3.9310227435696126 23.10602318056066 0.5991317651609367 
6.582132551930961 12.137158126311608 30.492703153742603 3.931055680958173 9.107229571202915 0.9805293940224432 
8.067836271348137 12.999456634412358 20.67659302901545 3.9314038376487046 7.376179909812318 0.8192367444254387 
10.685369418995462 5.589475544435846 24.76355059400555 3.9318856365325066 19.997904292489416 0.7323721599380896 
7.5008789369603885 5.7284750237027975 26.43748310508741 3.931992198854647 16.716430346561555 0.9176604533717778 
7.746036773326177 12.883282854626396 9.995134696228774 3.932257581709171 7.720053395903815 0.9651960596689401 
6.131103814792622 11.64641150987817 39.60655538004404 3.9332304202497133 9.779777125282962 0.9344627760361763 
5.852410226855676 7.266618151548993 5.014151593767458 3.934135206540293 14.438222892158318 0.6931101894957107 
9.141610439483912 5.316811943799129 13.523495178647053 3.9346812554856383 18.433345315912053 0.7309243323424734 
10.27377744492209 13.049269091513631 35.447230505264386 3.934789179417625 5.145057113521723 0.8554122546022142 
5.327622092169959 9.570028383598233 7.737714885702744 3.9354118740154362 12.043078871796485 0.7056832822331971 
5.468420220153904 10.339817027875409 29.384134152736095 3.935485584472142 11.259442987953697 0.7890502152614272 
5.693149995689728 7.565511863657266 15.882516065376322 3.9355663168902892 14.104636071115415 0.6572453444002866 
6.428946056051819 6.504651680746573 0.21995407028927616 3.9364047999022174 15.404691890409499 0.8502034783239443 
9.34314398534656 13.185761388611393 26.708276557665492 3.9368634101389 6.09085790634871 0.7774088423545936 
12.57962122535289 7.1493226216567525 37.92333334082808 3.9369052506002125 22.520477464864072 0.9225186401501639 
11.558966437667392 12.43926877703941 37.52477338014289 3.9373546122330585 3.7174813656448933 0.581127716778457 
5.594138824143373 7.787600562844588 26.58189052467747 3.937503403291006 13.868327955522119 0.8302753920158188 
11.69381032271052 6.162483582578064 32.14656393646837 3.937634635315534 21.192088318120895 0.9201454254328841 
12.846673597778553 7.646730077214562 36.33139853752904 3.9378338479760386 23.090902780675144 0.593064842403022 
13.163566205154426 8.811365934614551 26.31745512078861 3.9380706298190438 24.304081392026017 0.7207277897347166 
13.157984632381199 8.760393459090167 31.71530344029938 3.9385350641868446 24.25566923848389 0.7916801806470207 
7.250118027604346 5.856986930139527 39.65668756913031 3.9385359711137733 16.462258360908745 0.6851112763942108 
12.725774613814876 11.10398255211362 28.941607211796466 3.9393223363392957 1.9303081551165668 0.667912102515168 
12.97700088312021 10.525861817782278 0.1641751164192442 3.93933483736195 1.299291147442439 0.7070629930514972 
11.300491717014223 5.886240415408722 25.56474255604411 3.9394663121384395 20.720904393505876 0.7145919538142372 
8.896320716250148 5.326403796223527 28.252099027128267 3.939504563526101 18.21032176779279 0.7927510938037731 
10.068178175006262 5.396271935938236 39.74981323791239 3.9396237787120993 19.38921645750043 0.7811162930286516 
5.311493721135179 9.347139360039748 11.558930310918868 3.9397040198378552 12.279796000765486 0.8482518586731514 
8.909221892549938 13.175885310641293 37.352585006677124 3.940647813599479 6.531159399307885 0.7919184806166587 
13.180832373451748 9.534733422140535 18.880070637665526 3.941131343898627 0.28498170362160913 0.648978044782411 
7.508083254560555 12.785570123986522 35.37945506855055 3.941386818071575 7.995393052048321 0.645587946950504 
11.251790638621797 12.645225327283539 31.772524686789648 3.9414110143324925 4.091446579894399 0.7770056844256905 
9.12031074732168 13.189333083062293 21.25880830147115 3.9414672955092898 6.320955015617667 0.8365956208055415 
5.548565005640457 10.60449802915649 2.8969764827833515 3.941482706857697 10.999849624184776 0.91344336147523 
8.056350737440622 13.007016590326332 2.206815897235945 3.9420771456169885 7.404886111893365 0.7756392692299934 
13.09644250920317 8.385963664485834 23.819570725997288 3.9422935920215143 23.899053426171584 0.8385444536142496 
10.201468033232464 13.075857179095097 21.907894418964418 3.9423945227611026 5.2317433823089985 0.9482943919525108 
12.43584949574849 11.572885484883136 26.087404238891096 3.9427698367317476 2.4839738375723464 0.5556860826029103 
13.140175990662414 8.604621466344227 39.874272472491896 3.943346635794272 24.128482691057883 0.6579558429231543 
11.851745581325163 6.28662575412328 3.950857917738446 3.9434334013737877 21.424267833351216 0.9093112040557053 
5.370983001947806 9.960071159147866 14.584156109168688 3.9434723179238174 11.67481837275168 0.6847510834960713 
10.664655585723303 12.9311301392815 28.881361398490185 3.9435985506317413 4.7476900518142635 0.9504987525552248 
9.255662773977264 5.306326362790671 22.735452257823958 3.9436777028338637 18.58980612494632 0.6460708496979275 
12.544730574753169 7.082601451283777 12.724337215282723 3.943712214296387 22.484364838816425 0.9146471044098278 
5.726525567216774 7.475993109990666 32.937430480425554 3.9448666041170104 14.23316625557539 0.7284298606817068 
5.408231229836716 8.348052203216817 14.958691279880313 3.9462256792438963 13.307424839246934 0.7426926860502879 
6.907742010626885 12.426205254004175 18.645550070581905 3.946448061782379 8.706692714042 0.8825648286697362 
8.88502418399114 5.320379863251331 14.886562310738 3.9465328790486414 18.232099974465683 0.7094586154078636 
9.65296450167058 5.323938083991132 15.965468155882299 3.946687542476837 19.001994828814496 0.6378961432841307 
6.73090699063391 6.211802524425401 12.199349584856137 3.9467041300843637 15.86626440936481 0.6612849602209642 
12.982651098501854 7.963936325788467 38.91536237793565 3.9479924008631992 23.49599922341995 0.9220902840292444 
12.843397115674577 10.885552809961908 2.5150120472400985 3.948105346253144 1.6863644303571483 0.8532466869909315 
5.345961727458279 8.65926483521821 20.70332858316177 3.9484785510852514 12.99747264871452 0.7670056050632225 
5.458108715790168 10.351126527573228 37.61182895180647 3.9485337963593508 11.288762229858726 0.7669577605097687 
8.66375231554324 13.1553225079117 19.8187678164729 3.949079669787968 6.79162244194659 0.820823249231173 
13.092942749205797 8.339854854601267 33.31717111599146 3.9492496957480756 23.895467050162686 0.8878204480322541 
5.8625231125737685 7.219023902016472 19.676263116699445 3.9496662610184257 14.541424332861418 0.709823733276394 
12.863554349220323 7.65556204071642 0.4046663068378109 3.9496844735717143 23.175332923653336 0.5705692202511072 
12.982138169282166 10.543038485162953 18.69876674023441 3.9497852902056985 1.317324978446777 0.6483455649022346 
13.116212758451605 10.059482567749393 10.9704536096367 3.950045964429289 0.8152582733905618 0.8241833269256506 
5.970582017709569 7.048117379095286 18.1639048787071 3.9500467565349235 14.745058956561177 0.9005868629399196 
12.093460624293845 11.99208012611159 9.790485456255794 3.9502242645102723 3.030808109218693 0.9302378808652981 
13.110317738848279 8.411898539892585 5.290981061817298 3.950248992443497 23.975626416347588 0.7686674413882171 
11.730539109410522 12.324354763499757 2.9548902966534314 3.950282456378124 3.523230392187255 0.8783679200609669 
12.8650537553509 10.84515103409398 21.25826626121126 3.951344135309872 1.6420032892596232 0.8393159734182198 
13.20141613477206 9.300370643355249 0.8553138451196531 3.951737171403097 0.05037200742599168 0.8269590119831813 
8.314002799280695 13.089599281860965 22.20902190086195 3.952039145178295 7.152824758663549 0.8551515825503359 
5.5963946829280005 7.742375218040017 34.72390093852538 3.9524377662547265 13.963757585433605 0.864504489833407 
5.390123886982181 8.398762359029199 29.36440653448461 3.9526255994276913 13.275498494009959 0.7975007546639905 
7.4730419823833465 5.719175937316043 38.41238837207248 3.9527583227412406 16.783920761093327 0.8890620038790369 
8.178473197701631 5.445180716821003 14.105127739428347 3.952824239160465 17.542141347876793 0.8525511858337961 
11.658989051038102 12.38444280371708 6.824429708171671 3.9532214632872837 3.619276725898491 0.8487229747075565 
12.98984087132281 10.53197317380215 4.143433827304214 3.9534624016379536 1.3055741365751032 0.8829508654371724 
8.3210344002191 5.407163350711116 27.35039675949342 3.9535263498165905 17.69282049528188 0.8274880826267438 
12.640690326606345 7.216014398828577 25.96858906840623 3.9539699438304434 22.707090911978383 0.8644878348926509 
8.303575837326756 13.089067177200247 26.168280065781488 3.9540049932629073 7.1666390996665434 0.8765561482722903 
5.722693908849882 7.46290617485753 29.13684129077145 3.9541867179645265 14.276759330270622 0.810985060413868 
7.227613450036012 12.64790477813843 29.500541756698993 3.9542134791600723 8.334172625340663 0.8797712173772753 
5.405944009284822 8.322628619463503 1.6463018755559347 3.954337382822995 13.359007053995612 0.863792808074467 
12.426931186907005 11.604691988438717 16.749255745240177 3.95442361498611 2.5222707396131483 0.8528581151353455 
7.613352818407195 12.849843821002656 4.663769513056167 3.9544265744386577 7.898988591316208 0.8518948491329463 
6.299454423305294 6.61715630305684 32.546114301402284 3.954438662147393 15.304274148010812 0.8469459569867651 
9.699317085868463 5.3211055646512495 25.354892853960934 3.954503423663669 19.08544787343071 0.8245597051194874 
13.133022830911608 9.99860882271605 25.604252669667076 3.9545267068043857 0.7531537076931514 0.8398044674313152 
9.539689592729045 13.19453724926288 0.34433243724544127 3.9551604481939644 5.922802272300714 0.8422340587595579 
13.19713418608505 8.983062712880962 38.42157950247797 3.9561501233163283 24.590084075206086 0.8004937233758324 
5.478173601636799 10.44455074339804 12.113884017168672 3.956466334741435 11.216118475231564 0.883438032805723 
10.563111534291838 12.982487492040654 19.51218768708845 3.956731577922645 4.876725070419518 0.9061326673215995 
11.613977309555716 6.077049968549209 14.789098202006002 3.9567664351308225 21.179417942648065 0.8255708440487274 
8.652267827834844 13.161509273286207 23.78968318498297 3.956916545069569 6.815539102337457 0.8631466461282814 
5.615033189025546 10.813721677617576 22.77515180272784 3.9570455142614853 10.823846457388285 0.840027401639268 
11.164455805928458 12.7134243296154 35.83574333990591 3.9573285332184676 4.217853820526237 0.8748060373284319 
7.833233655375777 12.94511433879145 24.517490185832962 3.9574103719480536 7.6652071128742065 0.7540914628098141 
12.793914831116558 7.488701159040495 32.48615744642046 3.957462057603736 23.04013296149592 0.8438133588534087 
13.20727913383701 9.295105855785067 10.072363343168526 3.9575361882524756 0.045106832399476104 0.7859658894526438 
5.337915867827286 8.649091271601058 12.531322352445656 3.957965835762552 13.03755790174079 0.8332621734671285 
13.164897460619615 9.834275876926355 3.153659879940463 3.95825724625421 0.5864187060659205 0.8398832810745738 
13.192923017807285 8.90070964905942 16.912628123844193 3.958364014793817 24.521389380626765 0.7639110067243714 
7.744649589589471 5.588952987933144 37.089869477546216 3.9584523595322927 17.1095462865798 0.8789762090207003 
5.456338427461832 8.119381023978594 19.855046072422986 3.9585562261880844 13.5827552059291 0.9164835783373192 
10.189618716879059 13.095461585462505 34.05184099192873 3.9585929493163703 5.269469933357627 0.8907947729290051 
9.07480042049579 5.295148901015011 32.034204478534626 3.9587298604225594 18.479818148483766 0.8983089860420205 
12.74496940664769 7.390537895179474 5.851790478553681 3.9588395361099065 22.938449601549465 0.8546775629168969 
7.578425175760856 5.661340772159697 30.19369325598847 3.9588682027308626 16.930016418667073 0.948026003078687 
5.337186258461173 9.859129786337043 18.51016486884678 3.959943241080363 11.828970713849031 0.8407411817063113 
11.099100763157548 5.748184038902478 27.15599045756482 3.9600364465124813 20.5851270386283 0.8959055711897529 
6.0015225427198615 6.985151594706904 35.336802898136234 3.960068697562695 14.851996108446968 0.8543994146714903 
10.465029985615415 13.01907054043282 4.859126697885493 3.9600745705987825 4.985521144269818 0.8790217617737207 
12.681205838205807 11.227443786850467 5.065502383797252 3.9602345175874514 2.070487579043782 0.9041366691932379 
13.127430233390069 10.056134397464993 33.77770050803374 3.960343151998774 0.8118076226567261 0.777094002072888 
6.057074490703833 6.906870146913532 38.29621637658396 3.9604331601908407 14.949358681929244 0.834251913458326 
10.764778682570533 12.909410344500722 15.592574752501527 3.9605351313438697 4.666818217305693 0.8798249813819884 
12.267498082303309 6.684535261668254 19.60704743370291 3.960669640392608 22.09490245220979 0.8744098024628034 
7.777914491800054 5.572887531358154 24.922524163040855 3.9608322169076584 17.156708380291978 0.8797651589750385 
12.636859071109136 7.195459646994744 16.615945190452173 3.9613066568597293 22.729627142199273 0.9076983848781822 
12.826935595001842 10.952435865908628 25.064368531603677 3.9614083516248653 1.759743371686401 0.8345229689806315 
12.39236816462305 11.66214874556269 34.198828314662535 3.9614314651090563 2.593484561142823 0.8442417393331648 
12.877273848021801 10.842818488308568 34.616408355347005 3.9615888612071384 1.6391932801405709 0.8204141054517885 
5.449432668557785 10.368047779876429 6.763896050547892 3.9616086226320246 11.312312331108608 0.8938813386775911 
12.843296740554521 10.918355543453908 33.33646723341645 3.9617157501583926 1.722075391892929 0.8405226618034654 
8.089796517819238 5.461961250864221 23.410919018235703 3.961730642663447 17.491753917944134 0.8948390732538464 
6.657158198343282 6.254101867599802 38.84266286669791 3.9620997246583083 15.844379455511891 0.8268927914642396 
7.509569509952243 12.809721462906174 27.09593533990875 3.9624127983039252 8.026038742908998 0.8675248725082881 
8.501427378024218 13.141164746293827 18.378294188406535 3.9625148647256268 6.97740202959567 0.8773104224759319 
9.547500912977846 5.298307499748054 12.030574601935832 3.962875270528979 18.972390822295253 0.8715508285817136 
6.654544531297134 12.244754049445396 34.718801448413004 3.962945988363863 9.054885351735123 0.936234942215925 
6.097084620010282 11.650900317691077 8.832309798396544 3.962978391168038 9.870911526977004 0.830140217539574 
12.091478653552358 6.487162787097978 21.040442752814137 3.96323988721222 21.84465902032462 0.8896805235750773 
11.903696096601486 12.193929162064157 31.02242763701375 3.963435616276584 3.31819263994862 0.8778030074777868 
7.857510745258118 5.539193420268363 1.0326173171726154 3.9634721894761946 17.25456795440251 0.8662154547814614 
9.071858255136377 13.209513854233789 30.56134322058999 3.963519199288982 6.404083175761983 0.8566874218906391 
13.17087839430735 9.83029453257357 21.700148622883567 3.9635879109060994 0.5823878731979093 0.8603977770551574 
11.598664019295603 12.442919049264345 29.771383411083598 3.963704672486198 3.7123451320575036 0.8045704129734026 
5.5918017880528215 10.77702184217612 4.279838112645649 3.9641152688054415 10.886078589434078 0.8695665312724148 
12.973817568727947 10.609423016491673 17.386522515479804 3.9641957851415803 1.387584532027624 0.9034390688428791 
7.593731687125484 5.648115183391001 17.00779146503907 3.9644418215368797 16.973311414344572 0.9427939339002841 
5.698999456836306 7.4870839899389505 6.544776727604308 3.9645274265766433 14.281818179634776 0.829803433403536 
10.42626873130883 13.036050361283353 14.019575010690986 3.9645662393796246 5.033278158267745 0.9092230331874613 
11.996496992274722 12.109284273309848 23.004416255314176 3.964688169852853 3.1936168378377943 0.9002077056134632 
12.905584991841252 7.713685806550428 35.096439193127516 3.965294810423258 23.337076943428368 0.8545507977931011 
13.14156596243031 8.488767536516422 14.489716441862036 3.9653197227219192 24.148851196015972 0.7722806266300505 
11.97226253210777 6.366416937740841 17.140045330794273 3.965572413998475 21.68778645757709 0.8900778635912511 
7.373393083077296 12.743466968660352 8.528109687951996 3.9655976827917194 8.18396510568688 0.8747744023433464 
10.056892280329087 5.367178362765047 27.626848050109075 3.9657759667730343 19.50084481495483 0.8073597462781694 
5.327045783093659 9.831644258637567 35.58079313053159 3.9658391081269655 11.875301087151769 0.8605008792652175 
10.837127321807873 5.615235820423548 19.27150953216413 3.9661673914197193 20.32298875169694 0.8364839801778923 
6.565337951257854 6.330386863090519 13.709104042468311 3.9663019533528705 15.741815475093414 0.8659903310915076 
12.512900819402503 6.9944555478489345 27.4450261434435 3.9666109631380535 22.52377629166345 0.8088086751403979 
6.856013755559438 6.087222507969587 33.59645529517227 3.966652442887431 16.1223414583597 0.8820721477541327 
10.226431540624068 13.094670841061363 39.36574473076373 3.9667256559576907 5.244346816653728 0.8777038804711094 
13.022232528723755 8.023055030507061 30.86467417521181 3.9667533587211676 23.676444049405042 0.9003288463623988 
6.703009905785898 6.208682404440493 21.615398594503176 3.966959951535259 15.928211523063283 0.8156304362766499 
9.38457959291987 5.285316488429899 17.4401818674572 3.966966979160063 18.828496899269048 0.8649345123883843 
10.877708265475784 5.632257225834186 32.53436519869872 3.9670514210843204 20.37152099517327 0.8826591203949615 
6.970613074910938 6.002981086007063 28.415954692988656 3.9672076555298754 16.26684546624516 0.8193491424619885 
9.288942794304676 13.217168749130265 35.34678422453199 3.9673598809919013 6.192970908448352 0.8505028919038412 
5.464295782792169 10.437096708392367 16.058330416834835 3.96746203702835 11.258586230689161 0.9038581969539865 
6.36378290617013 6.527650063494171 36.2624912798295 3.967548145833774 15.464637078587039 0.7944305410882433 
6.261245718470484 11.859483154220689 28.868559376613398 3.96762579983579 9.616887872665583 0.8308329084165803 
6.008118103411938 6.962508788006675 12.797525171926239 3.967671140149101 14.902854950346445 0.8369288085338998 
6.438666611422645 6.448961157759021 24.583753259562023 3.968553139051125 15.577192386174076 0.8983421817559384 
5.494017704484836 10.53167065485039 33.54870126927934 3.9686373822419196 11.162776877383308 0.8332733820436923 
5.290194069056007 8.982870998615516 23.249777419241333 3.9688059809116276 12.735702820434938 0.8222469308319649 
13.083914841691172 10.27652770181644 14.8709038839742 3.968962350027573 1.0383313536855638 0.8850285104217341 
6.007017587752122 6.96164939754007 30.29363886609807 3.9690658102288725 14.908161133155971 0.8224450440492878 
6.22697251831309 6.677984177346277 20.619194354235418 3.969125917253747 15.267463480580005 0.8665985441805651 
5.453023961584915 8.09290611624567 0.28820748868305657 3.9693693821714304 13.644283321004824 0.9113987174071159 
12.98366280339729 7.902015593964508 26.964626358757513 3.9695465595439674 23.566060372995917 0.8931371150283691 
12.411632727105747 6.849505224659929 23.466916264894444 3.969672110834987 22.364280756443865 0.8729838846394524 
11.940401870743925 12.169065907248994 26.98516192024789 3.9697868956615063 3.2795979668717052 0.9061448631714882 
7.326340836725896 12.722692777396595 21.662931670151337 3.96989416768645 8.244114525001894 0.8665300944698058 
6.450042473007823 6.435398177968295 4.495808755006308 3.9701064934765067 15.600926834412832 0.8917055106863977 
11.729695699476785 12.350513192297626 25.493673800943526 3.9701477072793216 3.558030438127094 0.83432503837208 
12.00519883121966 6.39146779361676 38.45025110930864 3.9701797156406413 21.754131143401317 0.9073148812811884 
13.219142663760799 9.34369897918687 15.340686300970773 3.970248478872174 0.09370767933856428 0.7784098010260584 
10.821572280692706 12.895994600740513 2.5304050364872097 3.970279091206392 4.620691198171361 0.8585713200540053 
12.786867922299082 11.053890657173023 15.73642549836785 3.9703219268498002 1.8725440386141656 0.8108143939037991 
7.569368557041059 5.652901214821865 7.743602670572258 3.9703452894417484 16.974451718474732 0.9282511144869032 
13.017203288703117 10.504155769639981 13.402634592957817 3.9704820000771712 1.2760071364044734 0.8858453200279098 
12.544537228763211 11.466178045504082 8.940401080999308 3.9705693144788516 2.351196289693302 0.9340966613068894 
12.614834602342912 11.358083083147934 35.88290466281858 3.970658155341343 2.222299034556368 0.883453993607203 
13.217115829746822 9.41776220039946 32.7335660661548 3.9706614263256825 0.16781215258271232 0.7557016930598155 
7.87894863734237 5.523489083329386 28.737837825829438 3.970726060950392 17.311735786266247 0.9020884850217794 
7.778065527027826 12.937898786893882 36.78674628723648 3.970791930471455 7.745222654173432 0.8072628291748553 
8.369992221900256 5.377826452026982 12.586538707712947 3.970911945024469 17.825106664121126 0.8650820202665556 
10.350159196933232 5.434428610427746 16.854691364250776 3.9710118719942327 19.82769518418023 0.8986531787393512 
12.471892994721374 6.928570441504171 18.078948738702124 3.9710993017668037 22.47174277122666 0.7817694658423651 
8.620100650048938 5.328922670468744 16.492720629612485 3.971349973904687 18.081975042782553 0.88555917386615 
8.724958257504587 5.313473850648126 20.41882856953103 3.9713860245377446 18.188132351940737 0.8667118559587009 
6.3564093186546895 11.97017744752134 11.78973009875844 3.971426995070177 9.480095568998756 0.903893389336892 
6.777417360338008 12.357842965558351 31.931975656269252 3.9714421572683647 8.907329915904281 0.8941783983650874 
5.494712119255423 10.542534086132957 34.69344302372981 3.9715024148403413 11.16032989252557 0.833414595438001 
5.847439512202278 7.201335350114999 31.530279269877646 3.971705517886581 14.629980506702118 0.8842804686670314 
6.424529106168043 12.041786243892005 2.62474188352941 3.9720720289889253 9.382793016494134 0.8957354601550707 
8.888717928663228 5.294351558706776 5.612306672445456 3.972112703105855 18.356358063552115 0.8942887429930666 
10.87060350507453 12.87707374037627 38.52517684905486 3.9726590136565867 4.5709434950610515 0.8497089736745488 
12.418995003562545 11.646001915509046 20.697863282834945 3.972827017594319 2.5719231597364995 0.867991208623801 
5.308193190296981 8.7537000249499 21.893964928948094 3.972927710172414 12.978920435737471 0.8306173230999903 
6.7550988563534595 12.341940049867892 27.80681079765351 3.9729869101906004 8.938161074305643 0.9086723947277374 
5.295173188741019 8.870145905524348 27.25391142689749 3.9730270877685707 12.86206790293965 0.8296988214869179 
6.829883992878587 12.400953504526427 0.13921972413129424 3.973093187380919 8.84313175511604 0.873645831885208 
11.502129725689217 12.523173717479414 5.346545287444428 3.97312905480441 3.846509111428155 0.870142366107155 
11.073744887485235 5.720029134521125 35.008024227911555 3.973253040741075 20.61826070452158 0.8510577673011582 
7.183826501450746 5.855928864028584 35.97313354832321 3.973511268656675 16.5518736015886 0.8306855500610104 
7.239177773742746 5.822642387546621 14.635749831682709 3.973686730135169 16.617195502452844 0.8439419329668428 
5.299873490267478 8.817108207541127 39.26874671436946 3.973775880301994 12.917737719540519 0.8445201849117812 
12.233230769237233 11.875192404091196 5.939056973894687 3.973826994349637 2.867693486185651 0.8987335561636434 
13.223748689806769 9.220090535706529 24.757578936763785 3.973861248936017 24.93859686539447 0.921391987197432 
5.861218270015932 11.326047274898944 38.18564006213851 3.9741431656508226 10.300751953533268 0.9052900204499447 
6.126061271636987 6.793326442898328 16.683985697428355 3.9741965407776343 15.13369009308811 0.9233974292968092 
10.352527960781101 5.431615668910668 34.33747716331603 3.974371246400197 19.845965629672794 0.8634198093634701 
5.564557275351712 7.761312945607592 8.119200299374903 3.9747549889997673 14.012952883684598 0.8606462781338869 
5.567396495732032 10.745926545993054 8.238846865560333 3.974841481198138 10.953631840670514 0.868349524029905 
5.5700035230428036 10.752531403232837 17.524522386686726 3.9749181989216096 10.94674284416158 0.8620577981929446 
5.908051154110131 11.402077527594784 26.071607576929516 3.974928901668947 10.213484489156173 0.8354484229156347 
8.584978886944901 5.331056831856735 21.95709452096466 3.9749677528183573 18.0634310547292 0.8868521181326254 
6.3104619455474396 6.574030071563477 15.339128874292271 3.9751350960025618 15.423879863788223 0.8225224673226843 
12.477052678058067 11.571189882927094 3.501027074756813 3.975146721765735 2.47872636596405 0.8637058401895708 
13.206879325738312 8.86811948565403 7.632612157135547 3.9752643592209584 24.594852294020683 0.9266581795766158 
6.079550039613702 6.8517519001809575 26.02972546107828 3.9753423625644038 15.063372129416877 0.8885847017786227 
5.666133705439526 10.970253302191448 32.26339685349283 3.975345147403833 10.709871020075077 0.8591286503553919 
5.342339607519884 9.980662103615515 39.90832361764233 3.9753838622977926 11.754197037267534 0.7937385607913291 
12.525541024718644 11.502867547327266 22.106617083883577 3.975497602868757 2.3951608084162572 0.8871801044219351 
8.135490402743004 13.066246189013327 30.041949790934567 3.975659268289566 7.374599936248121 0.8851848100505314 
7.213249624908348 12.664329969143665 12.42356501110801 3.975676197658528 8.383351262057904 0.8461142978731375 
6.629553533751947 6.260073122145798 23.078617357915924 3.9757266527500197 15.874092564833006 0.7816127387342431 
10.701313497447936 5.548629278860556 36.826801026578245 3.9757334019250954 20.220850152416148 0.8570479425400638 
13.089769151396263 8.21879621286661 1.2962565133241029 3.9758280127053576 23.937733828479736 0.7975298349741874 
9.092005369175398 13.222714598127713 11.961468488537093 3.975855075521038 6.403294791786809 0.8705267148583653 
11.391608556805307 5.900202538362635 10.891121512540217 3.975881065194714 20.997514590377364 0.8865788589311526 
8.94884530369883 5.2855378468916605 18.879430350244448 3.975884092190397 18.434468969000665 0.8758720367974556 
7.077933724172169 12.580156061469378 33.372955179050884 3.9759038343916004 8.543206434918083 0.8725165292052095 
11.279920453145106 5.831317538606022 12.351910288768089 3.9759233918600154 20.866508859846377 0.8854170300810769 
5.4983976999511945 10.566853668896087 21.3359597600869 3.9760059611394656 11.148790102547323 0.8313627755060248 
5.353135777567747 8.459398661020707 25.688260066383837 3.976254675604719 13.287677954266059 0.8407986560246289 
7.915225002722357 12.995658419437326 28.557120462794536 3.976377910669362 7.607284935624975 0.8049354037711112 
6.255230696497565 11.865939900143154 36.943549499745124 3.9764034934047463 9.637255863592394 0.8352278080442193 
8.609339780934805 13.174500986654746 5.242156313915444 3.976449862697472 6.889657608613938 0.8861682946336547 
5.4691269216689395 8.018023711008915 32.00692980891663 3.9765269785435673 13.74521578002804 0.8936686509254472 
10.153815389085759 13.122489900388722 12.55458472806054 3.976563879300931 5.334588228633962 0.9153525919445419 
5.423006620622809 10.330804783198639 1.5990520973986335 3.976684209889176 11.398548314558457 0.9117416060780728 
12.705456826104792 7.2817738821550595 29.981954085000645 3.97669409535624 22.927308477953098 0.910130415616247 
7.025715921438396 12.546694578441269 1.6203234732844933 3.9768875777002664 8.60733985434414 0.8465370969399935 
12.349103649961224 11.742361567207073 11.344540076891825 3.9769724181711266 2.693638835556321 0.9048134293921416 
12.94256667090995 10.72714462723308 30.554224483840223 3.9770598271686324 1.5134061484555161 0.8868931359816467 
8.670111922576025 5.315420136662329 37.602151567797485 3.9770829615838736 18.159599218245617 0.821435322112876 
10.52581441249472 5.482978028938442 20.774579503767747 3.977204664785274 20.040910196509536 0.8532878426685209 
13.160142722750207 8.52194389763554 27.79623856568211 3.977346075018685 24.2582178606922 0.8322514396273083 
11.532459488952638 5.992657961929808 20.125303511794144 3.9774235972158194 21.174183661204836 0.8859150231522074 
11.714794042949622 6.128251799422083 9.400703795387095 3.977501917280669 21.401859571180186 0.8954032757188081 
6.853296999972416 6.075631724406756 29.41752431796518 3.977536828168162 16.17140990248444 0.9025302801044511 
9.919105288495535 13.171023930949803 37.99982247142871 3.9777041813304517 5.575861466499298 0.9437187312314015 
11.313181701052747 12.65092769271723 9.261512716432115 3.9778169770176564 4.079249505662958 0.8963848826205298 
10.097269480473182 5.363436876416671 18.26289715431995 3.9778434466603976 19.598955999348405 0.8927737759329846 
13.225992602104428 9.12494051047507 34.19083215666969 3.9779589047537165 24.86917284370315 0.9513049101790513 
9.99218111989527 5.341694112391174 23.72519448218543 3.9781512949920366 19.493151734216514 0.8477613320268736 
13.173131958037354 9.909407317420246 29.975279566099722 3.9781631905241674 0.66246484145152 0.7697916511987168 
10.057524076403803 13.145398405485981 25.787462573371535 3.978218680695486 5.435796334254405 0.9510276630466247 
5.8496844866256925 11.31498330782492 29.88526640906882 3.978228456497885 10.326800278177895 0.9224922317869023 
7.988768279451778 13.023130248507128 33.95021783725364 3.9783435403590413 7.532542578887334 0.8053674687731642 
13.201206804194852 9.714568670955314 8.556143376022874 3.9784242181482994 0.4656309894513626 0.7903918002608653 
12.036180398365351 12.090078147397962 4.503258967823463 3.9785481140188232 3.162856428457385 0.8563915812388039 
12.469034835042416 6.911063095349933 35.503713796964924 3.979046508040661 22.500839398335792 0.8694323156974878 
12.154704132008971 6.530401349601471 25.043583274628993 3.9791359506505297 22.007355429544532 0.9094373267006521 
8.887560041686536 5.287381772684814 24.322037918655454 3.9791589486765653 18.388401784645573 0.9083694538202588 
9.992484814263278 5.340569374291627 14.413659784087663 3.9793129453007503 19.498932408486755 0.8196970076319858 
11.056875492560946 12.795451844496586 26.319009493082667 3.979325046695934 4.3751600189482645 0.9345584915968749 
11.031130002592143 12.808465401057989 7.819268498906908 3.9793341272957563 4.4040176781035 0.9447361470907932 
12.961902448878186 10.684617514409785 8.001696979543695 3.9794908220322873 1.4676635347321252 0.8969110365702939 
10.52251780162217 13.020561580208456 18.056062392552782 3.9795020022094962 4.9557199978423725 0.8357073357610577 
10.540722951861513 13.014478726461686 33.091947834868265 3.979606239371519 4.936655324508617 0.8418195213406261 
12.45508942747933 6.890890285751611 8.76010812483679 3.9796980893028637 22.480006795150597 0.8576002132582723 
7.621971226208986 5.618447523188978 34.14988426038472 3.9797802803827946 17.077033433281365 0.8946253086960722 
13.162622456324415 8.521421532133965 9.182627504674443 3.9798795295300233 24.273610022153093 0.8734341871105789 
7.086115021373878 12.59022548724012 10.900192331898097 3.9798874992055113 8.539412765546988 0.8512238150635905 
13.177239701645872 9.899760669986529 7.072012610042343 3.980628166815491 0.652681222890827 0.7881510567345087 
13.12434966531909 8.335966151564593 29.29267656851463 3.9807088822524697 24.089269114937235 0.8280135314610919 
8.13749515285633 5.427430369572738 39.48452684230408 3.9811688753911203 17.63329890623622 0.9069414952265524 
5.696764575776079 11.04564439484191 5.900499282351319 3.981183338240895 10.644372158027714 0.8659467460077857 
5.787946604082036 11.215971999817535 2.060925282775571 3.981313805800004 10.45150041494026 0.8915510746581025 
9.66294238042675 5.290110639266993 38.55398313108455 3.9813622240131523 19.175413837415405 0.8368641867203735 
11.409516475761778 12.5949436911226 23.936266012173213 3.9814770758937503 3.971587399468575 0.9120011541974917 
10.196875903484917 13.11727311308161 3.348387013112294 3.981504151418695 5.298095553388812 0.8734291823027948 
5.371849626606808 8.348675239752845 36.33691443883612 3.9815118538168823 13.41749462558241 0.8187672759382503 
6.553898472312694 6.3202000495776485 30.852515749086244 3.981543820817827 15.800783240624071 0.8734618065802392 
5.37091908392032 10.148771793252108 10.690703811405228 3.9818412185619807 11.602739016989293 0.8943796134586992 
8.427035871958507 5.3539787857581675 35.02201624380589 3.9819908661202996 17.93575163285328 0.9021716804873844 
5.888210562013478 11.384156775699916 16.67892733376918 3.981991131158329 10.257439845957116 0.8576821360477448 
5.522684219133202 7.848771909339662 38.836633495320115 3.9819998860314256 13.94170915789563 0.8693842884235132 
7.422175589659345 12.787838506268718 31.253003066255346 3.9821154392451787 8.154078518576437 0.8701984661711958 
6.582489668221445 6.2931846907891345 3.072367493260849 3.9822566646223465 15.84294494440418 0.8846644991226219 
11.90258035856293 6.2795681442511775 26.72501608167896 3.9824173523478477 21.66960848881796 0.9272339687211079 
12.589005348339953 11.42046717165231 27.520866316943163 3.982447044150521 2.295479120605897 0.9111802898351735 
5.614337718437026 7.6245303181385236 11.961421755675737 3.9824856449497115 14.185710706352062 0.8158133670361438 
11.462525753351487 5.938460498380021 29.47929778210417 3.9826579165217155 21.113667596046028 0.880168645799667 
7.82088986002227 5.5325680355297795 6.281073904365989 3.9826694819746313 17.306182390917222 0.9120938260669089 
5.286433916477268 9.639860045981033 20.91758631912205 3.982693429565481 12.121515056419298 0.8017677529242851 
6.830442992611106 6.0864218143060835 16.10437586285539 3.982773286166703 16.167958670844342 0.8927457118207313 
11.585814069774989 12.476006536624721 10.75974629358376 3.9828564552220844 3.7602395647540483 0.8271547711878058 
10.215180802040534 5.385665953392964 35.47309206382997 3.9830455187449147 19.74454522029354 0.9142853176261682 
6.918477467471002 6.020612822930778 25.365949977725272 3.9830815782644433 16.27913059534534 0.8895224065069579 
9.236518575234703 13.233083592586075 8.141078110738611 3.9831064076097804 6.270130364812317 0.8227732873512735 
7.578264427941958 12.865402810093242 13.933390594550922 3.9831943590684005 7.981955169501816 0.8627271767345103 
10.187529643409691 5.378694261685341 3.6749170691825768 3.9832110102001717 19.716848907773556 0.9050548725025539 
12.657261296883185 7.186789709845707 7.29642774697335 3.9832482029917022 22.858694783000765 0.9238351461997014 
11.619419875711062 6.047889462810131 5.450109299930837 3.98342345725345 21.309047615027122 0.9058628606957287 
13.080801464966811 8.157619585302758 16.131248358654418 3.983507855446751 23.922561321194642 0.8422584478357336 
12.243301612035665 11.878483343980673 36.66758737290825 3.9835636345110768 2.8705374523803435 0.8792216002396575 
11.999320651084659 12.132731754810731 13.60517702022397 3.9835795978836313 3.2230408155220296 0.8952180214037878 
9.388828967323569 13.231195939632546 13.458812103795545 3.9836157686095675 6.118591932200527 0.9244067700529918 
5.266762009917171 9.313152694627787 32.805042475491554 3.9837385893752955 12.452128546172695 0.8884571893334516 
12.82337401906018 7.488761686632477 19.0433893874386 3.983837631802776 23.206855411369247 0.8124665100846266 
13.227202419638305 9.480174893070023 13.946257836616013 3.9838573729711437 0.23030314627624904 0.7855991330331513 
7.06642939658556 5.917779536641534 19.986294545309768 3.983926931624198 16.462797074280417 0.866926317455542 
10.284418429769238 13.097295284363044 31.783509084571428 3.9839305331454224 5.2115346878624464 0.8414410364218453 
6.292262121126948 6.581000272788446 6.01104285253674 3.9839393700175436 15.440635140868523 0.8295887383193952 
5.61159839405199 10.872960501625604 9.78589411744477 3.98396373427293 10.844415434071934 0.8908235048230371 
6.74859822263125 12.350973551424437 22.656417121273577 3.9840993735670573 8.962547478329185 0.8927346083881047 
8.684856997878821 5.30596346113022 11.059542820570506 3.9843206237433297 18.208613208069316 0.8103934312439912 
6.323973107241114 11.95444654068533 15.786453631010943 3.984427746687478 9.544808080900076 0.8739011412642177 
11.124599887386946 12.76607345429043 30.633156554296697 3.9845824466005175 4.307256187013543 0.9040598643868379 
5.907623253945287 11.419398589621972 7.3962495597710785 3.984692278359909 10.224240088997163 0.8644460273636605 
5.880178916168541 11.37669674774182 34.213350391336924 3.984787722563231 10.275246453302266 0.8864375353445405 
9.239314291786666 13.234919099181104 17.326456903963418 3.984933426216597 6.270204509442699 0.8423187191434445 
5.628359246513908 7.587634460367882 21.25223205377545 3.98493926361089 14.233856850885356 0.8173756586579509 
9.847024012404495 13.190076295173386 20.415940028608404 3.9850519297964957 5.660424710960058 0.9200339590494769 
13.127067762977552 10.171605329474703 37.77801185969136 3.985098596275373 0.9300245342746365 0.8473434307944766 
12.99304944431682 7.882304235529173 17.563449642733545 3.9850985993764176 23.6430358244922 0.8949073603606638 
7.129526621966338 5.87563831817773 5.455828893101788 3.985313551867645 16.54440452026358 0.8536462792337134 
6.230465127260915 11.850992356978681 0.9679169775091339 3.9853170625119607 9.686409050172898 0.8984524609326504 
9.680377147365501 13.212035659616706 5.859369618618047 3.9853420251025913 5.828942547682249 0.9024528618276646 
6.011971155369805 11.573697140329363 17.97257220598984 3.9855237044373517 10.040068851188202 0.9203303669046746 
11.193737774072249 12.729481954161422 3.9373124963501738 3.9855879370163585 4.2301144981555545 0.8633309710541536 
10.892675180155825 12.881350965549391 20.96515870567024 3.9856105658351053 4.567438700488921 0.8926960225439116 
10.511068604663764 13.030876190850604 23.40435474215454 3.985639069987346 4.97750893914737 0.8331026322973707 
6.4901163519094105 12.125556513085034 21.148987966894452 3.9856973054841447 9.309279221403866 0.8841583004384158 
8.802093749801896 13.21053539762919 10.540294812513366 3.9857823127762932 6.709706584922092 0.8629398825908249 
12.05662900325211 12.08009333486023 32.485515689366935 3.9857991226247522 3.147031146494996 0.8618722070620408 
13.049019065248734 10.456112366255796 9.488360645169998 3.9858816964579504 1.2253210340032261 0.8475951198469718 
8.19628235152794 13.094178694353884 16.759510669803042 3.985979266983939 7.3275550799590015 0.8668277493228485 
9.185290286625241 5.264441088490271 31.032144152450755 3.9860841918002285 18.71926666435024 0.879233719150299 
6.896367386822879 6.032960788893044 1.6152285840423417 3.986091790665465 16.26627908954708 0.8688320545413223 
8.144171629823182 5.4199964085198875 32.60788496595447 3.986450036691601 17.665177970170507 0.9464524848263697 
9.593264654456577 13.221708487181472 19.362092190166805 3.98651463438283 5.918312289299898 0.7851965473954173 
12.610484088763856 11.394826058445942 18.192713544161315 3.986619135536252 2.2646791390812915 0.8653973931074437 
13.050254538293986 10.455286745395211 28.178857015911625 3.986809588436525 1.2244455179993494 0.8519541346618792 
6.282849179823588 11.912868547244711 32.85623044097265 3.9868349463677 9.609023172131188 0.8794736591950123 
5.346239855622709 8.438976312082461 24.257074448509805 3.9871170897268557 13.342621046300355 0.8646653583771317 
12.912886858506612 7.674912249598636 13.589919168587997 3.987184665861973 23.432989531202686 0.8461817773214131 
7.40001334830343 12.782079799703565 39.2976993188299 3.987234420363254 8.186893582896388 0.8625775368999734 
5.456929653636214 8.020805440936469 18.78602263311067 3.987267474912571 13.77591752478778 0.8932095477753659 
11.241265776246275 5.795524964438412 3.0546019531562365 3.987296974513924 20.87468736793973 0.9063103843628346 
12.31198304016584 6.6960165107858085 32.980790274399965 3.987301318115039 22.281031522990617 0.9397430306792317 
13.237271356767904 9.265639646838865 6.192486166133065 3.98730202907367 0.015639686941629094 0.8592563150410797 
5.319543941874786 9.92107434303155 3.777680217497341 3.9873331436849404 11.852293016525984 0.8158145869563712 
11.771391940362681 6.161077163985803 18.694780537418687 3.987337658610801 21.519548170408633 0.9214681477827995 
7.34607436682411 5.746509330010772 13.194732673462909 3.987402624687626 16.805301850404632 0.9143776769526027 
10.69324664187535 5.532886179250196 0.5431418852681986 3.9874673698594294 20.267272810967736 0.8503827188641735 
13.096785776539283 8.200081796576624 25.38784415123034 3.9874915729647236 23.991703857714956 0.7863668945965779 
5.782897028362507 11.219629179317296 11.285996202294939 3.987510767378024 10.467081583189067 0.8923700775693298 
5.287254707740358 9.694035107045377 30.12967192846731 3.9875452884719382 12.082285042212291 0.8668328798751935 
13.050357533449846 8.042508063265803 37.578882210885176 3.98757497225157 23.827921024660597 0.9088739491734673 
12.284121798105419 6.662512023969157 10.265923113926625 3.987604432719307 22.239149292030334 0.9450998950735597 
9.646402748019197 5.282125795216858 1.1268184219350417 3.9876259658624726 19.188303202678995 0.8512035894022587 
11.244033078477445 12.703343979173203 39.937658679136426 3.9877001588075847 4.17569852884813 0.8795500569978384 
10.19099561981403 13.12532222514386 30.783175522853895 3.987931181101692 5.314273662624146 0.8980964906543789 
6.780734368335834 12.381636871614871 9.39384740841897 3.988034886429108 8.927135203530192 0.8633641873363922 
11.613157383376068 6.037489699182535 33.460717679912676 3.9880741281304117 21.322705894003345 0.9020331507510863 
12.045114389017334 6.405308697468488 11.78149701258134 3.9880989273575174 21.890662387754876 0.8637749692390628 
5.347394850393188 10.071481264552636 5.341255133546817 3.9881271822433892 11.701666965877912 0.8656650784579508 
7.236987377990081 5.807048754129996 9.299481532483767 3.9882493775852415 16.684095371987418 0.8594264052304387 
10.943716155775354 5.639221508986788 39.21249003231245 3.9882823028840524 20.543601236248364 0.8586370453879276 
8.580354212966965 13.18168263426549 27.675666881177364 3.9883021220408934 6.93764306581588 0.8953847775804419 
9.889207933613347 13.186787261709433 29.636669649039455 3.9883431053950136 5.622898177039108 0.9469268161945875 
12.867042657200054 7.569273102768676 9.717166824112532 3.9884634243128834 23.32533172183495 0.8993849338746757 
10.302210007854478 13.097193066747897 27.22118442514821 3.9884884848100337 5.200289140441772 0.8496032054681391 
5.279364182101981 9.628455996333352 34.01682248391089 3.9886310608447286 12.151627861555902 0.7959917453891386 
5.5805065048570786 10.81353458439917 26.817972093810816 3.9887119358896412 10.924280681754595 0.8655097088320883 
11.337671685830871 5.851053438199793 6.993107751413028 3.9888859093477937 20.994274600217935 0.8732112134046418 
7.18185369482133 5.8389888248776725 23.92247002361671 3.989013208355366 16.623571240320327 0.8729565572988154 
11.73136827033918 12.373327526290852 21.4548323633051 3.9890303746063664 3.5878963226934886 0.8262917445939539 
10.565084688623342 5.48396874742784 38.10962512891494 3.9890398761609043 20.138060483184205 0.9059126419830346 
11.464210736718515 5.931761900593758 1.4893846193232108 3.9891644828147537 21.145841222034896 0.8541143031086411 
11.688365049531294 6.092756664285455 28.157932461613605 3.9892116509016753 21.42212705660979 0.8821232993455653 
13.201433634897766 8.702026133514002 13.10058801840345 3.989248441668305 24.515475289263904 0.7446955773499919 
8.927676674738171 13.226231438279433 6.692076631305312 3.9892742167930204 6.589012346182816 0.9395045670098646 
5.296455268777612 9.783322328709781 9.181164372154257 3.9893544149494615 11.998002686534761 0.8641783643163586 
11.017330445594434 5.673467799521925 13.837480314476437 3.9893657998460816 20.6303778609103 0.8249861739647737 
12.487712403310104 11.580798405664973 38.077583575973385 3.989411336826333 2.489196933002411 0.8482331320353552 
13.017824737868214 10.561103622190432 22.690397325507227 3.989423011340431 1.335931875291589 0.841241634000623 
7.187598040627426 12.664979516510964 16.2090059623955 3.989434413574594 8.434059714936652 0.8836002972743618 
6.546535133969703 12.183751757416854 7.94196111318373 3.989438764539027 9.237010963967997 0.9140066043752921 
5.424311990830841 8.118435519738911 27.976080137285216 3.989527154499548 13.680782799448885 0.9124817904680355 
9.035215134070341 5.266142669671138 9.587729828893004 3.98964306261192 18.585861251585293 0.8689106645270432 
5.264733098082074 9.43722777221039 25.978429661350674 3.989662456675926 12.346597703144251 0.9090248793338995 
9.834615923216681 13.196608996742894 24.311472181782364 3.9896739654827 5.680236693633486 0.8886008604914645 
11.852835912716332 12.273705713251088 35.20207574064104 3.9896805672726647 3.431364348992542 0.9173351402908227 
13.215292265387175 9.690898396774992 17.841787962222796 3.98972858052 0.44180074695757554 0.767664439600998 
7.779084517111684 12.958741105941352 15.284456698328562 3.9897810652590486 7.773589436316101 0.7894283774397922 
9.04174787152544 13.234410751541796 2.735398112035817 3.98984936883788 6.475587536891737 0.8809212658214512 
13.214977124109728 9.69484194502016 39.24010698994525 3.989853123958673 0.44576875938901495 0.7726301728807263 
10.074112398925521 5.346175387932686 31.65774330255922 3.9898631364804085 19.631874847025692 0.9047137176025587 
8.691136088506708 5.299442538412551 0.4563052096193516 3.9898913680542547 18.24121243202742 0.8339342303957059 
12.1423265500519 6.501574271275507 28.985074752603246 3.9899118860508556 22.03745055154514 0.8634854683400462 
12.58228440451776 7.0554442061776275 39.49178689112167 3.9900118401818854 22.746284556630435 0.9126831164350426 
13.067288075916288 10.41191237538572 32.39567479998534 3.9902040828267373 1.1789926913914037 0.8763274399235069 
10.76051416910123 12.943317109826815 6.309162652805064 3.9902687038337503 4.718762770595507 0.8914503657772717 
6.9640273329186595 12.520615054996465 24.00299736386841 3.990312503127106 8.702122875483287 0.9048061513612654 
6.199021895454372 11.821852986295266 10.309205234229424 3.9903502575003014 9.74124226883356 0.9477937237606661 
9.041121305838844 13.234915099170525 25.242346019545423 3.9903857779006375 6.4770575240765424 0.8857803006141252 
5.367390419660461 10.17117351247413 19.942000656810876 3.9903906818040125 11.606624200950538 0.8889595453739308 
7.230354886225728 5.808339923047324 3.7711048354655077 3.9904874978982425 16.6870807712669 0.8624928091856858 
9.799982704537284 13.202438278306536 1.8721167046510203 3.990519930925405 5.716555138779931 0.8755901279096642 
6.25422662707488 6.613780121301518 11.35322597668766 3.990527953889332 15.416351598909415 0.809897643481749 
8.114184118721909 13.075508605348729 7.539036669414614 3.990563093820305 7.42010105914747 0.871954668751645 
13.239718189921733 9.332936003632277 36.733242798107206 3.990580110170806 0.08294197522833713 0.7828197373946154 
5.359254458939052 8.362795740179374 5.641325260286507 3.990618030321809 13.431576744411853 0.8043213620965108 
12.19487130818172 6.556897422262269 15.720905554358104 3.9906225724778213 22.117679955266908 0.9492027500488746 
9.283784565057461 5.25950093893619 8.16124358733785 3.990642072798219 18.83924269715368 0.8593249074839977 
6.110327371102514 11.713291868856139 27.341991975741898 3.9906579717912227 9.882192167080166 0.8880313050419447 
