339

7.614258838535779 6.6989847019652125 35.48737380485205 1.67625036289864 7.247081385266966 0.0 
9.904872518866256 9.022857499957869 27.079347056798618 1.8264478555217143 0.7980056405876379 0.3311367950050029 
6.572532070440687 7.517356491390903 11.960953315330723 1.83048222209533 6.504395467586718 0.4353753146658786 
9.90575765120057 7.382358707060117 3.3776409354405246 1.8693139952195361 10.842976487041216 0.23341279969583337 
6.818059042941345 9.47170210454717 23.43862721530286 1.882288749569795 4.583854684823496 0.15492776571865133 
6.362754369223765 8.486633335327408 28.302076310808026 1.9020229773249735 5.738133342912338 0.4613085682242932 
7.6981404133644045 10.078797839555424 39.45881850642338 1.9102488166006535 3.5604512479687447 0.43921827275032627 
9.950493880632703 9.122006646506758 36.800777403985094 1.9110403003655452 0.9055120753057526 0.44612631868774605 
9.75024518468539 7.063514755618929 8.28200169063961 1.9127160921855908 10.738068261677356 0.30114817500417457 
8.77395663220781 6.402779744771571 9.378802538364177 1.9200919831509973 9.578907662055755 0.2981274583849227 
6.74965447609099 9.475441769887967 13.481205882601785 1.9372000987249494 4.759134204284969 0.3166178491502301 
7.179954029922509 6.634550417986237 31.235773749122778 1.9376985653366021 7.997575709542804 0.4288399382964426 
6.428508050063929 7.584891341604438 16.795899374626153 1.939124145369413 6.770830949215263 0.6277022082297917 
9.004685054283673 10.042062212777397 35.749765408594925 1.9444887517349603 2.2793512188990412 0.35409549507638305 
6.309242919726941 7.9585803228797385 27.348876486383233 1.9625145790140985 6.457922805177127 0.6406404507572625 
10.221678701341784 8.132308541289484 12.679468023580917 1.975188138071469 12.292711876571847 0.19095399787816747 
7.046638312770181 9.823102714258537 3.486162350490474 1.9805886750913628 4.404440429015597 0.3882408888532762 
10.220655742543366 8.007025790578735 22.459799548769098 1.9855781329534836 12.232170624270747 0.3618228127422289 
9.991058597010213 7.288477003920752 23.154777640185536 1.988922198129523 11.493197742911192 0.6759016390222792 
9.151444457108 6.473629606723145 34.40843924034703 1.9920075008295806 10.322563223780236 0.6663804815412321 
10.242582092878372 8.209903440746862 32.54517539105678 1.9929854818647037 12.482197832362651 0.509263202417906 
7.520057438399434 6.39188553128289 25.6886024321009 1.9963480463315673 8.660297185936912 0.7611132231614177 
9.539206346777082 6.719025805909048 13.827680747669547 2.0014831969174143 10.832564347012514 0.5690008087964799 
6.242285529906161 8.197780464634548 7.15505757311368 2.0083934557994274 6.361779547108554 0.18346426715100084 
6.81124617621014 6.83571814605196 16.229491533099754 2.0174750873001255 7.905301633321976 0.6301688021607265 
8.718225614768825 10.216884411106191 19.909074363694216 2.0218480439880264 2.703396304326988 0.6157678913328776 
9.110863569540493 10.08072032867807 26.02925429326097 2.0230232344679417 2.2885355337229516 0.32126861726231803 
6.221415467021591 8.316115034939946 2.725272904527987 2.029661647980851 6.310243389683777 0.19865983537658408 
10.279704092046156 8.240379759670558 27.600231267985777 2.0297268905675256 12.743529900052401 0.4960054517205815 
7.701013921137466 6.288672166702051 20.539376935669694 2.0367112177365945 9.0419144469154 0.7803816557139217 
6.240173075644314 8.603248638495804 22.904239416931627 2.040634427442654 6.055805014996986 0.23798308092828027 
7.428406330784371 10.120535489763375 19.001256109600686 2.0430171746119803 4.05468870203277 0.36302573888647727 
6.851884582348067 6.758633377452259 21.045953236113377 2.044236073433176 8.093646286998343 0.7817250241403748 
6.732620605185854 9.621507552559184 18.470028659921923 2.045354051144551 4.922442684854666 0.46122778420408694 
10.066507736093758 9.195251525377442 32.305303950479306 2.047730646720132 0.9825185694443306 0.749867914015301 
7.751173786263006 10.238378003022671 29.64813427841466 2.0499938230188905 3.7240075218810844 0.7863506434980593 
10.230833803360222 8.791987209145843 1.6375085171950303 2.053643759616602 0.5484846587293912 0.5061132505997926 
9.611690008082354 9.787399211918961 0.8128259336817223 2.053727346782027 1.7373147691467583 0.46784817696968234 
6.54429688040908 9.39668055169608 33.33501243519791 2.055310054424931 5.240477249555312 0.5563174815321169 
6.505340294086297 7.146138842703801 36.649240556438336 2.064545214817589 7.650618275813908 0.5928454855014609 
6.325025996262971 7.5037879545594155 6.427295238392695 2.064547730575392 7.249464233373947 0.31147676227957233 
8.413735530831135 6.191650331655946 25.097505156176588 2.0648517334735303 9.894292166232269 0.5625577543939084 
8.116492797740865 10.311628266154445 14.79114460614494 2.0659465822866947 3.378781603437929 0.5055548992494456 
9.906769029208187 9.487382163733596 11.71422644999398 2.0678486973832153 1.3265072402475013 0.4679968640307971 
9.662226538488307 6.738715353634536 18.856056112324936 2.0684209142122536 11.301679855969002 0.6323872988985249 
7.936435025590507 10.296017380072197 10.259895206396429 2.0699058221894773 3.5661773001717254 0.6465626382657065 
8.140499588940864 6.179205789447705 4.941805088897723 2.073687296213923 9.662469801119524 0.8711389574085174 
7.853941571055659 6.212066534867784 30.587931801947754 2.07606239969893 9.384712524105414 0.605577252617583 
9.398825047425117 9.982266565174452 30.86423558199033 2.0785924185401554 2.047835971740902 0.4021571407928703 
9.322782260677574 6.463740243872602 39.00666839750292 2.0836472098665793 10.945879871449417 0.5263227531379674 
8.1268631340863 10.331377491086142 35.254748196997724 2.0850167740685164 3.3983452488761703 0.6111446983465458 
8.722237694755894 6.218347261546661 30.05352895741112 2.0858142990240784 10.305536419002848 0.3508634817969854 
10.006720259791393 7.107893318813989 17.948546227888837 2.095345733374633 11.957540186978566 0.6552432750096173 
10.298612131343976 7.771742421474645 2.3052303925749555 2.10369721588128 12.735443266046062 0.26405628229121 
9.757527562238291 9.718980008444278 5.992663251125322 2.1048851788439853 1.625914955089435 0.4116826425683407 
7.74361706823305 6.201601266194098 0.25662221643879946 2.1100618583924318 9.432058186392297 0.6106450723317945 
6.178008491445194 8.65821570493878 32.648636968755426 2.1118212219034787 6.223680447274081 0.23666401305192247 
7.398594483428335 6.314862582942075 5.6631155154643835 2.114154246157617 9.086435997216226 0.6314353209711272 
7.180250446817315 10.076202431584445 14.448985602757006 2.1164544473386386 4.446020990008067 0.47495293054071597 
6.17510723803756 7.7988079246486315 32.10073350783542 2.1233827404648458 7.125461879269217 0.277823569927014 
8.976609632687248 10.246322272689222 0.17792232436635658 2.124444439082599 2.5954912364385123 0.5999326183909556 
10.189185589763149 7.376112031676678 33.09806482081001 2.1269981036017205 12.463769771304705 0.4029356067912381 
9.314412449685681 10.093589121909558 20.99921443074028 2.128801238600991 2.229261783469795 0.49383026578780215 
7.45763993550899 10.230161838712176 34.45420398565456 2.1328092693187934 4.162030700239335 0.3382892722719586 
10.029808796361639 9.42526057823652 16.533923420262227 2.1328283518284157 1.2447242149752462 0.22727792161563012 
8.410765915099624 6.119160499107151 39.47609055273804 2.13689556553967 10.230801075531403 0.3590277585044502 
7.333128273995273 10.185527646544783 9.439056396684691 2.141709838536973 4.311665889950195 0.25580820358603373 
6.108279199077117 8.242501923386955 12.617277706846306 2.141733926111887 6.7359536601470325 0.5871284251841102 
9.388554567271186 10.066000049370453 15.82939610044366 2.1433997951776433 2.1665286251795415 0.36185657732050014 
6.1510526067448 8.705433556792176 38.03028136932835 2.147789534452847 6.288562268203467 0.4006913613799244 
10.333258530371346 7.687459755771467 7.409452533079154 2.1578734047069767 12.989203365589372 0.7214501184456588 
6.2242352734979995 9.001996821470616 17.668958947126214 2.160838250920608 6.0204051174898865 0.13554782966768378 
8.566522790660567 10.396162331989308 25.177272461901353 2.169377660126824 3.0899937373883084 0.5338922488455063 
10.280834182786453 7.4820205099309 37.86572771308756 2.1711932146036004 12.857040735716382 0.13997861172545412 
8.535737957601551 10.403043937736419 30.33076316141088 2.1719218167875782 3.125078107605578 0.4983857387124378 
10.225523307005647 7.34546560806238 28.204659124003484 2.172757419207329 12.718899006790853 0.2411030780465813 
10.416109352576168 8.433888893580214 37.549012989623115 2.173900837779889 0.18410890128917146 0.6899490251405606 
8.317336896775902 10.479126156497125 4.585555623803273 2.2301429728264153 3.435753257389173 0.0 
10.350388278166111 9.003804521352563 22.17645287316975 2.2315582393182516 0.7689301870381371 0.0 
6.272183443187778 9.286983510592108 2.9904441797215995 2.233180049534852 5.9373309949484 0.0 
6.051525272437548 7.806778044198067 37.28855693350743 2.2427074775448737 7.491832353218946 0.0 
8.37052579274744 5.98756793771037 35.02177641401328 2.265640153067895 10.797160403008437 0.0 
7.858018669035058 6.008930609922981 9.845124349454004 2.2750915091409474 10.327169143686177 0.0 
9.132800382553823 10.372996294372111 5.17882548954789 2.299228083804402 2.7055485744715853 0.0 
7.2006317768104235 6.198076249750681 15.516359547579206 2.30468322002771 9.771067382790367 0.0 
5.815049205824902 9.520972334378405 27.627118810179276 2.746699117997679 7.307657756156509 0.5719279895653381 
7.773400158039227 5.466149139762331 29.908250313638128 2.8243535581444186 12.830561363105339 0.47789115224685624 
10.407950028252248 6.382287958100031 8.816013598396694 2.8539615617404555 15.895879720710465 0.6443772358438016 
5.458815961335471 8.854466320058759 24.028977024389036 2.8558865295702853 8.362959150166603 0.6039964972805748 
11.099852449167168 8.43662556826206 2.4980439984772964 2.8559565971410077 0.18675864275307674 0.4966217510442247 
9.193736544653081 5.537533187337695 13.740614327279403 2.87195314646812 14.495363723699743 0.7031417784376849 
6.825473033931408 10.754030479473196 29.84308598756734 2.880875859732134 6.015353468625662 0.6075087819816749 
5.882163392654048 9.893842819306274 13.110566116954676 2.8825109563837525 7.306427610798945 0.7083406048712749 
6.074460857897403 10.141953254085042 14.344101850538593 2.883133308479421 6.993910342859625 0.7595195092096987 
5.430700942361314 7.631519994232374 26.734601681627154 2.8863410564132415 9.691021348493283 0.5502566342374154 
8.650856647123536 11.109704958466745 9.546940397620808 2.887663155740716 4.133775309142665 0.5995851973894664 
11.015112791640771 9.086952403979742 32.94002001181077 2.8890029555233925 0.8491252457986391 0.7384507045553231 
10.829992748951819 6.948846696853648 12.256342269037557 2.889526345775834 16.80572841891577 0.6033164806103505 
6.172300265058203 10.258594157234809 38.690661037816696 2.8898592832619054 6.857937872138976 0.7837378802241733 
10.842685810473517 9.535819322046171 12.148658515538777 2.8940198756708595 1.3323928002083285 0.7017253471881303 
11.073533370397994 8.885032409671245 27.53939565613784 2.894064072387465 0.6402419824761427 0.6798087858814676 
9.432918301455418 10.891797745643705 30.05825035177606 2.894545048329066 3.3281428361832663 0.6474928413514105 
8.444133796184248 5.361027722902392 25.90930411189889 2.895487652997236 13.83894364835907 0.6351466432305712 
6.7084753205963725 5.7981237417913185 35.7098358603429 2.896203639728718 12.022502241576229 0.6453386978736662 
11.05641991979997 8.97330591405811 23.134080806176872 2.8981311584470264 0.7310334804013472 0.6361419224811462 
5.79767766525555 6.704654743285298 20.97487596380618 2.898616358874886 10.736158915413872 0.6258762993502058 
7.402427314406321 5.475514536985372 10.730685725445511 2.901059985909286 12.810804537947973 0.6336801517355627 
5.416202608648213 7.618845138526364 16.935855080493575 2.9032333895837588 9.757011916623648 0.661019886715506 
9.86122852879923 5.832773227461974 14.430434821292508 2.9050030364684876 15.397440652380237 0.7562805401829057 
7.002651599485567 10.875088918290341 39.36070799272952 2.906367124297388 5.85452393049647 0.6984713918557969 
9.86737225137962 10.665385946097562 35.99456925504794 2.906885320775209 2.8509486438111598 0.6125862720956199 
9.514082113761361 5.630158893991183 4.031283031438818 2.908860775469477 15.015369303224054 0.7494336194510169 
8.84922921890443 5.403510350000438 38.65222388445798 2.9088793347857225 14.311321328853268 0.5544178552820005 
5.783932722163881 6.699605986306171 16.237589214535667 2.9129382788709606 10.786149285431094 0.7844666869644316 
11.04891001742961 9.066897519843476 16.26471989638118 2.915684969881733 0.8279810329320085 0.6751196356219392 
9.910755155918679 5.851655199705487 8.128505226100714 2.917218790048186 15.513874078901637 0.8516196188142019 
6.703854022866949 5.776014695628101 1.7497655437925346 2.9173910723200684 12.118309307633798 0.7803402171345651 
5.652957954783613 9.579590061111414 8.35716213925837 2.9176081154308524 7.785404781759411 0.7092062150095011 
10.086049287070885 5.982260208728196 19.599886590206463 2.9178280870316873 15.735786898134327 0.7698924185941897 
7.846556090074305 5.35961802811992 15.73082697693389 2.9184028049303805 13.347909116376968 0.6612601473241461 
10.372988926724453 10.252522766030108 25.480752250344963 2.918420705015559 2.2069277230459576 0.5417320339416308 
5.544012512320206 9.343752355691404 18.667665601149537 2.918674784737089 8.048167826091444 0.7188960843984371 
6.949773625678137 5.63403323324119 30.657151742609845 2.921278957797202 12.418696851690685 0.6986007944837109 
5.331271210727321 8.390712626427 8.408782806331352 2.9221187156864703 9.039339625233271 0.6443611897818896 
6.256001680250105 6.1128322147112275 26.77316785094133 2.9229292570367686 11.57957270232789 0.7218005461250638 
9.518351950968759 5.612270735596418 30.145955800786723 2.926829742881764 15.10419613000077 0.7134721888660602 
11.014441911826726 7.284259101776662 27.44774715267614 2.9282750154938353 17.414730033709024 0.7819039447414605 
11.032947623626468 7.330654004634148 13.222364408611824 2.930869245640861 17.480062905337522 0.8000214154292449 
7.242201189967702 5.497124077876963 24.389718650686827 2.9315498092489 12.785816998624226 0.7263749200240448 
8.56533850234048 5.334889095177077 24.203139005070092 2.9321169755785417 14.133225292136146 0.7735805790578842 
7.603014242977725 11.111408345590512 9.059395544876864 2.933640790895288 5.2605008442582175 0.695495260321228 
7.882832076168359 5.338294116676952 9.04506465250335 2.9347646303015344 13.461619922219068 0.6800080101041762 
6.64316532698286 10.706796822758742 13.547948543946923 2.935603565662016 6.311559087569901 0.7433346230999697 
6.610646523031033 5.813899111655479 25.365940498893806 2.9363357029881985 12.097864029205205 0.7720266314047679 
9.044141619637998 11.077943027320766 20.992042474103556 2.9373325786865556 3.80980212868182 0.6630970745016558 
8.777815002948678 5.360163149906066 29.403155964883055 2.9376428812057 14.374012863520703 0.6532176291724169 
10.134364368742204 5.994901589326274 12.927268567237924 2.938757886592289 15.894167854619413 0.7153806896195192 
11.113179514457379 7.5786787151442265 22.96836307066149 2.940827978564681 17.800474310602976 0.7917908470680737 
7.9944692865676945 5.320261706822608 20.742371453249007 2.9408608283999444 13.602626814190955 0.7604488897038505 
6.437098120878726 5.9343700296770265 11.017548319818019 2.9408766350833933 11.905149388470303 0.7691510912183478 
11.111746300279329 7.5656296886993015 6.7178033668761685 2.9424402475075375 17.797201482051946 0.7991523304811319 
7.1518008035711045 5.519545233165138 4.624519391893877 2.943029851830984 12.743272899478054 0.6977779540203866 
10.581382121638669 6.453330697757787 13.794019823886387 2.9433591657689218 16.561108910085938 0.7908160565255477 
7.687263275618342 11.139466251672268 30.426683363028282 2.943754038726872 5.190259747955441 0.688884267015529 
5.444826518281314 9.145969656420174 28.53125560428385 2.9447852023133056 8.340912561476106 0.7625060577122497 
6.981958178165566 10.907973893434143 33.865499107451136 2.9449542067914476 5.936830137123916 0.8154249790554771 
5.319006273210999 7.961882061799546 6.4781912239861015 2.9451207399339947 9.540949181177872 0.7602541560824393 
7.4653510749958425 5.411066957314423 31.500671675887958 2.9453717518103146 13.08549790475347 0.6709589377829276 
10.83498233434544 9.661773694202868 17.08769959834794 2.9453758049731436 1.4723293299277636 0.7985652044189944 
11.066938606169801 7.385275950480949 3.220333728274092 2.9466745311870572 17.636859606494003 0.8819311135307043 
9.643776189735664 5.653789797488647 18.73905388245737 2.946679399374506 15.337703242923684 0.819013055085619 
8.293536893225463 5.302929680263976 0.22741367442878868 2.9473918861496373 13.932795521782392 0.757734269570842 
6.176387792714209 6.155238961653859 0.9686912775945267 2.9475229250978923 11.589850005734132 0.801677810693805 
11.192571502514447 8.427552115645593 22.28608929198721 2.9479233031373657 0.17765963925855743 0.7203856146618273 
6.8831257194066175 5.637851002870354 0.24041287701500735 2.9481634422387617 12.471599924112466 0.6303493410163447 
8.101275575662884 11.195379283053395 15.507802663615031 2.9491317494195726 4.781272854518342 0.7883998209979004 
5.311491113580381 8.50041604425854 11.92299792253003 2.9491596550185526 9.014340370315534 0.7220524442839381 
10.357214889605935 10.31348497202146 6.5562333088199125 2.949292257599329 2.2854464346426226 0.7026537354997708 
9.384093415616578 5.527469443282319 39.49802472989559 2.9492949170278586 15.062308632894563 0.7195234048661306 
9.944628478052365 10.664598622653289 31.535167158763162 2.949924098539696 2.828522341653585 0.8897938628302348 
6.75782688013852 5.705082517604236 16.306366527216476 2.950116203108062 12.337616618436321 0.7712199794441544 
9.85516535587039 10.725387134345656 10.00565117111644 2.9502707137770456 2.9370279731274707 0.7293215785776258 
5.467709480077065 9.232502161544916 6.606104213696888 2.950669590905336 8.26817372742142 0.8399095223682554 
5.363206941382288 8.861336325795437 3.0761139059256024 2.950814508999248 8.654460903755947 0.8416626631765947 
9.02736199805654 11.09714628496141 0.8309760964957746 2.951361320474333 3.849344534552987 0.7188599849235588 
10.7100942263584 6.61917067905525 3.982613885707533 2.9515534683645943 16.81731900413736 0.7516155291419532 
11.2019756170912 8.174758967377906 23.79899880963314 2.9529343468643146 18.478584524763807 0.7114870210709197 
9.372764418121434 5.517584150100658 35.10812201555159 2.9540982237191593 15.07258035465289 0.6962741494760876 
9.308760566051422 11.008303692838942 10.794604845675636 2.9545241914992775 3.5581155708457466 0.8463230882641024 
5.569112305231815 7.006984098620455 27.634645272051586 2.9550376246406533 10.566465782664592 0.7206106920551736 
9.853769229582385 10.732841773507493 21.761858651920818 2.9557704603079533 2.947730312703353 0.7457380056281488 
5.628478293457642 9.618205507939683 39.36899737228494 2.9570868045813694 7.867533308022416 0.7648129352521688 
9.187721179824546 5.444530417692361 8.802730729197918 2.958036610379415 14.893602088802343 0.8076929646173423 
7.923275739841813 11.190885667554946 20.553879357175305 2.958979089450619 4.975345323936965 0.789395784838484 
5.9292217712607815 10.086516044770663 19.53617805441049 2.959527457161028 7.31641601474259 0.7182956149411691 
7.466673011295459 11.104090705190613 35.32508537670572 2.9596342552228267 5.441755900664862 0.8105320466785138 
11.191783416119604 7.923632921058898 11.878068134316003 2.9598319441436005 18.27014050581676 0.8107594581425422 
11.199222924130156 8.502795941318228 36.397173161865204 2.9600374396554137 0.25310425579420226 0.7236370798652443 
11.033364780759198 7.240282718073578 8.29168502656843 2.960852663033331 17.57319633929395 0.8571515425548852 
10.92446795512368 6.972030692970522 28.844494687131927 2.9641161233482145 17.302796280207374 0.803565512554477 
10.922650800178353 6.9668508575136325 23.926518031758654 2.9647148297192953 17.3008340470457 0.8142119783517805 
6.179289412413436 6.127952431672288 15.45167992874659 2.964949952324431 11.67963286977492 0.7957235592029458 
5.9749959951691505 10.151417363360144 24.140186467829366 2.9649673205085825 7.250556058657672 0.7348156475293319 
5.2937837584640715 8.484403460813452 1.5776124748145435 2.9654948068007365 9.081728461636551 0.620774981916921 
7.191986232098685 11.021177298036138 10.034451105017887 2.9662799514239384 5.741259853031558 0.8088031185746332 
7.151058781285911 11.005486785276252 24.175520100392703 2.9665433126824303 5.785603192133713 0.8165943045768547 
5.8633724715330775 6.486993958430668 11.757942099331203 2.9671840627514317 11.209498013908203 0.9097196987924232 
10.298587162681187 6.103268647746406 3.1938082636644083 2.967349804429992 16.2444528559118 0.8062240590488874 
10.586004991079847 10.080874133939108 15.78160725434401 2.967999227202937 1.9730118596931945 0.8431392428755268 
11.107688243116563 9.051696574097777 6.544755746652314 2.968012717588446 0.8117799902693257 0.7321424337145541 
7.7923299928240475 11.183701963473021 13.960684083485987 2.9691865966883797 5.1234893660941125 0.8363856513027964 
7.4273646595224605 11.103009310355642 29.107548191752613 2.9692408168382975 5.497612926752229 0.8608852844954746 
8.589555191028573 11.200065992910721 5.348969724666084 2.969543246070469 4.324248097395142 0.8219620232517721 
8.692505449303358 5.31346490378999 4.743877431283003 2.96968844223368 14.438486626031363 0.7463270905920738 
7.60162123148098 5.351917451085388 35.14835150813357 2.969726837234301 13.34086439425257 0.659560939878856 
11.219644595844823 8.18958400517015 16.90563911229497 2.9702590994830125 18.602268170815023 0.8211597541312294 
11.206116115926669 8.5397888215217 32.04240409650913 2.9702861902382924 0.2902505257485508 0.7953519654233528 
7.659324372304418 5.338781406587637 39.444164662846845 2.970537223430035 13.403687841526924 0.6683812030525754 
6.102319785482422 6.196592277333101 21.830714636045833 2.971365608493565 11.601859147197786 0.9006856166085015 
5.298827560787608 7.90351508825948 2.526312939591513 2.9714425049175435 9.682336875210012 0.7151894457510851 
10.773058061707257 6.680341803429927 7.4938771968877305 2.971472503121239 17.01660048059797 0.8773219982879199 
6.5806241652193975 10.708251696535894 34.782509876513075 2.971500812934608 6.440285042485424 0.8568638809407755 
9.165614013885214 11.079280298662434 4.415875909334076 2.9737478088806424 3.7404167286281123 0.7587886639384456 
5.97545550898521 10.16582730973638 33.72502608002733 2.973877422211191 7.26099350823004 0.8071936460501946 
6.7734587730925995 10.832281939815848 8.33805012359614 2.9746182967662036 6.217607198488778 0.8077263788918658 
6.768715751672666 5.670197075679017 20.81013792477583 2.9748253986877593 12.467991170516626 0.6385837884498162 
9.084252846480155 11.10574916299581 16.045639033520096 2.975110265824025 3.827700542659123 0.8330602535651248 
9.5142639164362 10.94340464758604 5.936233700964912 2.975364153518136 3.367913310058512 0.9400638122085415 
8.787951363431429 5.323590543863393 19.74539662011405 2.9754434920501307 14.5623731744774 0.8726647762720868 
10.27099620489296 10.434026107165334 11.599121028769396 2.9756336630995914 2.452365619640041 0.8699335082686327 
10.862464390055433 6.824120373093049 2.418111629435394 2.9762565245180106 17.213398054377265 0.8324236408719367 
8.51801553613085 11.214214109319055 24.515910688352356 2.976306034918732 4.406791501881301 0.8939648250555865 
11.118503060429763 9.044769718166632 11.307133428118334 2.9765699576206157 0.8045298697965464 0.7746845834051538 
11.087356606345615 9.150072089461663 37.281996175077005 2.976696537741292 0.9143846442618795 0.7174120556885132 
7.906830317915272 11.207581006214676 38.99061271886481 2.9774235236230555 5.020859985702449 0.8232883163846003 
5.550151694886317 9.50600111937308 32.86854248933125 2.977703760029137 8.058145491054766 0.8271651206243403 
8.257112599321005 11.227740426305624 10.481967554477038 2.9777489208333052 4.670324460878113 0.8947142996845897 
10.953626057859726 7.001919819583424 17.54804890978935 2.9778008659893302 17.42222089626265 0.8218629265070378 
8.462012123483188 5.279733274696792 30.686713160107104 2.977823628079287 14.244854899168793 0.7079794586149354 
5.296120421909176 8.627400632405523 7.430978104607249 2.9778911664468377 8.976902733220278 0.7427281851646994 
8.27760530997703 5.271917463113956 14.14160930325778 2.9782104777272767 14.062091941790584 0.6760599780051287 
5.326257242234689 8.817443864569785 33.74485426857048 2.9782988857774186 8.785667657252986 0.8123902413314299 
10.667230557950884 6.509290688136128 33.35554176691073 2.9787702963976854 16.857098278719974 0.7612804802730396 
6.235314420194957 6.055615203877432 17.314805794184274 2.978973416955625 11.825506349337367 0.7890756361150434 
6.870045807844761 10.890306120823245 3.590034451624163 2.9791760579233117 6.114457296966364 0.8375048399423222 
5.540987630790216 9.489700127761695 37.9042196366003 2.979195264379959 8.080827196923018 0.8617996959522122 
6.90319610945658 10.907421161695881 25.51367516191823 2.979222709065565 6.077244801596276 0.8477556523173182 
11.228503125487101 8.331762723357093 26.705928801380523 2.979625146132849 0.08177298787916243 0.8029452742731461 
11.17689693165666 8.809264287077278 17.7255277561201 2.9798493571556963 0.5626007552420624 0.6381806476171246 
5.583974878120635 9.581130367014689 23.12697300716585 2.9798654339551227 7.981599357916927 0.8093645487068107 
11.151018261302305 7.569012303555306 32.86891996834863 2.9798743589484604 18.03604381023949 0.9314430163099106 
8.77065803438784 11.184876994823396 39.49420471979288 2.980702562067576 4.158733870785845 0.8752773483130748 
10.986650256715208 9.43203547055532 35.92546330239446 2.9810170212916205 1.215431996467803 0.7172507435120601 
5.320427921854208 8.802154281800362 22.133617203831434 2.981151943789838 8.81020410414876 0.7794877609745002 
11.179724564714675 7.697975728868643 18.556556051159433 2.9812777161832273 18.17669197505526 0.8350785585339102 
10.549691519792738 10.147400972071543 1.1206574211160998 2.9813942267041216 2.0566857949970085 0.8231042140060019 
10.954044361797298 6.994236012498687 22.161235391868594 2.9814089123890666 17.4365294754893 0.838028436511442 
5.293118647915824 7.864903921310377 28.510102387363162 2.981852833411681 9.753941641958512 0.7477580362428385 
10.71702771952446 9.925164420308848 26.915567346766323 2.9820130120391375 1.7787920094684218 0.8818781007388504 
5.766619677241438 6.5988758307288915 6.379113952380756 2.982178540901874 11.118605739819294 0.8873323731442704 
10.912502599761547 9.593498964610918 21.570863200453502 2.982265843557146 1.393675096765989 0.7940317989317333 
7.4955847122445896 5.364708498088232 1.0374291951966441 2.9822893014265657 13.29100501855513 0.7211499790025672 
9.70775769582964 10.85185247908431 20.230060611398756 2.9823973281016247 3.1616312880445196 0.8170532664391813 
10.98804085428003 9.435350521363466 31.38904421198 2.983609153056604 1.2189807718261854 0.7263994568843178 
8.015480441247156 5.275280828190686 3.8165101416499 2.983949325066955 13.826768248557052 0.6888099779752118 
10.477882648014521 6.264903848675061 18.32576333779681 2.9839684688899246 16.57699431373511 0.8233686039054344 
6.184792962293265 6.096137513122622 31.717368489993095 2.983991240096231 11.780799679358992 0.7701545136589888 
5.707811087865647 9.81367210432701 3.8509762940314687 2.984592922800244 7.730549955701093 0.8024693340998673 
8.380928867725853 5.2679583269252515 35.77538460062566 2.9849145562910855 14.197049351286008 0.6434897140076176 
8.181030568878786 11.234486532945771 3.7913064804732883 2.9852833446364593 4.758247680258453 0.9323315277120402 
9.203009311195558 5.420905971545846 24.971979545467057 2.9852972664477453 15.037868939909735 0.7097724071445694 
5.574532664890718 6.9253912050165045 37.06890193507033 2.9854168755777457 10.751405847291721 0.8926123938538943 
8.657381744519327 11.207536535328979 26.21744971995372 2.985461814120782 4.280895752335873 0.8509065942268448 
11.178398718603475 8.832004316250364 1.0223948984735216 2.9856738065724033 0.5857546985499109 0.6012332535973675 
6.044115058681271 10.263552315150138 2.9510307692287334 2.986690693758429 7.173270902955252 0.8545359435987641 
8.428466727651088 11.231545758728627 29.715932480549046 2.9868822347510053 4.5132105541290315 0.8478532996439917 
7.1761939395563985 11.037237054508166 14.754580094092233 2.9869298373863367 5.7902532735734304 0.7742586111061223 
8.773907160038782 5.3092257923122705 34.23443979046432 2.9870774434120873 14.60290194561832 0.8450058072567351 
7.271287227333964 5.427607848519871 14.875819512843464 2.9872690116754277 13.080047546056463 0.6747465997209231 
10.552104982444273 6.345893148354664 23.205011898332067 2.9875257743955026 16.706625862824424 0.8279875821672215 
5.267400281441169 8.427573040359361 32.01402469469457 2.987881066208907 9.209027467589781 0.7945836573750817 
10.67941787838134 9.989492831903588 32.24655607873362 2.987960264133856 1.8566938995332407 0.8749478472721262 
11.227135730636725 7.9940844682741865 28.177659220102655 2.9881147765794354 18.51864943571414 0.7896092351422794 
10.697804004343551 9.964272813180337 36.816976704924926 2.988390155533502 1.8257510458773822 0.8733186358406115 
5.613925682285435 6.842273121180405 32.379445398648855 2.9884080668251216 10.854159645542552 0.8376310441858611 
5.347435165100878 7.536715838906952 7.386115274612571 2.9889223668839544 10.11021062635616 0.8427462646156331 
6.203246922836097 6.071695578123196 20.032998890147304 2.989014605726769 11.830868778282564 0.7633520939050104 
5.769097438809144 9.917225517541356 17.82807921344937 2.989066483781247 7.621792061582749 0.79351927203282 
5.281372717523045 8.59917241639837 17.76725701753223 2.9890917213494803 9.040537132703463 0.6816899110994964 
5.446280829186151 9.286913070874798 13.85576845904749 2.9893193046812683 8.332303084367442 0.755249646821675 
6.451831305626879 10.638093751811727 18.616227807807974 2.989381611782903 6.6250587447921525 0.8514459402822797 
8.789908809677744 5.309724475896067 15.008258684796829 2.9894350102339238 14.630268507941242 0.8382505118788675 
7.8300668504780155 11.209825943007447 25.261164035398522 2.989467086784432 5.117170502659505 0.7857191872569125 
9.892264382659786 5.751851545495729 28.737298178861522 2.9896116810206315 15.826835584787986 0.823590762389769 
10.342868878439557 6.114593888910539 29.56572565891055 2.989993210965379 16.40826736225134 0.7963032670203634 
7.571841217414242 5.3378952636224835 5.523834102346669 2.9900256403633985 13.406051991290944 0.6900355458644496 
5.348530820601312 7.525925985850199 12.801938421833142 2.9904525705932046 10.126126232964175 0.8310573214176596 
11.22377169623314 8.56689587746469 12.670522109950745 2.9906088173600103 0.3174919276854382 0.6821192225212552 
11.240269997220349 8.204899147835258 38.081304312939345 2.990610095472523 18.74545484947988 0.9038815752847025 
10.12932606373025 5.923578233017908 38.73926795809686 2.9906696059083333 16.12532872559657 0.7511868217210513 
5.259370016799977 8.232094292151823 23.048614761379127 2.990683585869377 9.413415397403721 0.8559364165096647 
10.453663874198831 10.27194961347749 30.74499911539675 2.990721436357922 2.2203761752078073 0.7970310482723646 
10.975907552827772 9.481486377842876 1.787006553064593 2.9911754688376386 1.2692330302811126 0.7761887215640667 
6.989534097010045 5.53732686038912 26.2780330682737 2.9912154477681185 12.79466190401839 0.7048115172554618 
11.205439977954889 7.788497603594029 1.722002062605391 2.9912555767072853 18.3312599033137 0.7454862586417023 
10.60382853310518 10.096210811839002 10.701711052276458 2.9914884464111307 1.9897027003574834 0.8501942010316416 
7.364553113068325 11.107505570176876 19.218859189529383 2.9915471370461275 5.598024479110258 0.8117214694242454 
8.03259674524119 11.23372746468007 0.23126233535479912 2.9916373039969093 4.916847949379179 0.8423178685829732 
10.023773038058213 5.840904097455178 34.38370148758212 2.9916573764721983 15.996548637607091 0.8435646094046177 
7.640546807742684 5.321048820899797 25.296350815247507 2.9916865148449454 13.484241260375029 0.6484935816020766 
5.8673452607342576 10.05963658954711 22.20639048165232 2.991960593452594 7.456074922086387 0.8401725765273483 
10.13454965744269 10.573885385155743 5.119427430202329 2.991984407497444 2.6611172367589404 0.7934706102730175 
5.310390678737395 7.688226258297565 36.44023458833019 2.9928068261283327 9.96730606019301 0.8074399589553521 
5.283575725296718 7.853086977893266 32.9008508494747 2.992860324951164 9.800433826301155 0.8139188243947253 
5.995870689948598 10.218890056893146 29.024058852335365 2.9929295017700475 7.253771589322724 0.7513389532501108 
7.573052559790437 11.165395246742253 4.584258641106942 2.992956277918806 5.384181053636727 0.7134093346598789 
5.948358272332392 6.335809579652562 36.26843968886461 2.9936064550789943 11.481511721191737 0.7067567058126496 
10.04582217975802 5.854795793141864 24.385476849597765 2.9936567094210633 16.03323152007909 0.8222408412611556 
6.251574002799259 10.479697773844492 9.125980370218286 2.9942041728938364 6.891312120364436 0.8215103192510582 
6.756784117681647 5.654663934075408 6.202197347849218 2.994238294841729 12.546741187469365 0.507411569659289 
5.835984146512633 10.021921964152353 7.459584048291575 2.9945250020552296 7.511470075983318 0.8384650584596725 
7.38860959044548 5.381641362981494 19.874369732810592 2.994908130182156 13.239440159829577 0.6338570297744329 
11.185982285000623 7.6585069040817135 37.21793498859599 2.9949717962539304 18.22255544870059 0.740995030805304 
7.330279789670527 5.399563647268568 21.727390013991425 2.995141510223075 13.179447770420111 0.6371302136814182 
5.2774393344298645 8.618002902809888 37.28438332080804 2.99525341949079 9.040931050668547 0.737173341947423 
5.479288871775509 9.387940645728664 2.229603040236441 2.9952878107568246 8.242712595268557 0.7881576499829089 
10.874188454661944 6.804795473594355 19.113631725478328 2.9958272928732725 17.3152410359185 0.847551260935346 
5.259546056349482 8.432193744020044 27.635148216854738 2.9959988900957515 9.229901875575614 0.8167019492283925 
6.865586575399497 5.593035098921856 9.89259415964402 2.996007846414171 12.679233977103117 0.5876746526761472 
8.982360079357495 11.155217410039437 30.97602660710799 2.996104051169246 3.966412751478579 0.8039930604260022 
8.263561006733802 11.246100932302351 34.5589428825813 2.996131622183288 4.692751493682994 0.8321848280955683 
11.246010972536354 8.311960306179525 7.7424984230297085 2.9966516025557755 0.06196472188879554 0.6343033804016452 
10.16201536143668 10.557430754564374 16.552052856988198 2.996671391640957 2.633588393178588 0.7769855729836904 
5.358285895743432 9.036503760567502 26.62187726460327 2.9967646931554697 8.61878914428479 0.8093474078574586 
6.343060672341089 10.562036661073897 23.166457575221656 2.996987007232756 6.774599273250821 0.8174582047796792 
5.351740715017105 7.486285948681854 11.795869388902972 2.9971930260112276 10.18818928103991 0.8356289679379396 
8.488717748271638 11.237846535166067 19.62596490183857 2.9973676919997243 4.469283327979824 0.8432529312651633 
10.804136681186932 6.681191636058172 38.168942123297924 2.9974612372737095 17.18256774763811 0.8164744547570447 
9.82620576635229 10.799762675628184 26.48379409913521 2.9976181077496835 3.0489318483919483 0.7116949040609215 
5.3172344688513515 8.870720724831799 38.68475095424728 2.9977337905373322 8.792414309811036 0.7006247825906518 
10.41357712213153 10.325464067840542 20.87523495048596 2.9981022431378412 2.2923941716843164 0.7782951623243864 
9.818446221892485 10.805141830648903 0.13143230985248522 2.998128303742294 3.058879496935921 0.7162748768228251 
8.421644736899308 11.243237100363245 36.003587409386846 2.998154474788814 4.537751397544943 0.8258082376663597 
5.473047064243088 7.119658040667968 10.859239907175365 2.9981895457818393 10.578082337087935 0.7793217540290766 
5.545062697649602 6.956663464318545 1.7907331853797572 2.9982336807152223 10.756460667044195 0.8588234116704446 
10.784958953434927 9.8511369278241 5.701868316865443 2.9982755639270198 1.689070571712021 0.8357240877010175 
5.2657659033872015 7.9601437851956796 38.059535122303664 2.998277800445964 9.709677130483314 0.7510974548965166 
5.370014877282788 7.416061926832771 31.587741821088578 2.9982940177624906 10.26450135165417 0.8277518088300085 
10.636983041696784 6.43508028896786 28.011521614213617 2.998603274666559 16.89142941884927 0.6680392706351399 
5.270302771166442 8.586930792613833 13.113142858146958 2.998686034670814 9.083006227256764 0.7265299001540425 
8.742753460866384 11.207929962345382 14.701108122659122 2.9986923208852803 4.215336482651185 0.8749112683454497 
10.107072336639428 5.89552252696895 17.446264551916386 2.9987133631812997 16.133757771287275 0.7144280822264774 
11.248185823870498 8.190959962335018 33.67981898101778 2.998767073399585 18.78276536271041 0.9425454444387896 
9.060413397181959 11.137617221689284 35.18675875351374 2.999183737840772 3.890492609920278 0.7495435558907904 
5.37050413561875 7.410141653647589 21.941053806012917 2.99947636678913 10.274371812596852 0.8206723268156996 
8.559527959573275 5.266448780396981 9.864713074353922 2.999564207972928 14.445193256675688 0.7139021540272577 
9.323823694881794 11.050839482319223 25.378773054703643 2.9996331664734943 3.61362010165022 0.751652457045142 
9.715030223856653 10.867785274367044 15.223318201038772 2.9998522129442335 3.181578335178809 0.7574905131742651 
6.292188169440493 5.977060557776564 5.373322046205729 2.9998801429213375 12.003536061192282 0.0 
