430

6.422139204227944 9.793569509876201 27.809280234283307 2.437086505367435 5.232457633878376 0.7272621594177908 
8.751717874221601 5.527414160352157 17.09757407874492 2.4378938685139984 12.52059454590751 0.8700138675193613 
5.39521437316724 8.384186505431003 7.582747098533247 2.438689785931974 7.019808665111466 0.845524835778964 
5.94614961875096 6.108528666684705 12.711475333085588 2.438914581535852 9.462733383682298 0.7661087663773347 
7.8366406495560526 10.187522484190945 26.40528797761602 2.4390617997688944 3.7446104351592595 0.8193465349626295 
5.699928538847269 9.072562947451273 39.28450766035948 2.4396650888603313 6.26664203681603 0.6726934556514821 
9.74902569020897 6.351113192083432 38.474528559463025 2.439874589293158 13.840442641785557 0.7816991237885993 
6.710754532389135 5.542164932917235 26.85486599951814 2.4401981119142935 10.425620545410684 0.717756942347661 
7.130179498048376 10.110287858945437 12.088810778791434 2.440314781278187 4.4599235404538575 0.8112391644960891 
6.71906344136721 9.962006048809853 7.711145670435187 2.4404509722379117 4.897810720109023 0.7403395167922234 
6.129348711690103 5.924175185248389 16.24498096627334 2.4413411995178533 9.73228959022931 0.7769000569393432 
6.11508041172609 9.56319989282993 2.2294922647885613 2.4414454553563525 5.626401033403511 0.7925534358676555 
7.6449025087287446 10.189264397428031 13.01164310498526 2.4415274487974594 3.940272323270662 0.8322862144511273 
6.097583449798098 9.54935252138561 13.768182152792733 2.442979728036623 5.652204605782533 0.829990802373643 
9.656924333927318 6.222699168425887 16.877419082757974 2.443155387086769 13.700925668798892 0.7852593167876639 
9.941709965693281 6.670290428683343 16.02565478975589 2.4432284649848137 14.232901136408195 0.7409381240075062 
9.668498182791598 9.264419117262193 33.61309252287914 2.4441973202063467 1.6332862299452842 0.7803828528716332 
6.051890153987214 5.991562597001003 22.495803514835906 2.4445202288775247 9.642268680704607 0.7702664004434709 
8.85784848239977 5.570859742619261 26.91255750441018 2.444581870441829 12.669593985589103 0.8245980664753797 
9.072704744483108 5.693706549479449 1.6170460036256458 2.4449725143100967 12.919240435375734 0.8770201031125531 
10.095638348616557 8.440020404847074 18.64986490763104 2.4450250349650755 0.6995245578345237 0.7972403217834921 
6.822613833359407 10.012745626567245 1.5513604463505857 2.4454167073579773 4.792442290744184 0.7582017978985528 
9.283454967905046 5.843965454477146 17.888442461499366 2.446313926567716 13.18534777648804 0.792046315079809 
6.863269934079652 10.030310664322965 22.613749719281607 2.4466521893461186 4.750580745030744 0.7770714374221925 
9.26383126919597 5.827848338081745 0.5920208665614339 2.4467022955420203 13.162047964302248 0.790217967286495 
9.590587963550185 9.36208026175145 38.03055139455675 2.446746170303417 1.7599729285249435 0.7733420589140697 
9.980558465404856 6.743647786211035 3.0441405304411546 2.447066784088087 14.338250445321092 0.8239766485576592 
9.078036678755563 9.80543897467996 31.74865598136573 2.4471433956255044 2.4401974719563597 0.8212945806505019 
8.462329384365354 5.407040945295028 11.660964198778402 2.448850808819178 12.262715271276882 0.9230188409532832 
9.505998378692027 6.0426326959533565 21.41019476247299 2.4492107742896563 13.499627999838538 0.7603826456655425 
10.069318050361538 6.962204668689468 32.047917627894066 2.44946069631001 14.588364538033726 0.8224206981043036 
10.19239864109514 7.562937245023898 12.133853158653508 2.449551713339122 15.203742282381269 0.807646962405792 
10.066532778636121 8.546859413289624 28.321602962896982 2.4497569346863513 0.81162623920798 0.7274843158674325 
5.691319322415666 9.077901237988748 4.991880296566137 2.4497934260078225 6.292839492032549 0.6802310527077031 
8.4121459501877 5.390920841643778 3.694963570023859 2.4502431991009948 12.216981156908815 0.907636931812986 
9.455086196159698 5.990058336095489 13.383630908975839 2.4504517127830416 13.433271629750667 0.8171022094511976 
8.98975315947429 5.63608513095147 20.61996907490213 2.4506374619700386 12.848208170493226 0.850481875097757 
7.752479002269116 5.299145808901448 29.81929146476053 2.450855444835045 11.551863193448309 0.9097605651760522 
7.097332947742187 5.38746072772787 6.471877094566402 2.4510336787019127 10.889586989202378 0.7531496008024715 
9.961679379847334 8.806545203561189 37.2553222383926 2.4510841369504335 1.0923465925127616 0.696873911218511 
5.29863021896521 7.752586082729993 10.244248396162476 2.45137114513377 7.698623497564569 0.8800525005353608 
5.341564127003153 8.20933101615956 11.140785684757716 2.4518459039556832 7.240639893765117 0.8521898212493435 
9.842579654318223 6.4710175574324555 24.035162373288323 2.452485616280475 14.063955267678207 0.8147803052825764 
6.114935722421542 5.921946594627441 26.056135842945345 2.4525934120247848 9.76784623878784 0.8068942947772677 
5.66414913760917 9.04013822549656 14.602569531635147 2.4525966772023473 6.346504639279534 0.760718191808104 
5.996577219814787 6.0351290322805315 31.719577932494346 2.4526055292279567 9.604098581633433 0.8342152581203596 
5.446134412856583 6.906810354821758 14.50421669061803 2.4533172280321773 8.568063296503578 0.8098473698053767 
9.967226687417295 6.6991837362830555 30.302647547256313 2.4536317986787504 14.330701855100578 0.8716784677040696 
9.843626404061048 6.4702801954698295 12.42007024015556 2.4537632929621207 14.071198928346899 0.8358591367855693 
9.397404904091218 9.568552985824613 32.68835793280073 2.453788475047392 2.048270046671501 0.7923187870663061 
9.884790353200174 8.960162446596767 5.173582007418226 2.453940300673511 1.265516180726289 0.7503754365592346 
6.4111481720601375 9.806529621556573 27.78587699437739 2.453943418564812 5.270804569296292 0.7434017980014963 
5.298422359571671 7.86117081848602 29.39363663709384 2.454096957728235 7.5985640977134175 0.9055273566161965 
5.55090210901783 8.839928314972026 24.121159477182097 2.4543787942980577 6.581296500894009 0.7547655139660836 
9.219407094953361 5.783602639040756 8.190075436926485 2.4547659342362467 13.143143795596115 0.806914585244186 
6.3184158435766875 5.75559951580702 38.00006086260309 2.4550084497352422 10.040530821167886 0.8356483946155281 
8.872014311612965 5.565710569908889 10.744690179781585 2.4556132492459133 12.73706073390888 0.8456349178410641 
10.07486646162355 8.541691476915883 6.155266871166106 2.455968130697804 0.8060863721383136 0.7415784819440928 
5.71048479505809 9.118781775319025 3.0288836044500798 2.456254428929289 6.264691063421868 0.6861446884896601 
9.520210040012739 6.04681591364643 15.263000973759894 2.4565177829134344 13.552809332522951 0.7687501818792036 
8.266733382485647 10.151732851611147 34.324007819095826 2.4566916939419325 3.338340797249815 0.8896128996100043 
9.985114669511333 6.730084986716351 3.0614490067071785 2.4568199405300652 14.38490861228452 0.841107171938497 
7.2336629543838935 5.34772805879717 3.7713084901662697 2.457135410221828 11.058763167463109 0.9072125177706074 
9.501574154484922 9.47347977357546 20.315131344540248 2.4573144993230445 1.9101043510058222 0.8099031356572387 
8.126405705444142 5.321634877237287 16.28705231658229 2.4573641212773656 11.95794897241515 0.8983893488170611 
10.04813600692599 6.8794843537698505 19.523079569733667 2.4574837937738727 14.550993167701488 0.830932553293588 
7.069446647672873 5.388087059821421 25.922042448767925 2.4580043942895444 10.893510073042865 0.7914591208979619 
10.081777460886311 6.972074611857899 9.58612547127684 2.4581200207909832 14.653290072892549 0.8242940018780397 
9.208630546962036 5.770717084779802 8.212023373264564 2.458691507898732 13.147815924616962 0.8072082070600992 
5.499611994737954 8.740761540160022 10.223049766117327 2.4588319592211976 6.704904884496086 0.7797376030278842 
7.04182238326057 10.10506039855974 17.63890905534216 2.4592326074845188 4.581303109345594 0.8386370763811716 
9.235678064007999 5.7895962161631385 25.92259870893917 2.4597606195637085 13.186507756238642 0.8190893815024588 
9.005004744240296 9.86589589210774 28.991425679324195 2.4600919361487423 2.5472835409166397 0.7838844406177944 
9.898613789056952 8.948183587536871 19.49609543561948 2.4601189247612383 1.2514644317466619 0.7478233857762465 
9.40441752171336 9.570811020380898 15.794616789206302 2.4601727801300273 2.0499180526126732 0.7658973763684213 
10.108651900977627 7.048818744277021 36.53275838678097 2.460669409604356 14.749806867339874 0.8462263901401263 
5.493881049411051 6.767715852167646 36.32306400540622 2.4606817889132513 8.74090255158417 0.840689372167868 
8.205618932593966 5.331694763735081 6.342025694763365 2.4608512404215714 12.054751248050202 0.9330798519780101 
9.27517180608276 9.681534556446547 10.67951870395978 2.461092192669123 2.2209359960439095 0.8257382412313854 
8.535981785175792 5.417571608412796 35.06953210626383 2.4612983501620036 12.398588518399649 0.9084250909968672 
5.691639602841843 6.400249772462141 13.673587173424501 2.4614372227070076 9.161451569187992 0.8052250151793519 
5.930476286788879 9.407869323181433 25.085510848713902 2.461543669261964 5.914223668159822 0.8081768892154897 
6.145585708209305 5.882713237707176 18.066692917448346 2.4618905484071076 9.853877541515633 0.8696754358908669 
9.32112702359274 5.854393290672743 19.68167978868179 2.4620651739362853 13.306135070956248 0.8760419388724673 
6.758862257899427 10.003779086251006 6.690715725803955 2.46208736511088 4.8875093365157944 0.7396054207962088 
5.60641235340684 6.538192177136134 3.933738163084975 2.462406586691334 9.002853746155141 0.7919875552687508 
5.943486962043128 6.076045470296929 39.32605281922219 2.4628465489797784 9.577820118342743 0.8504730483764251 
10.071304159007589 6.927009527781127 2.0412369926245546 2.462877649415207 14.635585125829511 0.8323903840034194 
8.858392972455135 9.949428433979277 33.51676133496009 2.4629292351962664 2.7190664170412333 0.7888676169717308 
6.59790110577428 5.572817726346884 36.94903482278887 2.4632203544923623 10.40877812619042 0.8117235614196321 
5.544617732973526 8.847153549607158 8.557562709654881 2.46322082955029 6.60132298317825 0.7634230329392518 
8.997859021031394 9.873750446354085 29.006682895594963 2.463223111039394 2.560678637957384 0.7749329505969397 
6.565360741049844 5.590144050006636 39.99693246747744 2.463401692491041 10.372677488125042 0.7687309166695694 
9.860933956019316 6.4799913699320975 35.73079624343891 2.463526757947298 14.144500373717857 0.7787954335068107 
7.0288935261126255 10.105929680402046 27.031517023466414 2.4638180139128747 4.601976180543549 0.8222905156464945 
6.5268642614662955 9.888822302831704 12.888744786718178 2.463863201959213 5.150158464918633 0.6795621986521341 
6.530787714396167 5.608909794156043 25.09126546231343 2.463888363324978 10.335387819754391 0.8209703337096066 
6.347583010367204 5.723660097377408 21.569395232046084 2.4643106163329422 10.120896644238272 0.8171909524717139 
7.387796431769393 10.187609557867367 14.051303160659131 2.4643724924299333 4.234547719053758 0.8008392049180542 
10.21327200464106 7.675663859078712 37.361164596051395 2.464393400148494 15.40989298466431 0.8410316681473923 
5.843438998446681 6.1884822051829875 18.97296136671107 2.4644091941425206 9.433329550702322 0.8451078776557801 
8.892115819699953 5.566148815363485 18.786007311311444 2.4644744961648937 12.801104152739164 0.8140301139309418 
7.7309722205457625 10.214589844953618 2.0916933948544596 2.464663295511064 3.8905120198499894 0.8095228810371097 
9.490312632446456 6.004653325991564 5.3731340886575225 2.464735902916382 13.547033753709279 0.7742292763861982 
6.154587449419044 5.871111692006258 26.058078047726518 2.464865611035787 9.880173845372106 0.8706583763983444 
5.577536531251866 8.914834870254069 29.49416010933512 2.4650431635176253 6.53093580757324 0.7529348435243782 
9.896175212157807 6.537026262846016 22.296480355211166 2.4652329156300654 14.221344151133383 0.8425303113155012 
9.88409754132646 8.984594346246569 21.174243240482213 2.4654807879356144 1.2930640186483568 0.7505609108588089 
10.211314633588653 7.604286085991426 32.90559217657345 2.465624113739432 15.346174336916103 0.8938294040800752 
9.70343756158881 9.254686496536038 16.78085069521054 2.46576555249763 1.6184103995135484 0.8033095050257956 
5.759230535453554 6.294916923918411 26.949011799596242 2.465852757013201 9.303087901895024 0.8424920032227722 
5.283934942684466 7.728062649177943 21.34317360706502 2.466162629323898 7.769616038980283 0.8728538429277659 
10.136701062121396 7.128875251316899 13.13070674376624 2.4661990822636444 14.86769983566695 0.8648400293069236 
6.07992238311607 5.935075304732807 6.613551633307651 2.4663963379609974 9.787967582379931 0.8245393358423219 
9.4346043826412 9.55218073725247 15.761657840103183 2.4669307521164434 2.020677665652755 0.7508414194028064 
6.998864637328657 10.099916636685968 4.2116535473168994 2.467045304089268 4.63847880232645 0.8040682060402558 
9.937089071447788 6.608160343275742 0.18126105396706294 2.4672163277901884 14.314859752535732 0.8356089410062012 
6.107829829202341 9.59143711028073 31.339656819601068 2.4673089593678057 5.672480070569495 0.7811871921183093 
8.830094150852766 9.968772264693154 26.38897702458008 2.4677021168037996 2.7583132714716854 0.7845060694285115 
6.03376934453029 9.523288434372308 26.84505197188779 2.4677924414854218 5.774251213625092 0.8355634696051178 
5.426911574087127 8.582731616136389 38.357705608421064 2.4678293658848194 6.903510979205986 0.8207440228652589 
9.40420052727406 9.58137225639689 39.81156065966365 2.4678540730630782 2.063581258261113 0.7333727227361166 
9.74787393018282 9.19906835904024 36.29043830452472 2.468055783420568 1.5487252797234206 0.819518735751492 
6.479330249457526 9.86608216840569 35.01124552745461 2.4682798379414277 5.211946487733385 0.7761123279567921 
10.115352215647837 8.455928261582606 38.22940298609677 2.4684460323392075 0.7159230533700871 0.8197517315030822 
8.474983567635167 10.109644220927446 8.851612967968912 2.4685060305167017 3.141687690763881 0.7857859396171751 
9.12229210702078 5.697802270746763 35.88032539048805 2.4687448525401856 13.088776008868752 0.8573722598297796 
10.063051008183466 8.613592504829626 22.18261208462117 2.4690072865134396 0.882247827091291 0.7438014747131493 
5.865439148908964 6.154843125888766 29.86518807892587 2.4690271473779504 9.490972396423846 0.8479126170117838 
9.032319536314944 5.639754133849907 31.427304518954408 2.469307799529761 12.98466841346196 0.8759834088391372 
5.461153857460433 6.8231064243107955 22.527947107359047 2.4694024307253315 8.708022902711683 0.8032267883334654 
9.536437762298839 6.04504037722872 15.30245778541746 2.469462936317868 13.634200556227327 0.805221969127139 
10.114611759333165 7.037847542773333 24.888300939942127 2.469524224361985 14.794066554020645 0.8766266553693041 
9.557553881637947 9.4328023518903 35.32807457555134 2.4696304967650398 1.8514118353969664 0.7911070330747464 
6.250277215169977 5.78780202401189 27.793725439452423 2.469694177081476 10.026448931813754 0.8321061218902345 
5.395665636251632 7.003498737051036 27.598011693943754 2.469849070674327 8.517621079153493 0.8726677700012822 
7.051213993705527 5.380928389241376 14.429268847383064 2.469980198199057 10.93104711112133 0.7832884723410795 
9.221813401744221 5.7663103329397885 33.151072977413406 2.4700727488791387 13.216675019635836 0.7959233695855136 
8.72506003979381 10.019516110180103 14.555828500207319 2.470110413639386 2.8776975512163023 0.8581715198181087 
5.438444199945172 8.621538797573525 12.063782827568389 2.470398771948167 6.870274230193981 0.8162583022909887 
5.279726033418033 7.715963976312366 19.902147211425678 2.4705084336794054 7.795368246353011 0.8759142641166195 
9.940868802703298 6.6077766564470775 25.867824922738407 2.4707448830698397 14.336741686157497 0.8476409874970408 
5.372533785539851 7.076840719027754 3.078916661744991 2.470928776484371 8.444428891371874 0.869731411746421 
10.145958725607493 7.144534875039618 33.80571303775049 2.471276235542673 14.915794474974106 0.8331614495476704 
6.663346702840336 5.530434393356332 29.875328572924552 2.471292550553949 10.520570801185723 0.8346751978442006 
7.591345368301267 10.216213897728185 35.07511092313573 2.471311854361388 4.040691398795644 0.8252260659110875 
8.81879827087207 5.521502222905074 38.9522174405381 2.4715444738738093 12.75215052752863 0.8253256180487349 
5.949954096012384 9.4441678455199 28.666360402758123 2.471916249644419 5.899193991488822 0.8212191653331606 
7.042801980302823 5.381263545925071 24.262359395695178 2.472052068207115 10.932053113955547 0.7902106583877608 
10.222214323519218 7.748515620185742 5.564095024867953 2.472214769148712 15.531899133804107 0.8753086488646744 
6.880133602599031 5.435639292253152 22.375654799791718 2.4724346371319585 10.762181714911637 0.8144658778774811 
6.213282950517044 9.687158675392059 36.75087507312288 2.472667188243964 5.542307278536036 0.8065509252335137 
8.76240803651594 5.493578650086869 36.79745859678164 2.4731371455594324 12.697441024367684 0.8539918003870322 
10.180642559067298 7.29318294850245 18.619766959348958 2.4731973371504603 15.080101896138828 0.8214677835452017 
10.147779225064436 7.143754379500294 23.08596739052541 2.4732324930191467 14.927291104886228 0.8487161271096979 
10.22334261397177 7.738713047394516 6.741204997112355 2.4733683675077227 15.52934479418713 0.8835673570705543 
5.286725668420447 7.976567781391932 39.14726802566089 2.47367204620652 7.5443841636048745 0.9079161810340411 
5.682344995267261 9.108672443466382 12.939821365421082 2.474103479491357 6.334290979450827 0.6850366927986777 
8.820893853196715 9.980336538101636 24.774287723718828 2.474108873515007 2.778808399443891 0.7890229229487365 
7.363802176643535 10.194026296492561 3.048660453821121 2.47435108598445 4.2744848978092165 0.8063915037714825 
10.18906928664766 7.331351056139656 10.63027484151057 2.4747375463396732 15.128562657110034 0.880664086671819 
8.504580147169017 10.107154168985248 32.58688027236151 2.4749882777229764 3.1209143607754353 0.8496105733808924 
5.279681935923808 7.914394745644239 36.371239861902744 2.4757820926116625 7.613383042292337 0.9307502132866443 
5.685903726073825 6.38151088579386 25.022689933504083 2.4765411128702515 9.230193143961259 0.8508740379250515 
5.433446459186149 6.874307666081634 17.906853657251837 2.476541413168894 8.675334771226165 0.8269928422239808 
5.701675490943703 9.142256588748529 34.796262399135124 2.476693703976009 6.302238603966366 0.7243159535808299 
6.869258139283497 5.4350623344733275 38.90613993838986 2.4768210715537036 10.771298101037948 0.8006074137141989 
8.687644573842054 5.457476135364216 32.350527662606005 2.4768615255560906 12.633555898236855 0.879244765735617 
5.6340366302083424 9.037631893947644 27.641299998531075 2.4769531438061696 6.427502851322794 0.7575222862099498 
6.532775333088274 5.592424685574439 15.362214076917752 2.4772499121317795 10.401320746611793 0.804574911435186 
10.056910064122603 8.652813713233426 39.9863270093728 2.477278071745779 0.9240965315135998 0.7210906774847745 
5.5612097350913565 8.910635270879666 29.464165986340724 2.477473926354981 6.5752863946348175 0.7256607225623474 
7.747736991271481 10.227683447282478 6.940066768723547 2.477684480749326 3.8942006903609183 0.8458068284980593 
6.162744495742835 5.847345903309577 33.43940483197283 2.4777959253028716 9.95360456019613 0.8679335726759926 
10.18194986174044 7.274853845251753 1.0068570218896724 2.477931395013061 15.091194984996505 0.8251798816872018 
6.0031810180994345 5.992464773084338 4.784728510139317 2.477964210673275 9.738520241465839 0.8441389938777328 
9.448150148577621 5.945178487745709 34.93141751202064 2.478123204808441 13.548754199968688 0.7678719374660568 
9.43346385579232 5.9309420958779135 27.70140371610193 2.478512096461944 13.530428538933972 0.7774587623537557 
10.223316958039815 7.58246610867651 20.26505329523799 2.4789845460731157 15.408257593411918 0.8483688140114846 
6.596736115809197 5.555572847615531 17.167314615946438 2.479017570268727 10.482568173914805 0.8291078203009906 
8.153375953923728 10.196268200984614 31.618609945180992 2.4793023759421455 3.4893019839152775 0.8867721946321259 
10.000622750408464 8.790303852554478 30.139141397565652 2.4794222855931283 1.073533253008323 0.805161400440328 
9.794495896103097 6.346675868775543 31.28691280316154 2.4797746039628867 14.089214427726764 0.8169245209667598 
6.214940465219563 9.697742038192043 10.252036738859658 2.4799408909610774 5.550734842031881 0.8170294885652668 
8.656696005924125 5.441726498932713 23.30848049367563 2.479964556780641 12.614774728971883 0.8951273534776791 
10.179762280679764 7.25339638821735 38.28009314891976 2.479991912859739 15.082265008467525 0.8420465644565778 
5.692866255156424 9.135173376191188 18.135558043749064 2.480021073757851 6.321515673813968 0.682569434704704 
5.688354664564519 6.371306841026067 32.65398939863676 2.480156510328409 9.253526935701235 0.8426978769728815 
9.107477775591818 5.674198015727487 22.317021929867245 2.4802620404173865 13.124401772868124 0.8497230210383101 
8.87898374824561 5.541393898079667 34.10049260695845 2.480432465769314 12.860884578484796 0.8177367193229383 
9.311386425701066 5.822594571589523 3.549475455461554 2.4804877052365564 13.377906968180753 0.8569633878069784 
6.148953532628315 5.855360926448878 24.195271197185065 2.48052555111009 9.948845505183524 0.8415347731754345 
9.900676658473792 8.986125502952563 13.29600654202298 2.4806080602049416 1.2940210986111733 0.7591547315932992 
5.402197368248881 6.949176926083412 31.87107777918353 2.4806238718061824 8.608539071547252 0.816316568731696 
5.343467173265967 8.351774296571511 0.18434980076217045 2.4806314821356743 7.185294979040224 0.8305012670017967 
10.230641701598913 7.736231336347446 25.630896437356945 2.4806799124051286 15.572802843091898 0.8865697876797486 
8.773542827069274 5.490286705601946 9.08333732925827 2.480714431716045 12.745155393226355 0.847110183810387 
10.161251606822784 7.1663442623011715 33.82603330235999 2.480884586504219 14.998679146181935 0.8841512512358223 
10.230121962272413 7.684207047538296 23.954147448406054 2.480994490187273 15.522747461598748 0.9344637685281929 
5.543841892122527 8.885146206245865 6.718181173709915 2.4810664050984004 6.615477112995444 0.7634923296878263 
5.826125172688547 9.316757481946054 30.389478367663642 2.481133482583439 6.098991132026271 0.8158636851585866 
6.970920097422795 10.105948344208867 31.52619180485617 2.4814225950410416 4.690292397239725 0.8009121073475425 
9.969538846819837 6.640403872499691 17.83457563563806 2.4814423746494745 14.441002445704633 0.8628082868230306 
6.528495204794539 9.910203186699881 18.502538937538734 2.481642958311744 5.175293149913708 0.7380603661916206 
5.316996426600301 7.261008570389183 18.977689388181243 2.4816565045163945 8.288566107597106 0.871851306348978 
9.145159119998489 5.6976457389673065 16.18301886499569 2.481658111604824 13.176161318298423 0.8139141590645967 
10.157406732189406 7.147122703763371 13.144469951231805 2.481747007353583 14.98430627769008 0.8704641397548204 
9.632890181306779 6.133206118091769 29.51522202472553 2.4817932813667953 13.83271041714588 0.8419976388830356 
5.877560686340368 9.378936967467169 7.57929990519068 2.481826872954535 6.019987388270852 0.8168126503177362 
7.851946018925311 10.230000326991489 24.55116078226782 2.4820948033168664 3.7968906960222313 0.8436576298834173 
6.382053174820236 9.8214956064591 14.72885413446678 2.482412649842642 5.34817127766911 0.8027645049361932 
6.509339758523096 9.900746616237061 16.405687588690512 2.4829315016803624 5.199309555141188 0.7909553847363155 
6.968282846274219 5.3932293693010465 28.90789490285789 2.483032322414326 10.90577143312441 0.8067749036363214 
5.540210589021704 6.617502318065952 10.152417523710902 2.483086837075537 8.976813900023966 0.8310523098335723 
10.138433442101801 7.0705625129679355 15.101558395645469 2.4831934290616 14.914150298859749 0.8204470811149577 
9.099335537519698 5.66538373722522 14.300573742656795 2.483209889606328 13.128361753769816 0.8455582684412352 
10.233392245634247 7.727135843145387 8.577253373546455 2.483497496544938 15.581410500853146 0.9024455130259399 
9.698773461343128 6.210471236380236 33.968871900609486 2.4835190391152397 13.943897592798109 0.8206304763957566 
9.711218111857159 6.226038923525959 18.809151221565692 2.483713720396229 13.964920962944362 0.8351724035292813 
9.520123186656896 6.007317795078983 39.477587933077864 2.4840043001751693 13.67593080820808 0.8297612999859901 
7.887437467383654 10.2304188269268 22.837811887216823 2.484223543567237 3.7647015425840777 0.825610333917128 
9.62965821085046 9.374379042765392 30.9283211871831 2.484295124213902 1.7704919844873999 0.8260991427786925 
9.238977419989105 9.738887994741562 5.284428828894221 2.484497778800479 2.3060137705396286 0.8367268163343176 
6.167460792727351 5.8345856215664345 33.439306815260764 2.484601091456169 9.99273746491632 0.8037798772766371 
5.330625430495505 8.315918080226586 0.18870883064173682 2.4846803780551743 7.234924741085656 0.883116412039941 
6.338059579398786 5.705465190375675 19.778422765418718 2.4846928057796434 10.207129755826177 0.813967407678238 
9.894018648289883 6.494116322492387 28.568266472593223 2.484765537358571 14.295604175495995 0.8186880918375568 
9.840141447952563 6.40625660646208 20.383624147347646 2.484821438278018 14.192853769396734 0.8127253588182984 
6.061627668673816 5.926869320345428 1.154271477152804 2.484835327398085 9.85323742457959 0.8158867944327711 
9.771672964403521 9.194835295065065 24.691162192578197 2.4848964978175423 1.5418930733534992 0.8270334756243486 
5.2657040524262175 7.806858509757992 8.407249180724328 2.484946527646706 7.74982628352733 0.8897572637843796 
5.383649364988864 6.991126298003259 12.85403759153553 2.4850562616165943 8.578227140019681 0.846680453171732 
9.950379529496114 8.905172966526777 34.526727854328755 2.485174975010778 1.2014271160634067 0.7551579240187085 
9.942433018616835 8.920207625575436 27.35882913698643 2.4851857934722363 1.2184379416095457 0.7530306547916663 
5.70696774179045 6.3348046318906 23.382652983378343 2.4853085800365133 9.313440757871394 0.8290245412361966 
5.264692481836093 7.765366436640626 1.0344915918460345 2.4853550223694545 7.792606545294106 0.9023873172688068 
10.185222759778124 7.253321968637302 26.66864791021198 2.4853569072830815 15.115913158307844 0.9021587335913493 
6.601461800143046 5.5458089567780675 7.431386622695626 2.4854774494149914 10.51860933866288 0.823623736542533 
5.932190881026701 6.054591120063597 12.742306459531036 2.4857275118543645 9.674861575859374 0.8289469876582031 
9.596268472713296 6.085568064228109 7.2037692561338105 2.4857676766247563 13.79485682829214 0.886147654919376 
10.01930398016282 8.764816411453232 25.689547610651573 2.4858786984359527 1.04535427606465 0.7220979615315862 
8.732402262490323 10.03357670228813 30.72580131607549 2.4859277464518628 2.8949292216543725 0.900563856829016 
5.433980239028214 6.846474425497412 38.86673799001122 2.486022123190387 8.734770141837771 0.8214286976339876 
9.818385171273915 9.129213747404368 14.928822833146377 2.4860506386184147 1.462045792166709 0.8445305682708255 
5.657319917320249 9.092428325751314 39.266331327021796 2.48624691819296 6.392699833640428 0.6961200970443263 
5.412174603757805 8.596204136339463 35.62131276806495 2.486260047475525 6.9473594190895405 0.8105921799757939 
8.41619167053702 5.354577398096593 37.74079146805455 2.4863348092327757 12.391008787270728 0.8732637963423723 
7.527456150517224 5.273598772146503 2.3577256937283124 2.4863806639887076 11.493950776769076 0.9223550673862899 
8.471046532159734 10.129595586450442 12.416278040127196 2.4864398759258184 3.1741352581766016 0.8267221738420696 
5.2783052353991256 8.021191391536313 12.9018438814591 2.4865276552250077 7.539925086796728 0.8853518607090011 
8.973290020520245 9.914862154732479 22.84712328275431 2.4865772908352093 2.626968822522956 0.808199936479966 
5.304790518212489 8.202221343776674 9.348811924880614 2.486675200662671 7.357368689935438 0.8529024994989809 
6.522015476676875 5.5876804078033615 25.103546886043375 2.4866789113833234 10.433870419210695 0.7911299676972269 
6.288284012889715 5.7380566214832385 3.842058245205081 2.4868714854875873 10.156595917816539 0.830640512633268 
7.797784936288647 5.263413348395391 10.925618683185292 2.4870457527102983 11.767714875608451 0.8699111711893841 
5.928911953096293 9.444428756561749 5.911073204636473 2.4874586399855905 5.950517347503197 0.8036035553491625 
5.301761516128796 8.190216222051749 30.35741741623424 2.487501154987769 7.372168288085611 0.8967562601940073 
5.382568549407242 8.513715885339575 13.78376504824378 2.487567813502928 7.038671877161342 0.8835989394698104 
7.415850072513042 5.284957231059867 35.07386252478674 2.4875875917731167 11.387317295281079 0.9080022634779157 
10.023056869361081 6.73897452209475 30.302879474164904 2.4877620562109963 14.589916453738073 0.8160017003911375 
8.748705079913842 5.471424317405891 17.110081976552184 2.4878341942249538 12.751326176721935 0.8256664927105901 
10.15111173337841 8.40120769255427 4.349175029979392 2.4878522896284125 0.6588831005158191 0.7871812028409105 
8.094606244282097 5.286041496555034 9.909766430405291 2.4879399048805353 12.069858349389786 0.8991126946029013 
5.508898595514944 6.669148285514867 33.61857390938744 2.4881269931195926 8.934786554567925 0.8335834058151086 
6.9395986737437845 10.102480395098596 38.57821077777212 2.488154802041279 4.733844608885057 0.7898490366138831 
8.094729666087286 10.214304414128659 17.54891946286618 2.4882995776583345 3.5627697797599254 0.8857678935439526 
8.90996879201121 5.548585383422013 4.584490022049863 2.4883235144416305 12.932662648769831 0.8348168554477475 
7.76370608661421 5.261392627969258 7.242254401436249 2.4886451151050095 11.741169972413022 0.9116360967194755 
8.458558121863145 10.135737131341749 21.977580212460467 2.488733869243753 3.1907965595110106 0.8482632380553691 
6.160104554771351 9.664775724515103 34.05326110944696 2.4888016397357062 5.634048198151881 0.7578657734766024 
7.7196122781362355 5.261358879701243 22.97553370344569 2.4888266390574345 11.697930751055647 0.9267220211545403 
6.746826057434653 10.02773211212978 33.287859933963425 2.4888594845168144 4.942030217670869 0.7343130001103838 
6.312708722020407 5.717862871505329 30.80878474624158 2.489053540356812 10.197138031179541 0.7975882392980403 
10.098318067193894 8.575293121014479 6.1498899300516 2.4891176107815967 0.8412151607437597 0.8171186135681374 
9.883321112551403 9.032530325527652 31.838474458985473 2.489165122115368 1.3473693954418575 0.8160551046999415 
9.143099093386896 9.812827520965278 13.652534694274696 2.489173048473557 2.431465879496958 0.8521437225715877 
9.093070149892155 9.845765747356353 19.272110520275827 2.4891909318739422 2.4913834363177045 0.8445305319879174 
7.678953698054883 10.238178651471406 2.0476939937634313 2.489192756428907 3.981070790162942 0.8004115330389833 
6.729466559800668 5.479618125329157 34.284010056185345 2.4892011488425303 10.678553719618204 0.8618197330058294 
9.455026667802748 5.936302021877909 34.95035944474141 2.489300362303173 13.608789099433643 0.7800503241107255 
9.848515144327166 6.410841012175531 20.417525024216133 2.4894000493374926 14.227390557788066 0.8328232570044993 
5.372649479855573 8.48870256433274 5.805717352749319 2.4894732322687756 7.070914449981114 0.8600334863258136 
6.16223063105125 9.667437703799544 8.536008343706712 2.4894937069460488 5.632278635489897 0.7532940965997332 
8.651488551668226 5.429393298204275 15.293746525945352 2.4895576059228093 12.65421537601658 0.854154004212303 
7.71213284831763 5.260707821735628 5.458693990982773 2.4895801794569135 11.694001591516342 0.9278757288025472 
9.817750644119617 6.363233420874466 1.2417564899762432 2.4897217256626556 14.172542247801555 0.791448697904333 
9.733780614203972 6.2453694656651475 18.80534676028219 2.489839065109283 14.028469907864242 0.825770450026357 
10.225911096659818 7.486739032309508 16.682025437404604 2.4898678871925206 15.380547355019099 0.857540174432934 
8.46910658496763 10.13381251861633 20.18601871054878 2.489914939200882 3.1816509102096795 0.8309351450845919 
6.268419660828538 9.751389721960425 29.600909293352416 2.4901086563819366 5.498271548874085 0.8518137391952135 
9.339465144903741 9.66686480016717 29.941124012825966 2.4901345564012773 2.187588425106682 0.8427660260120974 
10.221162033081443 7.442432180542272 28.38248283047722 2.4902288564124397 15.338214150390549 0.8983666918606141 
8.81135448475625 10.002879333450656 7.851959818581399 2.490369176126559 2.8154282995180218 0.8175172773583247 
9.7851534835156 9.185560190231678 29.167817882100366 2.4905185727562245 1.5299972204555399 0.7920407193426486 
6.915495980680692 5.4034386334214375 36.01218598328097 2.4905315106175894 10.885387899411047 0.7524585780502118 
5.791924667886825 9.28910707082207 9.429583335239897 2.49056410912962 6.165211853419166 0.7832612682069244 
8.811038222337539 5.4967298028327 2.7360830536455083 2.4905880210712414 12.8326976684151 0.8268578156410455 
10.149299213953228 7.081691160120435 21.144716982034787 2.490637152123478 14.972534643498609 0.8305579956419974 
9.11140123484217 9.835667911097108 38.80747791816656 2.4906673719326644 2.4719787404050138 0.8693951344340374 
7.83541919881633 5.260776500061475 38.55213777703101 2.490688674277182 11.822529814578076 0.9077384609058247 
7.928379190722428 10.234422358933507 36.04613426336781 2.490817856297708 3.7340355211354357 0.8447796649122068 
6.659021302616109 9.989239671481744 26.10766529802497 2.4908690901938453 5.041915650857888 0.787229098400892 
9.511832042737796 5.989170070913097 23.209164100263607 2.490898268895343 13.695137080569623 0.8262433200680335 
7.3232794796401315 10.204191458978276 15.74374932997521 2.491013070984998 4.341709776616977 0.7973901992891073 
6.359777606701016 9.817032509982777 32.29510507534304 2.4910523278637964 5.387832741566612 0.8088917111784245 
9.757059270292746 9.225749964954115 1.8524266565701666 2.491209520198997 1.5794601436668145 0.833212049951359 
6.245300872200968 5.764369469282853 10.165032661431148 2.4913546655816052 10.124661747846542 0.8219634260930885 
10.059633647611921 8.684206688661682 39.96738378268268 2.4914152049229727 0.9576121297332278 0.6842279450404334 
6.639252186294403 5.5198833427774545 2.9030581341898625 2.491421483906972 10.589260975507809 0.8561383112320428 
5.576249652845917 8.96742135211262 29.46831386273174 2.491446431359144 6.555149786852638 0.7248797133779566 
9.53090991006113 6.007517658820451 32.212765225609424 2.49156272589644 13.725254455557618 0.8405805000690024 
5.4021447257069735 8.58431143894424 38.33548172506725 2.49168616927951 6.977118092304831 0.8397299889067379 
5.288129120190382 7.365574640590712 15.468774944337383 2.4917044539454416 8.213887414744526 0.9294404346205644 
9.834448712782539 6.384757286233155 14.293744294818971 2.4917492056212733 14.211260710161852 0.8256388779692404 
5.3168755171782 8.287533989867665 37.33431481810208 2.4917940402789913 7.286408958535159 0.8923811107779316 
8.42925125147649 10.147444351347504 37.18083465002557 2.4918109238945947 3.2261695919055366 0.8791942212154483 
5.2578682135496795 7.741423543415372 23.17806297217375 2.492146543974414 7.837885747732692 0.8799963122293689 
5.296459057833754 7.312016343600639 32.85047760609049 2.492326792007617 8.270145416696796 0.8786227934787958 
5.677645250619566 6.3651446150020625 28.4165148792572 2.492484432175541 9.298691861851971 0.8004777144597379 
9.778145378006595 9.198857478330773 24.693779309108344 2.492501086628554 1.5461207868067213 0.8332899672512866 
6.066478091949289 5.911810287151608 36.15679938772251 2.492626613696557 9.897923596662125 0.7899219696659223 
5.530035587520343 8.88358850159771 25.85601745137933 2.492642149132261 6.654044326255505 0.7393915183496785 
9.135796282541342 5.678040061484182 24.204257033181754 2.492679145722507 13.215911187144606 0.7693196886833331 
5.5799465595471744 6.523457674541195 21.473320954792527 2.4926969351613995 9.11340121641069 0.8478568375915511 
5.832982539705025 6.156640873706101 11.060153656187104 2.492739306148932 9.559780614095498 0.816146037827809 
9.682834807430636 9.324261574755743 8.732073022209441 2.4928196682808523 1.7038672016130292 0.8210108589987929 
9.148480987086806 5.686348873222256 6.322249001392528 2.4928708438854885 13.232090653764326 0.800128203091562 
5.951153341038946 6.024145304644513 20.68004664450425 2.4928745920996356 9.73787883046088 0.8183454591150814 
6.6310491700697565 9.977862815417122 30.545343596930543 2.4930751461036778 5.076511122618264 0.730721421699114 
6.4960200393630885 5.595012538148765 32.52000752844239 2.493278304244229 10.43533495142526 0.7647165559883009 
6.371720669083141 5.672231789943801 35.19782507233692 2.4933460748064564 10.289263299603668 0.864189895441148 
7.776989348959587 5.256741568217965 1.2273730212078604 2.4934045064147683 11.776881795694113 0.8461754234112201 
6.028878397406146 5.9457318133424994 14.557697263673298 2.4935202546399298 9.850830104404922 0.7979608224505315 
9.895006608551602 9.02147423544512 27.35415681805496 2.493531648511963 1.3342364307532826 0.7581434728038577 
7.223224072987497 10.187264216237079 36.868594906711294 2.4935416052333306 4.447621028366424 0.8594040804506039 
6.172556518090788 9.681211096756433 17.34580564109183 2.493572585439022 5.624769016472264 0.7725994396703122 
10.226620919125205 7.4595807209628315 14.181671211695921 2.4935906910888637 15.376612512553987 0.8667896309938616 
6.993514150772064 5.373853867439035 4.7635428587599975 2.4936602181064176 10.98249929718279 0.8015598141657015 
5.531929101497461 8.88970363289351 8.548812620156134 2.493744750694128 6.650680387061575 0.7242458258556356 
9.26312317915881 9.732361346404648 2.668313080309545 2.493852093253912 2.2914551338970472 0.7731818715295683 
7.496821871876081 10.231091483637725 0.7310095647019033 2.49397556418261 4.171142665978312 0.7456324952373345 
5.525587095213879 6.622012097348065 11.900912911934924 2.4940668554608036 9.005825678480395 0.8052711742543192 
6.4183126477577375 9.858829712165388 3.1819147715901295 2.4941038388634835 5.322524991313493 0.7840433262566033 
7.571752704412262 10.237771718795155 28.071721627392108 2.4941491982680866 4.0961997749449 0.7671565756881789 
8.926823232596087 5.5508705844825545 12.59802761828859 2.494209916380737 12.979232757296334 0.8235180059654376 
10.17359652378421 8.33964572395626 10.646299094708212 2.4942939261199397 0.5952805655463216 0.8258799627046288 
6.772785618992149 10.044958693744903 6.682336471132928 2.4943502866365543 4.922231428523544 0.746442000175591 
10.073994511374877 6.843990603309912 27.57622490058114 2.4943543284367786 14.745274306879672 0.830276189230279 
9.843174585275694 9.10668447640425 3.497607948168323 2.4943882241865127 1.434451235871709 0.8315909786540426 
8.524315642126638 10.121203892124882 32.5758244781562 2.4944283135961607 3.1309154273106685 0.901056147998978 
7.3038226664282355 10.204278729166983 39.53616118016221 2.4945056210469243 4.36695156004496 0.809280568054648 
9.373996108566793 9.643466575831518 23.848239355234348 2.4945097783795545 2.1499135778142957 0.8020421880144469 
7.778037248088854 5.255640471188905 8.960531832798328 2.4945170968047305 11.783172716798672 0.8563640489398154 
6.9189334327811345 5.397958888167494 20.754765355718614 2.49454786101595 10.908017045937257 0.8607027494099535 
9.800653081417684 6.3291622057341375 31.22543907788906 2.4947861828104894 14.16354988555459 0.7814070588516572 
7.013468156012918 10.133601283657617 17.650726171188257 2.4948014423318825 4.666498776404124 0.7429212596645646 
6.911666702366883 10.099771756807188 28.833096979240946 2.4948406816887436 4.773856495889186 0.804505124003952 
7.87526287171673 10.241707657032755 33.387786434699805 2.494854271324558 3.7935923647328895 0.8168390469134889 
9.642709545866778 6.1242454551319945 36.64196614529037 2.4950806129610696 13.906368346582731 0.8144921940120614 
6.631823250826729 9.980555778734695 9.381494410040418 2.495134931108628 5.078804949085928 0.7265537859083205 
8.75019083672479 5.464046706581637 7.230452615310774 2.4951882032340764 12.787418099346421 0.8109676227222776 
8.850558362481138 5.5105799853636235 29.642795082592997 2.4952416137883615 12.898332005880533 0.8182695908253939 
6.531230229469209 9.927353564501814 11.214236877409434 2.4952491455581023 5.192845411232497 0.7620329227717227 
5.297218383730755 8.208856089738866 9.342973024501099 2.4953329573824026 7.377837481444667 0.8445438338298624 
9.16788056276977 5.696630628289215 28.71191321870034 2.4953378662939136 13.267013182333146 0.8105775485844173 
9.002502918142445 9.908271446837544 21.06555926213112 2.4953755625535705 2.6075875518057394 0.8301152966559633 
5.4839332295852685 8.794922849649714 33.86390686215458 2.4953802054392287 6.761312620900155 0.7730108223800737 
9.548682108634571 9.479707061151919 28.176851604875267 2.4954245821745284 1.911126054185834 0.8049674481222502 
10.046305741041134 8.726887281975479 7.8839022596748976 2.49546164427024 1.0037338581365152 0.6903731348472824 
8.643689767033283 10.079995590464378 28.070709594121276 2.495508134886251 3.0059479773697273 0.8758836203134395 
9.793786742525537 6.3179788121721785 8.860709022380505 2.495545818315294 14.154759461245416 0.7820616380995257 
5.479593998096636 8.785889347030256 1.8641097859851428 2.4955580844311345 6.771815006406385 0.7926190013607766 
8.551862314278821 10.113287833738843 39.7541186865935 2.4956186720247593 3.103765734990292 0.8698433767851895 
9.47009004050675 9.55818801490691 21.982406325298363 2.4956469391128846 2.022377668360768 0.8010781911676264 
8.44772849897624 10.146163010028568 23.74538635781886 2.4956807145371793 3.2130528978244186 0.8358365655218292 
6.022341563161143 5.948971075175276 6.576143343994438 2.4956980711688224 9.852467914436007 0.7707054456789212 
9.35538056875593 5.839164917143323 30.451641856256998 2.4957038054254332 13.504588801828184 0.7836421994275061 
9.756727988264831 6.266180389240141 4.336842686003145 2.495731927944378 14.092121152813771 0.8146533450968518 
5.901776318677843 9.427133054845433 15.545675598643797 2.495737578323331 6.001469902214804 0.7801766799168732 
6.1093114103676065 5.869312717921211 16.27630636325295 2.4957651534394887 9.970682589125857 0.7567078867044639 
9.398635901729797 9.623765827817362 7.098187371045654 2.4957962084209746 2.1194927944785675 0.7477995715187908 
5.761460041614757 6.241227485947638 9.19165151760754 2.4961341440825406 9.461995886796071 0.8578509292095516 
8.994947952032422 9.913608617955669 36.225581523105305 2.496216668272559 2.61767973969776 0.8285335481765944 
9.945360963387666 6.56190880351663 33.01587785628791 2.4962312494493983 14.44603190714269 0.8299542843839491 
5.349109218192716 7.066416055681335 34.545087471477096 2.4963099877814563 8.534818245893842 0.861763749106474 
6.031606860029608 9.560722826174537 12.04626454036977 2.4963157125505586 5.8165109355097755 0.82104020255934 
10.10736718255638 8.57149723810673 12.4077350098554 2.4964049642657744 0.8370964723484633 0.8116273988763066 
5.307910485112378 7.231230129178481 24.103452406546204 2.4965823394385036 8.36582226341385 0.8944335011892577 
5.885529536941757 6.0896422235850665 34.38353843376323 2.496605305873991 9.659736131601726 0.829867249631824 
5.779578388854011 6.216802945738998 37.231708292406886 2.4966486602775677 9.494356273248822 0.8461248794027504 
6.116983568263926 5.8613382954427955 24.18794118165362 2.496755034155522 9.985660901291453 0.7677344651664307 
9.184384794188684 5.706342675100339 28.69467128706598 2.4967969479746936 13.293870437746605 0.8463456575575861 
5.634324150231249 9.075987929706107 32.146764837288146 2.496863690917271 6.446252721574552 0.6762644928049396 
5.630941204958329 6.429408736418697 0.3351007500868235 2.496872336001727 9.235667200840771 0.8065431802563525 
5.726388809105135 9.212713544968217 37.58975088790478 2.496904717154506 6.2814947175355265 0.7042728419405302 
5.253049333426903 7.749599604107306 25.054685214269313 2.496950698675627 7.844802367229663 0.8706200902270032 
6.07290600451131 9.599970113070203 38.48806934658967 2.497004943719014 5.761138534476666 0.8147706586137436 
8.71944313970415 10.051169360103255 35.23940623870342 2.497038330702488 2.9267246020271713 0.8558894602424643 
9.945202441125879 8.940242485169557 11.432508328364655 2.497116523317968 1.240658185204346 0.7247216631509141 
6.80381851678489 10.060916524071999 22.586883268559063 2.4971172540367754 4.892886473518153 0.7695525558894324 
5.385957934493211 6.945687337616427 4.8754465859351015 2.4971210916485727 8.663849719158199 0.8015633041985902 
5.5102491968445975 6.645800363278614 33.61839420556748 2.4971464710687106 8.988792095086175 0.8738277373669472 
10.16348388679748 7.108977253604813 29.36128879512598 2.497161315018935 15.041847154032748 0.7847439242121176 
6.786142316872791 5.446331964128829 12.757241993896045 2.4971800201062586 10.778130494432222 0.7936623222832274 
7.006783382001991 10.134123705010431 27.043550860132072 2.4972818787756155 4.677370994634552 0.7454691099430681 
5.952594839403355 9.483754190266515 1.1440405520087147 2.4973123360136893 5.9291640360481725 0.7958411404477078 
5.328513713223661 8.360990789932242 3.838904880724108 2.4973797433365816 7.228493657287764 0.8459520987104223 
9.260051222607665 9.739235583887739 34.418191380195125 2.497461291612764 2.3013842036461654 0.7975124844605379 
7.467466744371507 10.231451114210977 5.930158480416154 2.4974836681658066 4.206177556991232 0.7578439573508098 
5.768169779564147 9.269796128894903 37.566822775964056 2.4974849941564705 6.212206865458384 0.7321078842614703 
10.062987424070727 8.692284358969552 23.822147872496387 2.4975609376085273 0.9662050703891243 0.6468401188970762 
5.252386989679373 7.758285032103133 6.674600043097385 2.497626751754517 7.838240807423972 0.8570049638750475 
9.71268093058815 6.205221800008658 33.97163895474627 2.497690157418018 14.027964439800094 0.7936187525698035 
5.955133926265283 9.48696420991203 4.005206805362491 2.49771673517219 5.926051043807579 0.7935063657008253 
5.681746912480268 6.349522321094451 5.690016362160108 2.497800745285257 9.333793440338084 0.8192517525320541 
9.566596094322088 9.4643876225704 12.260959304785757 2.4978283148224683 1.8895073795230708 0.8001324484273242 
9.844666638020575 9.11094366532167 39.031057476751336 2.4979583632670095 1.4392669148840582 0.8061723017586246 
9.41791676355682 5.890426044780007 11.72541359342155 2.497991518217462 13.597836985089131 0.7505805116858987 
8.702200084769231 10.059434528529007 1.1003362992099284 2.4980337954072076 2.9469908973454384 0.8709592371355057 
6.39999605343548 5.648146943970698 13.66280347048452 2.4980586311933295 10.345588177544128 0.8038381233881158 
8.622482004199199 10.09079104713558 3.3555803149800596 2.498104796441003 3.032743360337939 0.8647613536129473 
10.160282798106435 7.093444060634818 4.788076214104777 2.498105055509774 15.031697330703123 0.7841235743144979 
6.627282456814257 9.981622455546281 26.117829325379063 2.498125990792986 5.088474475412072 0.7086836180736846 
9.56194974557391 6.03025854508358 21.436142534197288 2.498133813918581 13.799416478050437 0.8284049897801119 
6.457199251183669 9.887618892654094 5.04003563140315 2.4981489760163975 5.282903324031205 0.7776480278779772 
10.050200539318427 8.724701370818511 15.964034026073762 2.498192403190006 1.0012960939590627 0.6601174407335346 
7.204889712683029 5.311913086526037 37.766559071109455 2.498282014303389 11.22334564011914 0.9088779110178947 
10.240737770194452 7.555542968997411 35.67607740868962 2.4983170689045013 15.502735184640459 0.8752560761659788 
6.34746090664164 9.817506440741903 24.264534735266267 2.498339206534562 5.413549061810258 0.7850064569497578 
8.65032337989802 10.080497088975667 11.355794053541032 2.498359235601447 3.003368198681679 0.8581812155055044 
