50

9.25765123337229 7.651263125077017 33.87845786035116 1.3051069047146653 7.84720233349282 0.0 
9.415372392945859 7.3633586341226245 9.989030198255222 1.5519636720811167 9.09527329244614 0.0 
9.023270565460685 6.790580067193199 27.444260018061108 1.5842282739582196 8.577970440717756 0.0 
7.296590321031601 9.435570827878239 7.275444670761534 1.5986396649406136 3.2394845849734963 0.0 
8.213826744281093 6.395706784565947 3.619984279974318 1.6184803358884499 7.841362623699066 0.9643341028460142 
8.31091961764264 6.388207396464086 33.52974956300824 1.6415073577197656 8.048230593025426 0.912728500427512 
6.452817341351636 8.6395944135953 7.534893006844193 1.6741729878135456 4.603296347008335 0.2238631330303846 
9.564375762965753 7.2896007451354325 16.127464773643126 1.71812066778408 10.06289265187527 0.1902762955220928 
6.719663515984003 9.222068911027138 24.725029697288818 1.7699474386550271 4.211545520815804 0.3153036222246959 
6.297613677212901 8.538810913753208 6.529653813944556 1.7856193303143173 5.0623465196249455 0.5062297681619126 
6.976468392246833 9.481441973124111 23.24843359453672 1.8006352411867437 3.9170844255303425 0.5034408710763495 
6.409654601072688 8.84774623920597 23.829904639290064 1.8021853883485854 4.77912488941158 0.33587589920225863 
9.098239815122227 6.565706794584406 38.14260407426012 1.8064682921715058 9.69326184996434 0.6207238799316541 
9.149903845104163 6.597508378514354 20.87208335954991 1.8136321571153222 9.7920670631097 0.49262216291709854 
9.733374209633428 7.4271660644024795 2.712457273735666 1.825575215759255 10.8877506069744 0.6334601384081019 
6.700485880312286 9.302924635262675 19.231359891208925 1.840203671456536 4.333466152136921 0.3151827330585944 
7.604156223761805 9.807877576366915 18.708204585018777 1.850706250682916 3.3060084180760416 0.6450024057725141 
6.212165185702439 8.50168803169644 0.6801491919604636 1.8568910049762857 5.325593978828117 0.5938194937264205 
7.552964822974655 9.8111279026328 5.865165074881901 1.8654824387254823 3.3817211344829587 0.4899577706227265 
6.360990137852747 8.90137830838344 30.935629040188644 1.8705176243596733 4.935894908857044 0.29111414492268345 
9.213717872511193 6.569724719984846 2.5177934138146796 1.8758460626276134 10.159702573136084 0.60859806731846 
9.166217429962106 6.530001429334005 26.41126616569251 1.8764218320269803 10.10089016673433 0.3227671231435747 
7.374666296902468 9.775657185802176 0.1266966843982047 1.882551641182935 3.5945502747010707 0.5823890394517132 
9.516619596547642 6.878286842092914 3.739242223677053 1.886365661597511 10.651107939415601 0.6601932874801316 
9.309550632036935 6.622236027343746 15.344075324642567 1.900830455937057 10.402121949574841 0.47601471552337987 
9.111964249865224 6.4455647077797185 16.569112412431274 1.9112125917014784 10.193151151421645 0.3736137848141843 
8.41072035803364 6.128078182662383 15.904490809100146 1.9164504957675912 9.444991443316457 0.5475805835354075 
9.80668803614456 7.354406500865922 37.881730911881384 1.918570464192563 11.396290639388535 0.8763320145353186 
6.776883582356369 9.478243105775205 18.123529446290945 1.918649642556272 4.340043026693937 0.339201714672476 
6.16475735264687 8.563691412301944 13.211186786496562 1.9198603029821415 5.459297247066445 0.5392752147391544 
8.319291938499905 6.105138389367115 21.555461027458207 1.9215743195206563 9.375985405743451 0.5695740709659198 
9.706184631916443 7.115677200051705 32.87970102606127 1.9217421296043433 11.155716391623297 0.8989883561510121 
8.008493555186192 6.073888286906266 26.925557855288893 1.9261304399745556 9.085169442832221 0.7976295325833774 
7.66205786925104 9.902112971888792 24.694853369163106 1.931900266981391 3.374311627750002 0.6639863792963243 
6.439379922805021 9.145464075811455 39.86520907975725 1.9358778304218105 4.856001181443656 0.5316668524725763 
6.433294244349732 9.137546778594475 14.125553830757397 1.9361248922211471 4.866604452350204 0.5402510709807676 
7.450847793363039 9.85704116091465 13.730679031263278 1.9365355714227075 3.5986949597451954 0.5114391387560634 
9.818899294066473 7.333309548139864 10.949201814726067 1.9372327688114779 11.491386761265863 0.9278336152023885 
8.162368201853099 6.059776587396236 37.528050311519706 1.9470054760551663 9.337604142405052 0.5787100436340904 
8.836552053282102 6.230996904489766 10.461453874223778 1.9568319523595497 10.08574301886346 0.3249454323670373 
9.040648811673908 6.342778059587319 28.365801895921443 1.9568685466897078 10.318773764569936 0.3506147888073651 
6.735398385377309 9.5049649502387 29.664483467132925 1.9657407624489265 4.46149252762719 0.4567220317787987 
7.169229945089725 9.784448656104393 31.093522437036057 1.9683586793083205 3.949541859343796 0.330849882402308 
6.705997661346675 9.483354942459504 6.308524460982248 1.9684470878739186 4.504048211691037 0.47553486148366636 
9.900715921331503 7.4634794082035985 27.21046929216594 1.9749874326244803 11.865863124428248 0.7636531843410366 
6.194161454823979 8.807305117231657 12.074428486364148 1.978078462435671 5.382731980899621 0.566909246675457 
7.984391719891686 9.980637309709444 30.25212763919607 1.980698808759426 3.1268828549380245 0.6578270246085328 
9.875504503931555 7.337138253001507 21.291984608673346 1.9891965312410544 11.822704136301121 0.6962208607778104 
7.85915672121568 9.986748503374685 23.532573388057585 1.991734531718587 3.2695702101083484 0.4652131817314076 
8.102668603980021 6.007446085021421 27.97543013034627 1.995197219910772 9.504859360438328 0.0 
