87

7.000801207621149 7.001703865095078 34.31020643661781 0.0018828409158533344 0.002129959050937158 0.0 
7.005898371783771 7.005908017037312 36.516491735483356 0.008348380382610876 0.006563622844791395 0.0 
7.006950047042875 7.009600047467101 17.26050265252281 0.011851753679046118 0.011190074849733334 0.0 
7.001314522427873 7.012647033194876 1.049763221402273 0.012715164876854868 0.018656058942470022 0.0 
7.010246251897113 7.010327746684771 21.790874566818538 0.014548128041912523 0.011483698712664248 0.0 
7.019838191743022 7.003355225478581 0.04744269254869948 0.020119925189846954 0.0033709744735115343 0.0 
7.004348673764144 7.024082201154895 35.36408063543836 0.02447168518863707 0.034068140825918025 0.0 
7.0136758849177285 7.021797282877879 19.34215632089647 0.02573230205677679 0.026001568821539867 0.0 
7.020110146546818 7.022584035048576 31.804526514924454 0.030239984014708066 0.025500708334578626 0.0 
7.041827931103334 7.004831021635795 27.454188057695966 0.042105992333999476 0.004841684237852473 0.0 
7.050089349030428 7.016227640404001 22.835536058863692 0.05265243773438766 0.016496194215232518 0.0 
7.013595681587519 7.051098616715075 14.897752851501004 0.052876376464574326 0.06930789019793715 0.0 
7.052821650999322 7.004593921358156 20.69616678873409 0.05302104231094551 0.004599688679065572 0.0 
7.017193129720057 7.054236353052385 18.274172018767146 0.05689627142435438 0.07190628358465623 0.0 
7.009808504057802 7.0640887721363885 25.245838384881086 0.06483500185703595 0.09199627370628916 0.0 
7.0297948596265165 7.0636566753044345 15.936191312913337 0.07028446464886962 0.07963435601066182 0.0 
7.034122425344408 7.062445530999376 11.457866155937573 0.07116027159292337 0.07619089431656176 0.0 
7.073961685103886 7.006568730095191 10.446530832493078 0.07425280518923039 0.006577328168959173 0.0 
7.071390857299509 7.034654436965122 33.11246549989856 0.07935732169956478 0.035862719830576706 0.0 
6.977093263179195 7.080060403797336 5.078219298230511 0.08327296588911548 0.15401079853633348 0.0 
6.986110335148801 7.088408014575266 6.124284221981071 0.08949245683753837 0.15452046425806287 0.0 
7.031047470117219 7.092746699180009 29.770903357420906 0.09780539662752086 0.1220382822814019 0.0 
7.147498119779311 7.007710128721913 28.547629972759736 0.14769949703143814 0.007713634695930338 0.0 
7.142381911076789 7.06303278352791 12.515944460508628 0.1557104376756897 0.06489520789633041 0.0 
7.167375251629722 7.0006909619666 9.432076280570868 0.16737667784536825 0.00069096392916701 0.0 
7.045969814851559 7.197655576054385 26.357823192678453 0.20293090110398926 0.27239077174083737 0.0 
7.069324926194412 7.581183337074445 38.71617450908056 0.5853033544110673 0.8499043115591827 0.0 
7.837400236808956 7.117781366353873 23.460084720510764 0.8456427182137145 0.11816553631852944 0.5498738007444098 
7.162189660577148 7.842998216070966 32.527376614200456 0.8584587807792308 1.1852935091800623 0.5056628006977804 
7.670661881195778 7.54078020429619 33.784138225828045 0.8615280542429737 0.5846274978161246 0.6247553654659421 
7.89957858052005 7.007969776468476 15.418066254981113 0.8996138837676012 0.00796988072187349 0.6199912581447298 
7.899660915718492 7.022554171397081 32.55088367227216 0.8999435837422501 0.022556533079994612 0.5651723879114153 
7.073451945027006 7.905449366854748 37.03779655709503 0.9084237690449951 1.3534165028603613 0.49254770099946793 
7.879980663027641 7.239304345540063 17.70350553187269 0.9119388889048022 0.24213954345107758 0.55779310940929 
7.0175367351820706 7.917606776990264 11.99301975437205 0.9177743373287939 1.4240987554009183 0.5364333529060299 
7.915484405849496 7.236308363149324 1.8049264966323761 0.9454910575187476 0.23884040894767855 0.5596268972139522 
7.945502913180106 7.051667638638219 34.66225322044578 0.9469135671826236 0.051693311034469724 0.7125442512991337 
6.060277473714592 7.1426784118913895 4.356006158195182 0.9504922701569336 2.8428397848930693 0.9548949818668165 
7.923309129599553 7.232438949517186 24.620510330293698 0.9521174371129528 0.2348120043530353 0.634819453031751 
7.102439154179535 7.9524651406888305 14.353096555164882 0.9579580494658496 1.4021215864044514 0.6189266992555366 
7.009189764501206 7.958147555260822 18.862135797034142 0.9581916245844957 1.4959339788733896 0.5960091076362888 
7.322916840167707 6.097101942511631 0.6737761074660256 0.9589057241878206 4.848091230740888 0.9988709748083111 
6.585369385048519 6.134857826020828 5.521067692801729 0.9593693387077005 4.092159394102099 0.9855435719385597 
7.112224670887759 7.953351697780909 29.154101516363923 0.9599342875518133 1.3953793555960399 0.6628482915401971 
7.796235218291234 7.539307694476073 22.394749551134428 0.9616877415088462 0.5725342533047877 0.8246153962842685 
7.945487474548371 7.176733161839716 14.377539933820938 0.9618633868807559 0.1777430145948642 0.5903246256903425 
7.01495355700111 7.9633055137823705 1.5446737974338163 0.963421570108591 1.4983849060030765 0.6219589553184337 
6.536985478658526 7.846393634549481 5.561313618819764 0.9647614376512758 1.9983751870677804 0.9241710701569091 
7.966442652320801 7.008677047017687 11.929051585924281 0.9664816042583592 0.008677163589398296 0.6443767881539936 
7.912272681928133 7.327328213608376 21.354011577437987 0.9692188636300875 0.3338934649322405 0.67509269600012 
7.876182306380649 7.41445664701559 10.968957102209899 0.9692624754265059 0.4282552080275668 0.7574314251446912 
7.941301108473617 7.234991181998626 16.65235874559457 0.9701899981090173 0.23735172883498423 0.6405990763557773 
7.039365937711006 7.970730098174868 39.75854598331115 0.9715279720905895 1.4866958521718583 0.5691885532649746 
7.907370536793458 7.349709378085509 39.702375612139605 0.9724288869433085 0.3577231141822097 0.6608821118402529 
7.403406031084608 7.887553064071304 15.445883466588754 0.9749291602253961 1.1155083037946159 0.7666040445697078 
7.008054642991914 7.975771647348199 35.70175122687502 0.9758048908682232 1.5247360037831652 0.5822196321949162 
7.013390574830638 7.977713446741263 25.6813558707736 0.9778051398069944 1.5225417285193976 0.5546764470870558 
7.156044670297751 7.96639062907351 30.430904641870942 0.9789079563929536 1.38095181511887 0.7309849280937745 
7.165586286497189 7.965330123122339 31.44464696100082 0.9794289483588501 1.3720979694921644 0.6724196919127595 
7.0469275073564885 7.980306713792327 34.54729981690781 0.9814292863232708 1.4946801103060543 0.5571390046873372 
7.3928516064548235 7.902439267580611 13.362682472047894 0.9842403244967999 1.1419308747675476 0.8127937671931299 
7.8957554470512035 7.411083090044595 25.79535360119082 0.9855795898061778 0.42404538074769715 0.7249435699759209 
7.265997119244736 7.949556550977849 16.460735418481875 0.9861095836424305 1.2796440202077595 0.8651734451272552 
7.021299807245197 7.986399619147644 10.961222050127397 0.9866295609007971 1.5284926280750843 0.506465832132356 
6.602460149382805 7.90335360100671 6.566371361269788 0.9869577809007499 1.9594692658442419 0.9120057888024957 
7.98910672702369 7.001196896893502 31.441505208547476 0.9891074511930884 0.0011968971856024524 0.7183915769275033 
7.98492732733341 7.093832811752037 38.696637921286374 0.98938689939246 0.09397404740140392 0.7786956579254388 
7.983610008528539 7.108927073815293 35.68656161946407 0.989623037468043 0.10914822795420975 0.7197261515948731 
7.054489742929026 7.990046358071911 20.520085445729862 0.9915447156915961 1.502997590617305 0.6318221133798346 
7.465428373870224 7.877610622520116 10.05864894144866 0.9933901428762147 1.076015950821613 0.8207038857220103 
6.0108253933258835 7.092145442437136 6.3515108774338245 0.9934571883331605 3.0287597269157063 0.9467571644831606 
7.936504705872678 7.331638933139288 18.930021840668196 0.9934915430417292 0.33812904499117624 0.6302653432228524 
6.774106251866987 7.967716201324954 4.591984146114655 0.9937316698950384 1.7888359492514176 0.940796724655098 
7.015903922909849 7.993968178050878 17.4999205895895 0.9940954047483096 1.54561680884377 0.6038048906145621 
7.986725992229714 7.126886057909225 36.73744067877751 0.9948508709517507 0.12723261353186888 0.6501148627670552 
7.107022506177292 7.989902967413062 23.234961042297567 0.9956714828303843 1.4567674399658637 0.62400740956723 
7.996067733339655 7.0034225424517516 10.05574591196951 0.9960736133425246 0.003422549186395507 0.7088945206287688 
7.049782581343241 7.994995409348702 27.28423882315391 0.9962400162762913 1.5150868352667632 0.6286652279450713 
7.764132007265617 7.639336258129418 27.8949074757217 0.9963175073673587 0.6941462368669251 0.8285075967223894 
7.482100778004571 7.872081652152168 0.6536858072810219 0.9964675449672549 1.0620287460670466 0.812233034210571 
7.996760011650331 7.010481389963735 0.8294170560608407 0.9968151184451103 0.010481583115090842 0.6500146472447319 
7.964452171021453 7.2528539442689235 29.158087147220126 0.9970471941289154 0.25564588401328825 0.6816042362801402 
7.165061307023372 7.983428147014525 24.662211086118063 0.9971841130988227 1.4005486254769406 0.6433738193359805 
7.933861420032239 7.351069027955276 30.28711782490916 0.9976705940409852 0.3587504862711359 0.5376392926729415 
7.088801761111229 7.993916675082652 21.596251586339413 0.9978757987764845 1.4785402496486442 0.625883149808294 
6.001980805438663 7.004106687763885 5.349529721996227 0.9980276437039457 3.1312896141870685 0.9620125190482184 
7.999876831769072 7.0098644664949035 27.080591958808917 0.9999254904280549 0.009864626507178231 0.0 
