429

10.948506701598088 8.161256112053392 36.33009366782661 2.4718277628896215 15.19113863640257 0.8701297328756127 
8.502225566199991 6.027701987659272 1.6133867403927908 2.4722990140694576 11.652660196617425 0.9147222733605723 
7.0188695209141905 10.479553071220918 20.334785579451463 2.472322361233888 5.47162960434726 0.9051946060580692 
10.962106820948872 8.275318999705336 35.02961893094428 2.4723372645447053 15.309161753492475 0.8464151054384663 
9.656595296244406 6.314805318003858 10.965174828407044 2.472405403148709 12.854507456853977 0.8609336643675287 
6.680865428945289 6.825499638371456 34.026021009262145 2.4724890391466903 9.60714073500964 0.9236385673682858 
7.6547041923567605 6.176110424340196 2.2739544652933574 2.472850129360762 10.790342979348218 0.8800120329447265 
6.415759320163188 7.168447811326891 12.372695722469885 2.4732752460344476 9.176102250128572 0.8894469758078422 
6.590949502698614 6.926960588937758 35.41787869228744 2.4736464561456004 9.476024341677558 0.9012934662466934 
6.291778190484482 7.385138142175856 32.01495561820315 2.473693700127623 8.92787609398642 0.9450945497057619 
10.974003899694626 8.524694721996353 19.35589694203985 2.474127144064893 0.024695132046163693 0.9036614785260373 
6.481341974873018 9.930518215967384 35.333536131623 2.4741387569463567 6.247413462919239 0.8815591549758046 
7.049242572209511 10.504214069738412 21.843519022218594 2.4741809051940185 5.436647927698996 0.9073419665652077 
7.005549397564041 10.471942801049314 33.29203125354549 2.4742556484186164 5.491132790444269 0.9042439733888699 
10.163850112904253 6.668282092200959 24.88787430257532 2.474588388391734 13.486014204782714 0.9056829586690658 
9.539531671417034 10.745947483273303 37.87355456210893 2.4748547823055778 2.8146764720684185 0.8940698969918178 
10.14537854944863 10.348841738173071 35.78280132259471 2.4749719884872414 2.0877898034554594 0.9179260888595195 
8.760937783844017 10.961251370260195 37.22538949946466 2.475044814674097 3.6263677004221524 0.9062450770312626 
7.658984262786607 6.172212967813046 19.625033051825895 2.475055542297654 10.805320873320355 0.8337970866464832 
7.154035597685564 6.422888995166494 14.197340870365458 2.475077836896871 10.240442030757333 0.8764274439169307 
8.484419593439165 6.0248741159764165 9.132858747938165 2.4751749212595295 11.648406514015246 0.9218088555434122 
8.35853893378703 10.971150217352076 18.81741912607493 2.4751958770920166 4.029566780262568 0.887043539598215 
10.188344295301764 10.310040844445846 11.461975299667984 2.4752281345444174 2.030109429813127 0.9110032628712509 
6.113791624530645 7.8421002204107975 9.0044190199918 2.4752419136608883 8.44210500018699 0.9078809040648039 
6.177768419146673 7.643041120697873 2.420341382900105 2.475305644951205 8.651474693080505 0.8177771064995067 
6.34315472729914 9.715272887972212 29.931455329274463 2.475655412736672 6.50721663347397 0.9051354228019236 
6.183524940521179 7.626195409991739 7.58788673840705 2.4758011153376027 8.67100346218807 0.820268855361547 
6.72248455417531 6.776592175644128 32.71903791739452 2.4758222248773047 9.684269752577405 0.9402413964213967 
7.699157788863143 10.842917000935465 32.618338834635324 2.476006526730294 4.704808832982275 0.9136340915871276 
7.909159136704549 10.90457774350521 36.61917085111548 2.4761031986369875 4.486050299735378 0.9009759716538592 
10.96446891864689 8.258625258868891 35.04142252575802 2.476261055832497 15.317048462205076 0.8300000354130729 
10.699470629856286 9.63764238443321 37.82434285653195 2.4762676039675733 1.1820217269853224 0.9185387861446495 
10.887664636187981 9.156518841119425 26.050612289065683 2.4762793468523445 0.6644639549786184 0.8764203403594347 
10.94199114052299 8.911681667829843 37.07002767240408 2.4764495807546596 0.4136018008143285 0.9061192491431795 
8.502601039676914 6.023499669386295 2.9287026739938824 2.476501696534284 11.672840344807268 0.9042717453222294 
9.837959326156682 6.415886777671934 14.647505238528936 2.476623322576996 13.084262721356703 0.8447938881278941 
9.926243710739135 6.475012910487738 30.195955614131883 2.476841503833922 13.19168256553077 0.8348968488620853 
6.482592319717947 7.0630089304842585 25.27177875190162 2.4768684023033996 9.314321264021762 0.8773836490616908 
10.427703145086792 6.94444845968799 3.8228515531777845 2.477050667657926 13.881945756273788 0.8530668573756698 
6.286848258380694 9.612697673691022 28.61367825450896 2.4771226744894936 6.628122879574223 0.8997288989736986 
6.254077630789505 7.45495273037589 27.81626935982733 2.477153827332669 8.861037195266602 0.9564148884814445 
6.307064102813719 7.347575401054074 3.5650998290420475 2.477307067245373 8.981339736554103 0.9233390611243958 
10.76518952287107 7.496839848859233 34.343792818584724 2.4773804438078586 14.533020897473842 0.902992089525328 
8.737548562773839 10.965980807533368 11.510258966099109 2.477395943889237 3.653570360033253 0.8684359617521992 
7.294784823369657 10.664683156199686 38.58185352167519 2.4775788158431493 5.1504327585168905 0.883508732883583 
6.3106206473881485 9.659822597681645 24.359666649650237 2.477613853637424 6.576651716439789 0.943336435797074 
6.7069339457823 6.790060247476543 28.52464294012838 2.477696476981758 9.671106625925777 0.9452485808676099 
6.451817419011801 7.105644256548063 13.703430098032214 2.477757014794002 9.265078015391456 0.877834372025665 
10.977877794948744 8.499283571813974 1.1297534510837721 2.4778778985190932 15.568249576764188 0.9434541879303326 
7.736595695614618 10.857598336392588 33.86830145460226 2.4781154225974293 4.66864020980317 0.9465881886723044 
7.847962249915362 6.109050088220837 25.58353253678291 2.478264454849849 11.018741224875122 0.8626668543343587 
8.281716480829335 6.031319831173898 14.843017720139429 2.4783118186977204 11.460202567666032 0.9573639445231148 
7.800586290319309 10.877610714941792 21.109980346659114 2.4783486940088397 4.602027951141107 0.9452224395342532 
10.929420942149306 8.990035773727433 35.73188458566477 2.4783504945197445 0.49328634951693395 0.8601747633922591 
6.044280189018391 8.836733779757576 12.324625231648405 2.478699140371291 7.4492847675322675 0.9118227546037415 
10.923179687890325 7.978018983202279 26.32218864301163 2.4787625908306414 15.048606766119663 0.9207512186790179 
6.098148666854922 9.112918713479683 34.65688496785776 2.4788221347778028 7.168106848852036 0.8808152218800651 
8.59219787669581 10.97726297134835 34.561215566719326 2.4789780712384024 3.801750503323099 0.9407575050846737 
6.5270966218996875 6.998991248459591 8.310059612512532 2.4789866904686138 9.4002621682759 0.9028447342471412 
6.41560164235928 7.157901818209602 12.38678215466767 2.479101458775018 9.206520377403706 0.912383540705494 
6.091262835673778 9.087335002974259 7.416155346596234 2.479309809710177 7.19600948805026 0.8661057056562005 
6.464922869512073 9.91615333685778 36.62467556964906 2.479320310191566 6.281711278066467 0.903510852632239 
7.370805142662519 6.29272553474785 33.43703439220384 2.479342975627127 10.511227316034416 0.8560674411757158 
8.643615332098555 6.024649133716412 19.135176997058146 2.4795135157576147 11.828127922432015 0.9105758633526575 
6.861816054780757 6.6381611800409335 2.905057660130815 2.4799375858840986 9.896947392442955 0.9327935813326965 
7.767386804555125 10.869493479749325 25.33578926276816 2.4801656083242722 4.639543625100188 0.930037674201937 
6.085612946820389 9.068096675784963 33.31827358044219 2.4803222926868287 7.218977504295603 0.8508496206319937 
9.938067691489438 10.520983043901479 4.597971639758292 2.480405440455863 2.3622102773240954 0.8459347321605742 
10.74837979264701 9.548364445621404 27.685934637474034 2.4807820748357745 1.082379881776152 0.8635856584509077 
7.004640673753709 6.520550952098043 1.4984727631767782 2.4807898032343916 10.08543749275832 0.8313332041001302 
9.812814295675754 6.394780143190983 4.464113992035308 2.4810143128232065 13.074897407626576 0.8437140809045334 
6.018923656039682 8.48211240433724 36.65099343443879 2.4811408244269617 7.812621537161506 0.8788873410785657 
6.021403257084009 8.613873287234233 28.21646313622705 2.481211183986418 7.681041527593695 0.9377955408616838 
6.193655023071903 9.415013109392282 0.09473169002208692 2.481224726412587 6.85786222714902 0.8462939834178211 
7.481178948939762 10.762415963006502 28.579106006545963 2.48123403244235 4.947382086104213 0.9014708036263939 
8.1518937342774 6.043288956610196 21.419543853678988 2.4812511204932033 11.343361998804596 0.8895362464356967 
10.5650206964739 9.875621443760258 3.9886366314848445 2.4812587195612235 1.458105428793525 0.8257800532352769 
6.962550355313526 10.447628056667332 31.994426668297223 2.4813315895027666 5.555795319625549 0.9168968167445823 
6.613423255219056 6.888181264416829 0.5502678201329658 2.4813567761056015 9.54978296504907 0.8969658105204401 
10.966746978200533 8.769842283492608 26.982407635891015 2.4814623737671226 0.2703769519493875 0.8702034044439443 
10.862521359109692 9.259223145307686 13.438149248182697 2.48151706756581 0.7715964352182798 0.8602387357007222 
10.830053079909947 9.353700229488155 24.971631009179497 2.4815220001091993 0.8715053089259257 0.8481641464090556 
10.306330777650961 6.798465832622702 34.90651281012029 2.481541738726449 13.71710167903555 0.925654784614644 
9.343607369783953 10.833789769649112 18.33805101818685 2.4815817704183476 3.037295574302817 0.9271831289043793 
10.035244026208835 10.449809327253803 27.473179216541176 2.4816789946840068 2.2429340733318295 0.8771031623523107 
9.062054141395858 6.082742155786587 16.72653305061708 2.4817413933106556 12.261904085527087 0.8872139325880134 
7.1026779179541695 6.44900223318875 24.740913375478556 2.481753581731602 10.210756856742771 0.9053657508411317 
7.520622390804618 10.780392185251845 0.14283326469076485 2.481807611389515 4.905177368862239 0.8821143522037408 
9.97942343280043 10.492774849469125 14.768972488793914 2.4819035626300447 2.3135835168543046 0.8587158217694577 
10.47244576433795 6.993480829448561 13.953673986594886 2.481963397089835 13.975741595395652 0.8788935048462257 
10.525390244857066 9.9350802878967 31.059700708426405 2.482269340074083 1.53016495597638 0.8628231487012908 
8.398842413839784 6.01969315703246 28.79586213182654 2.482368806706483 11.596701805871188 0.9350874136430912 
9.236029637498259 10.870786056527159 32.44694754072725 2.482411358558333 3.1520984512009917 0.8742526021220387 
10.967920086316973 8.768254863642213 22.900160507531737 2.4824564899136647 0.26877969560034565 0.8841395605075082 
10.751515260012969 7.454214061265027 35.606312531700354 2.4825368468014832 14.518755522906945 0.9279383281206304 
10.099903350921156 10.398370181382436 17.675297010013907 2.4826397398436035 2.1611636356100394 0.9228563458506864 
8.76800375056514 6.0316481623043465 17.84930449461413 2.482858595444471 11.968722419453542 0.9377650664604333 
6.666607668207206 10.174567324598641 16.304676221627176 2.4830431262646346 5.962877098489884 0.9145676981276918 
7.5703026977356345 10.802544973767276 29.771480131496077 2.4831533239126755 4.85344234890063 0.8688002674544151 
7.096017502064928 10.548218199238022 26.08924962063838 2.4832165926873686 5.392803226533198 0.9142823368927945 
10.250161683314182 10.261645322876255 18.818133637894707 2.48323582475626 1.9584490299246902 0.9254221417237559 
10.418756618590834 10.076394696396125 29.71608643170879 2.483273484780113 1.7078868961137346 0.9080683017640704 
10.327363487685865 6.818491949866097 5.239396039850362 2.4832894794591707 13.755762015933374 0.8946924689033305 
8.485095072326743 6.016541751038432 9.114150504967085 2.483502975879875 11.688327039137702 0.9099594057017529 
6.199014580828482 9.434843289349882 15.736713923142318 2.4836396427184124 6.844127595300179 0.8425805707013747 
10.93756090745297 8.976846236695067 21.6011678196392 2.4837643831477236 0.47982521068355055 0.8774832543634857 
10.257000610588358 6.744288158028821 19.472383334336477 2.4838629627348006 13.65666116048903 0.9252351761454696 
10.74730854691875 9.55794791136777 39.14807398000217 2.4838779133084365 1.0928690139529618 0.8768649279430075 
10.805427267222642 7.575460425274482 10.874962504225877 2.4839018317331507 14.659475753364694 0.846545838371342 
6.162186213441283 7.660612700532269 36.03417811418136 2.483937265538673 8.65976335011574 0.8024820709210099 
7.651296410024058 10.834657733602658 23.948105521911756 2.484134560910244 4.768216514597773 0.8812434291872463 
6.973681344929792 6.540054274589748 18.94297632467938 2.4841569763944573 10.062666227726965 0.8929831562823509 
10.2059911600539 6.694178597122441 24.811529434259256 2.4842296144424174 13.587165491733396 0.9129662781205902 
7.116270496530419 6.4367772729676425 24.81310353736456 2.484269582818059 10.239225125933364 0.8846282109034259 
7.149654964714262 6.414686523420093 7.758779903446914 2.4843437785311853 10.279563431621652 0.8876949819891856 
7.171483706011049 6.400697205796304 36.15093155828188 2.4843566098983416 10.305543428671925 0.8732767033630418 
9.253792866629274 10.867336864014916 19.335010660288425 2.484449136831976 3.1366986521020603 0.8694440639427 
8.63519968612207 6.019129988759872 7.833273988641615 2.4845512608513634 11.843438481687842 0.9200672277857314 
10.356510048015606 10.151222883046495 39.87279902293224 2.4845857940267004 1.8061464646938035 0.9231231983038498 
7.275501319970516 6.338105235717533 39.79455398043833 2.484589702390695 10.427925659239152 0.868287427186165 
10.941506801158656 8.039223655090039 14.974384692786913 2.4846066690992687 15.14778482194523 0.8994115054417963 
10.856489670107104 9.287902960816536 1.869825212010781 2.484720233946862 0.8017430285056228 0.8638024538211646 
8.231966974028285 10.970241595413414 22.20195559421046 2.4847404779417435 4.171576801057434 0.9184103612332164 
9.460109026531574 10.79177825134599 36.46026574500125 2.484764957932618 2.9172952135138974 0.8721949329203414 
7.337397200667081 6.303821243682156 29.142253928597768 2.484923821512146 10.500090900150033 0.8500252583494237 
9.396310354850257 6.18227402328408 39.62036952976276 2.485000192224453 12.627266766538483 0.8962582358373732 
8.366111554336168 10.981418641748515 19.961916924773735 2.4850280866620644 4.037426297133855 0.8769085219221063 
10.97599601924302 8.287648396170813 6.561434292279131 2.4850854091874033 15.401641249483362 0.8468870410802913 
8.458842976414198 10.98521938696644 24.529012570351096 2.485560158584834 3.945467671705023 0.9405870056334 
6.019725882529428 8.662862815002061 16.36997720457364 2.485615415607335 7.645811556210852 0.9221417989481312 
6.020125440264238 8.67154271139306 16.36621242272092 2.4858006223059657 7.6376938145152735 0.923666072584776 
10.181945730650716 10.330373590698507 37.14449684162206 2.4858014647957574 2.0573294593663807 0.9298239738271463 
6.154552598645385 7.676426760483308 38.77257728212622 2.485839172868818 8.648930477452843 0.8112025564083929 
8.841744621393515 6.037686332040035 13.12688045050998 2.4859159249004867 12.057433108627592 0.9489404137182156 
10.933828397643746 7.993372505864862 22.221512230305002 2.4859992129907815 15.109792211466878 0.9511211411373374 
9.57257792796229 10.742759119695913 9.411802075884474 2.486039396415723 2.796067079659915 0.8580865780302539 
10.186570405369485 10.326473043376627 35.82658111956346 2.4860658700946945 2.051503798071993 0.9325063828848246 
6.146871915278899 9.302081174954868 27.49609818045547 2.4860703920686107 6.993529248346199 0.8813841284764895 
10.264982272867593 10.250893767979562 38.499470060923244 2.486119749788118 1.942631781466769 0.9148450538646433 
6.697147719083395 10.211930966715325 27.902962337408567 2.48615847877907 5.922171154873849 0.9354592662927245 
10.40114568974913 10.10207606849404 25.662432804091637 2.4861622358351876 1.7408972501610158 0.9178404874203139 
6.085454917731786 9.092449423313397 26.45175036397785 2.4861665820073253 7.212317774495677 0.881992067368123 
10.753196331587844 9.550785755777737 10.815946157750545 2.486170632363413 1.084889978480673 0.8640738956269456 
6.976918330822578 6.534893719995525 27.357023450374115 2.4862462594637136 10.076854034090788 0.8708910368324256 
7.317789537693633 10.687205237346934 15.676311680250336 2.486259907464319 5.13742308406394 0.8781190466859952 
7.233430503693079 6.360496157671161 37.44038426975435 2.4862974440551198 10.387448403168513 0.8853383586457901 
10.727160553548357 9.605189884783618 17.849429104645786 2.486300225779235 1.1452625488059187 0.9347440626666662 
6.750720711249032 10.267029315519242 23.582799748773382 2.4864373372272017 5.845978736586275 0.9201524234710807 
10.51318874098802 9.959358824286141 32.45489059849609 2.4864949396414926 1.5596342843008024 0.917181823532146 
10.369701278998273 6.860783074525109 11.49619150280175 2.4865266942969124 13.833488460285565 0.8763882683977228 
9.734687005994568 10.65838225772338 20.25008925754053 2.4865771601192885 2.6138583552064176 0.8633278398364246 
9.81579146132117 10.610103492754407 0.5863573958411052 2.4867335844074705 2.5196279896991562 0.8643627233968656 
8.756817625655508 10.973467061293263 8.807694279540243 2.486763880256843 3.648923223993977 0.8771268046989231 
10.901070260250869 9.147541214411476 33.05716552057859 2.486855045840564 0.6550912009199354 0.9285673974764623 
7.259138935008968 10.65530106116135 5.017811854075678 2.4869778541140826 5.205680910933371 0.907686462104412 
6.013214326480929 8.466403611058789 1.8145467634098225 2.487012606194346 7.846777943841499 0.884699278587751 
10.297956473967282 10.21846123388524 12.664210275010621 2.4871181103130655 1.897161585980939 0.9058910868164874 
7.914193677445169 6.082839066318112 17.304834147310686 2.4871340990913873 11.128980717547655 0.9344552802350299 
8.131456488375697 6.040311778824005 32.79019482594385 2.4871450430870126 11.350489187038413 0.8957892045678237 
8.772427675109206 10.972221209281496 8.820819817291365 2.4871860697958765 3.6338873695411067 0.8792808915423392 
9.136873954440468 6.095601797462038 3.756450874386857 2.487315651503127 12.36524552579731 0.8968732884950091 
6.65878230497397 10.172396051413186 18.539014440877935 2.4873663086203 5.98013959368331 0.8944767377330618 
6.013466953963976 8.569489829023881 21.04723013145623 2.487503854342133 7.745224964115568 0.9169705717942417 
9.576121445684947 10.742716774868638 12.205412570861057 2.487532089871451 2.7945308988517876 0.8648232023442863 
6.14016555501636 9.287214431316427 3.7796700872159548 2.487674650874604 7.014277701359326 0.8628095911021981 
6.441160393215775 7.10365691987187 26.715482804654776 2.487688590616829 9.297860714443736 0.8814431414116276 
7.58874046919405 10.8148366994002 29.853678118594388 2.4877425263428443 4.84071311641404 0.8831666889056055 
6.173174249500866 7.61973579623422 1.1447535130224793 2.4877666975858586 8.715301309124662 0.8831366273625012 
10.663519060746301 7.27179698725725 25.63756835696654 2.4878298508384646 14.346975981889202 0.9668300136035666 
6.03241036136159 8.183179188045802 4.066809156788196 2.487845262793279 8.133479857067012 0.9534303182146551 
6.030031564351868 8.797942604708826 11.082417271342635 2.487873362693277 7.517225258197378 0.9277079115580007 
10.979135202297547 8.708588961078146 12.603032765247832 2.4878948341830225 0.2088341134162892 0.9646987474138673 
6.02775733592855 8.779066048677544 12.360987799083148 2.48794325690511 7.536449692524673 0.9330617305260638 
9.464479650567554 10.79347359660422 23.849401352329892 2.488019721521436 2.917740454354865 0.8740485833701447 
6.578421090935523 10.080516576373583 9.616102049394284 2.48807117099835 6.103926319435661 0.86633723359084 
6.3266816117805345 7.288615715697389 4.810472216529213 2.488124735785607 9.081882398418855 0.893471507384794 
6.155255365558197 7.667209211852448 0.08412647150380792 2.4882459479655625 8.666234144605676 0.8208776498876217 
7.313549193740464 10.687256557216953 27.24450376103961 2.488324087164383 5.145394253692126 0.904819830828728 
10.07247358172006 10.428527976700083 16.230336776864554 2.488351527040027 2.2065467528662595 0.898436024014108 
7.175451180676593 6.393435666581222 16.549281948424017 2.4883815755633467 10.329475374421031 0.8734809369497832 
10.466832374647007 10.024502325654206 19.811895154832122 2.4884808480043943 1.640844279845556 0.9029185523574137 
9.0764426369532 6.07912311675455 16.793181836208703 2.488560024899895 12.308788973764775 0.9158055392306537 
10.271087906102219 10.248420278147409 24.27278443084809 2.4887197190882318 1.9386073523328697 0.914942028455499 
9.22711425868641 10.88019858280344 18.218694615026315 2.4887829231904846 3.171494209054323 0.926258335880581 
6.1720052252953455 9.380207952885874 2.639829825834095 2.488840234200604 6.919248457103405 0.8827949082862834 
6.050425922121738 8.059385090059427 5.423368892727357 2.488886229194715 8.262016208904821 0.9511196088907384 
10.017926359643461 6.527485751204024 1.6762781634173791 2.488958194707898 13.361419854478049 0.8454263007461335 
9.82523025460876 6.393106681159564 4.463940826318257 2.489022837320873 13.126752035757592 0.8268524353651604 
8.911392764446813 10.954918230094238 6.416818411790459 2.489149959943802 3.496658537646047 0.9407687940273107 
10.234913551593683 6.714980922135725 6.557998984828686 2.4892203879614274 13.649772693181774 0.914495745190061 
10.871162467463805 7.742165974018606 30.345590903891996 2.4893219675333693 14.870814207193442 0.9480779040879531 
7.9893553873647125 10.93644872046025 6.939151296671032 2.48938552414965 4.424612942354333 0.9387508927304644 
6.144405312654204 7.6947595926273635 24.571309971624075 2.489425324189779 8.640748152958876 0.8460986811278144 
10.97094825527193 8.802863944237748 38.36987141445941 2.489440067354638 0.30361608080693614 0.8982298087993661 
6.583078879229511 10.088321070180607 1.959066008096606 2.489447811309901 6.098317235582446 0.8835942493930726 
6.21834773336192 9.495775678594583 16.913497755881558 2.4894791157861094 6.796484129523769 0.8798054217557061 
10.918806671125344 9.089102818725502 14.795584967085247 2.489511567217716 0.5947440159543014 0.8785230357212725 
9.475937218364543 10.790311733610684 35.165502148258895 2.4895745201346955 2.907776388441002 0.8865071399658784 
9.81024032751451 10.616989592677951 26.307818870074442 2.4896535203421535 2.5309405524057844 0.8653633913718102 
10.31639366474319 6.797319844533954 5.2429012626260345 2.489659747262085 13.768040929457044 0.8765229996395189 
9.181986535353486 10.8944398818717 2.6766208212201548 2.4896682474380403 3.2199447532689582 0.9174232795943045 
10.634282860281361 7.218073068474256 38.33490198297435 2.4896786912093325 14.296477855457297 0.9499756047827385 
9.170675377465791 6.102329697942759 21.145746066051537 2.4897044682664897 12.411519481059505 0.8701622882301642 
6.03720111218778 8.865344537401498 13.611233039258558 2.4897499860062706 7.4551117302313745 0.8951085248375262 
6.677566389166945 10.196704093077408 18.514231006805083 2.489993784201007 5.955832729827925 0.936514204414321 
8.671672044764064 6.015912286215311 26.271342103038535 2.4900126627648915 11.905716571240518 0.94789900084851 
6.575413197744229 10.080048210236614 4.2971172980536245 2.4900977302284804 6.111170483813643 0.8763437660002354 
8.776506734602732 10.974722834436166 38.61405331933827 2.490122302530627 3.6343968247777436 0.8779407468642603 
10.944712894680116 8.026315880235137 39.05365162763998 2.490180271131521 15.169675803286689 0.8860631592321214 
6.133684075635946 7.724269720372023 37.45814957830635 2.490222584555567 8.612122985315382 0.8776015969090624 
6.14167865208338 9.300224137864324 14.608760011151652 2.4903891765866573 7.00911159607427 0.8475091413384362 
6.554219102930276 10.054350364747817 19.557141719504443 2.4903952208019366 6.14521168381158 0.8739674661772849 
10.990113457180897 8.54368129268632 29.58314491405291 2.490496553895254 0.043683532559514404 0.8946476671357526 
6.072191728662563 9.055272134931796 26.441083350001577 2.490497971532235 7.26415155397307 0.9211666876754766 
8.133473069076537 10.963507523837619 13.70692671563237 2.4906246829052194 4.2801270655961705 0.9012348579430389 
10.674813866093126 7.286043997414557 21.52170386612103 2.490683546411334 14.381398867122368 0.9500451786456996 
6.278172969977499 9.625689965408897 38.833795394298406 2.4907214315456687 6.656798594014692 0.9115104543264944 
8.520129596732096 6.0093222939387285 0.2300043435029835 2.490759048188971 11.757555307342006 0.9126571933880313 
7.088698242071445 10.552447476576406 7.495910257811666 2.490845899696946 5.41301771970298 0.8895646312546408 
6.538270218891315 10.034948252432335 26.763628379685827 2.4908733150712066 6.171505286850284 0.8593544915488198 
9.450951162956024 6.197767156055852 9.889220229700271 2.4909002754150085 12.713803208509246 0.8658026837957229 
6.044129321162648 8.083081084690237 5.413217882968027 2.491008264361261 8.244623627223305 0.95753011908778 
9.960667536610757 10.517850713890487 33.133119848165975 2.4910381683259906 2.3521061957532865 0.9067278953372823 
6.768037229216743 6.709566330956902 31.392419622022114 2.4910535447120243 9.82369146186998 0.9433126919535388 
8.355520122095275 10.986866783938309 16.100869389016037 2.4910601831700157 4.057509189562445 0.8696494188093025 
10.819642619261854 7.591719256867956 12.107045392242913 2.4911274133292554 14.722501598537868 0.9262647707611669 
6.010696655148438 8.596469855918992 17.390092059362523 2.4911719281876565 7.729753445163027 0.9018120319122783 
7.246224472705238 10.652746125936437 2.590320501168854 2.4912384381222146 5.22706600051697 0.899062774876256 
10.802522175321313 7.548807043647239 32.97743755665361 2.491260004106652 14.677082123935346 0.8894365237134892 
6.147164295269164 7.680796338960899 20.53467509895068 2.4913712071299448 8.661607377753244 0.8331441722423765 
8.362114136815341 10.987607256069916 19.988224835722107 2.4914257708625116 4.051478799915731 0.8582877763289057 
8.225305146622308 10.976277965253823 22.234307844300154 2.4914674036948186 4.188842297671037 0.9229779844010259 
7.522716310613919 10.791809560095887 19.41118915108455 2.4914803770623943 4.917865594077476 0.8876870147354836 
8.105530502303633 10.96006027106646 4.504337553879971 2.4914860468990025 4.309753557849408 0.9172021913657911 
7.682746567444612 10.853642943587218 18.042093433606226 2.4914931825958218 4.746295885961622 0.8640239408499844 
7.741055124856551 6.1267584014591705 11.066108485936113 2.4916406258831034 10.97038039822394 0.8999093074616334 
8.990048007746683 6.056984766187405 14.136961778744016 2.4916802528689144 12.23503008563812 0.8932341468041782 
10.30654752013194 10.216083998372063 12.644715140676581 2.4916978612912737 1.8930005258186853 0.9205350984735103 
9.989735828901132 6.502683461491955 21.76315722504291 2.4917034725082168 13.338688665871038 0.8655017555063683 
6.627181195273005 10.143547258698788 15.140350444493123 2.4917258811746055 6.033224856615302 0.9000449346911154 
10.557422918461167 9.905600779156028 2.681323164603267 2.4917268340998584 1.4934201182293574 0.8149931582663069 
10.821494038188083 7.594749381977259 12.081165468509383 2.491749034468232 14.729671940961456 0.9284673041957111 
6.018704014511883 8.729752388489132 23.99572421321546 2.4919100962145304 7.598487301832771 0.9439466101093059 
8.945738481734987 6.048213940267193 5.04340874349306 2.4919746541246233 12.191304118718042 0.9147265360811357 
6.777772399932122 10.3012177685704 29.239242278273593 2.4920781200133524 5.8159615743818325 0.9209744426286088 
9.508821193749874 6.221221719319566 24.216652872646137 2.492097641237158 12.782362268530589 0.8661957370305995 
10.602283804931213 9.838426416605845 15.484644426954873 2.4921842767228166 1.4129078144266423 0.922383197075972 
10.977636756227417 8.230977051735685 5.284675810830468 2.4921992782484215 15.38940172292077 0.8705526608636708 
6.959165825078285 6.541192463346306 9.135865743250932 2.4922072386256287 10.083123917369722 0.8638199817242839 
7.890481123285992 10.916600094994209 36.66419421546079 2.492281942356588 4.530631774995003 0.9324698369184905 
10.977081124863632 8.224880411246954 3.9457711746475397 2.4923125179783 15.383979980802797 0.8191515959533001 
10.992388221558057 8.490455881319757 31.004562764322444 2.492406495169425 15.650707727962276 0.9851940313467503 
6.1748538096074075 9.397758852265753 20.36811806100799 2.492443733270363 6.911842358387661 0.8564042083646777 
10.802945161630232 7.546694690257905 12.088844288356725 2.4924581101913366 14.68234986077102 0.8919146795823588 
6.521633745963333 6.9839422595913625 36.86967822710894 2.4924614555422955 9.46002721043332 0.8754733394097427 
8.492989162327495 6.007491846804852 27.447716405086204 2.492518013092216 11.738703571389088 0.9266766867516258 
7.204497246234213 6.370577219421644 38.7481380484534 2.492542630219349 10.383506220495736 0.9063436698624286 
10.877106834205806 9.249798573019948 30.317858701032804 2.492555877273512 0.7615936674959283 0.8679797833187033 
10.413076696373325 10.098003639841911 25.668892876974805 2.4926849137335156 1.7346621653427121 0.9214757878454836 
6.969987194942627 10.46803040593589 24.597137548391018 2.4928062223782512 5.563008587540654 0.9213800510698668 
10.560603310274836 7.096957724068057 29.638191955889532 2.4929126800527732 14.173208110125724 0.9527810695455039 
7.938769496093379 10.929036412448122 9.439977529392742 2.4930297975584126 4.482124467158631 0.8865468879693891 
10.053542630791574 10.449910558704898 16.238396920667896 2.4931197108513774 2.2389598292858093 0.8810948757410091 
10.429504624746103 6.921127090295569 32.24082246309483 2.4931561848217925 13.955186569630545 0.8700974994536336 
6.397299277931223 7.160387035388114 9.69853513872998 2.493173323606843 9.246780546079332 0.8435870138606575 
10.29702870053597 10.228233061026502 10.132135639046535 2.493211114962996 1.909514480397016 0.9077237252364561 
9.563655727390172 10.754942161178965 10.675849558436187 2.493216327692483 2.817444434520498 0.8678989387679795 
8.44924372013293 10.992708921372618 24.573599323617287 2.4932256148685377 3.967109424090493 0.8756386311219829 
6.198386218338179 9.458849811023669 23.328620113114972 2.4933549606976855 6.848895167194119 0.8828093352581545 
9.142621291027956 6.090820338824949 3.758026425354622 2.4934130751846895 12.399889237203244 0.8787428174525405 
9.974541312688668 10.510752857041219 3.3612202617542835 2.4934713022060246 2.3390031959330955 0.8626521853976863 
6.069200490768861 7.944023433677984 11.711810426325766 2.493570972797361 8.394473563165992 0.9041537477424755 
7.477229385998067 6.2258084202212896 4.905048593622393 2.4935932046751894 10.696916838553179 0.8767997813074434 
7.969415285996327 6.063423791694056 36.82299959062817 2.4936767548375096 11.216502885124909 0.8930083883090677 
7.742842350016707 6.124032094456378 11.129840834712002 2.4936942866160545 10.981955130975773 0.8982355089689452 
10.51152185337451 7.026096044375453 2.4106031666079417 2.4937147064187015 14.09155394782966 0.9562654785052562 
10.47364607922858 6.975643636790945 16.867871808397854 2.493780497178989 14.028835842459852 0.9586265912729646 
10.853862919230906 7.676426821495074 17.496016823300113 2.493780949258164 14.829557757531067 0.9702292337072238 
6.751535327250252 10.278243015416809 23.59446819117528 2.49384781687507 5.854933767271447 0.9391772539483942 
10.956684135439204 8.929436146114437 15.945874114748747 2.4939351124093583 0.4315871119785726 0.8992506211953771 
8.128300062532649 10.966099065534433 26.559750719950237 2.4939537775474165 4.2905834085628065 0.891974779941374 
9.598411398155047 6.260882387424951 5.855762877943235 2.494023913786856 12.890244034382196 0.874369538452893 
7.294987277505282 10.683606070533099 3.7562303057120268 2.49403110097752 5.175252110577848 0.859247906540733 
6.774220767161296 10.300600859723968 39.4202642282996 2.494088494126868 5.823646719453221 0.918117807497806 
9.971190684888665 10.51397353420936 2.043609871315404 2.4940913030197818 2.344191343222004 0.8729294420309733 
9.117251623264298 6.083489194570465 22.289494046727988 2.4940978407392316 12.376892065143089 0.8900580507344374 
8.34108331933264 10.989068886720943 30.560892434826183 2.4941368114513223 4.076805346319018 0.8936734999918857 
10.56295376235638 9.902004423498166 26.758781370360914 2.494272364664444 1.4888562746318588 0.8228476095898043 
10.147382069713114 10.373012901636455 23.116668779646602 2.4944027367906876 2.118753404533937 0.9025588869063415 
6.007404495560543 8.595714615271591 22.43064441772205 2.494432527916594 7.7407527860574366 0.8995781095812267 
8.770599446199558 6.020243459848992 6.456686930544354 2.4944772115024856 12.026079925828869 0.9252166027113321 
6.296298526064977 7.331113345332184 30.73184987334365 2.4945132185827172 9.053284013706921 0.8588989805211453 
7.800345760877281 6.105528837182106 22.611427176220126 2.4945957997016 11.046338020199634 0.8935609808802415 
9.100147239572156 10.921328843153738 14.197092772049153 2.4945961749057237 3.312409836756405 0.9441797335174458 
6.085068625263842 9.125479990788367 6.1898692730232625 2.49461795944022 7.204847198994361 0.8909915507801094 
6.543578403071965 10.047753620020103 14.047711896495002 2.4946195568085687 6.167430945863147 0.8753431657110405 
6.970307194804267 10.470624765051149 12.87107698554594 2.4946587026887044 5.565297650878172 0.9030341645904827 
7.067072976490287 10.542114625435218 8.744956863502651 2.4946967747846296 5.445060341413479 0.8673975593776004 
10.944948470883423 8.004111521017833 37.74731976214589 2.4947301274611724 15.175638208701413 0.8976205299108562 
10.99467369563773 8.517186523624098 18.209998616223164 2.4947328963841198 0.017186659572477225 0.9353297965093453 
10.978312288658046 8.21343781077139 5.324911835275188 2.4948245806887854 15.38824906636185 0.8435811282779154 
9.98917240519053 10.501686189214432 14.772294422402624 2.4948711494730054 2.3231559000534485 0.8566550615171991 
10.389708515246696 6.871076489090083 12.805378544926551 2.494872757675421 13.90085053321984 0.8506060888768665 
10.986322394946573 8.292619845622568 33.678324708937055 2.4949560276771336 15.468651360681806 0.9199341309484944 
6.951468651992187 10.456353690664375 33.25710918566686 2.4950489171034382 5.58980064185811 0.9118298629148699 
6.273264959402081 7.374416021167912 19.467178696244048 2.4950527518331356 9.006191405813256 0.8722852101990463 
10.816384927208887 9.42723623815226 18.905556079954287 2.495076386073836 0.9500259455463187 0.9013650735200144 
9.8701723927207 6.414764203024365 16.140320673572155 2.495111363198561 13.208438784279055 0.890246992481249 
6.262259189069144 7.396287451928519 30.72949679724026 2.495128318479016 8.981979407586053 0.8728149963163216 
9.592293974823082 6.256609885897269 18.638262462932445 2.495176412899231 12.888826795900842 0.8727299919080383 
10.159368654755415 6.636520744239437 9.238734217563945 2.4952072597350963 13.573709802295026 0.8695101729148189 
6.636629498785336 10.159516016252935 10.913638648049726 2.4952240446494978 6.0234603313375406 0.8901139216265239 
7.734618531349607 6.125059646594327 0.9143580674681075 2.495225535856048 10.980550999823373 0.8873074286052228 
10.921441915605751 7.897537565376728 0.32730506859213193 2.495263901030241 15.069730582382165 0.9317551785499104 
10.87750604239552 9.257517201781981 31.721560369451694 2.495268982018332 0.7696636924682174 0.8405492909027926 
6.40141744803967 9.84995195983345 25.761528754281585 2.495279347337788 6.412778567017925 0.8784468256888693 
9.389740782911478 6.168661037249407 19.8798467258883 2.4953516826321183 12.668829344204957 0.9261618165683408 
6.68524340531682 10.212728619392868 0.6764373016315233 2.4953518432544706 5.951688991887135 0.9156038741909852 
6.03612987810936 8.895343857041164 30.607341555328674 2.4953862913075353 7.4424705614981725 0.8842188353968539 
7.964653964292522 6.062683539259208 38.14389678077598 2.495417181103337 11.219836490251511 0.8828288085240368 
8.13131952967518 6.0319575048801095 39.137157695642635 2.4954276280662895 11.38939058901335 0.9115627274592579 
9.941142643032466 10.537269000881851 21.680438185293866 2.4954673108499654 2.383491157444329 0.8721591313761412 
6.070106322882909 9.068308179207191 7.425667827074506 2.495467384809389 7.266403071752517 0.8807185741022181 
7.947715180175921 10.933648009530689 12.354854259868276 2.4955282319582746 4.476862063434055 0.8939643626273284 
10.861064706373577 9.308176613322761 8.345309908976525 2.4955512389059042 0.8230146483984075 0.8362743866080803 
10.902267236886095 7.823935069781854 24.801364879016532 2.495586437550745 14.995612152864583 0.9558190424709861 
9.443862530177837 6.18966061592935 7.245726491454192 2.4957052200653904 12.728681545584562 0.8800361541646694 
9.680456491403465 10.698896056656162 8.20551772105295 2.4957206165904506 2.690667526211019 0.9321623478867923 
10.384159884450572 6.86334611368717 18.178248456222967 2.4957352451243073 13.896178070837667 0.8700510272991958 
6.100353504313114 7.813831773393224 21.730419225390413 2.4958225376550756 8.535977900274322 0.8765794767330669 
10.873442141668889 7.727821722569534 13.337804230448171 2.495894006560631 14.897105097210904 0.958616432429798 
6.106679484484008 9.208172212618907 19.204428820597272 2.4958948240491425 7.123048990791116 0.9041387107130652 
6.18638201134206 9.436336293274522 1.2965978471188748 2.4959074204674905 6.881305424859086 0.866949484158389 
10.9081369476209 7.843832272498382 27.602217580926506 2.495932620306797 15.018435855220488 0.9386193240325258 
8.676652844745773 10.989705975467059 35.86906123551013 2.4959651583772446 3.7438522442424897 0.8920466179103818 
10.490095958495589 6.993558414289078 28.195245406271546 2.495966381019524 14.065366428721976 0.9481157383320429 
6.473108247513364 9.956597796166276 6.828173814241474 2.495990247596089 6.286072467559382 0.8704881929578293 
10.602546880733883 7.154854964345404 1.0208094794339608 2.4960205433108884 14.262350658275421 0.9352851632597647 
9.809987616028595 6.375357564790958 23.103810155493946 2.4960314564602952 13.141361537104789 0.8384598545348055 
9.795570570904717 6.366461484577902 17.540020493195925 2.496094890220298 13.124754559127854 0.8539970414461281 
6.445463330174592 7.082433848303944 26.698472114092453 2.496119933435018 9.349353195843893 0.8716805234394055 
8.500336421036709 6.003869332660935 20.325553558769748 2.496130690009978 11.763075178240777 0.9003902458040992 
10.134812844317407 6.613716846638912 38.97013040195594 2.496132442519632 13.545237753033502 0.9006549577924604 
6.974736711956668 10.475922453720168 24.604249596814952 2.496136542933559 5.561847017696682 0.9204305139288539 
7.969065822751768 6.06097320133367 12.53738697035513 2.4961455937470443 11.227787623876893 0.8947391083748121 
6.0299804465801845 8.86052256479292 13.591529718750465 2.4961917222042644 7.480229696352339 0.871142943930035 
10.46026039101652 10.045530515602021 7.736928123913607 2.4962542689488365 1.6666164244197788 0.9345910915566183 
10.86426660067382 7.699012236087096 28.850367035216898 2.496264801057762 14.86908271999583 0.9551973220954796 
10.678322796573429 9.719170630451625 36.47217000122336 2.496290694656234 1.2737251002371295 0.9530257633761232 
9.744018488223782 10.664259693562093 6.982525316203834 2.496317692165816 2.618916010364302 0.8808989730040944 
8.370562724567966 10.992996148314775 29.129121293582763 2.4963541022426257 4.0507591980862685 0.8521065449335921 
6.131069862516881 9.287400665192848 8.926592787048513 2.496363315669803 7.041477997948624 0.8746638448612745 
8.871570398634333 10.968601446138283 7.510723244228046 2.4964089530798654 3.548393797150693 0.9190697170401745 
9.746414017863827 10.663071964888282 20.24012969279735 2.4964831722271077 2.6164208441519055 0.8690795256226017 
7.534787171885753 10.802383369221836 16.856751771243957 2.4965185724175174 4.912559192579305 0.8854307603231574 
9.956378676191001 6.472290312814788 21.741028200058583 2.496526671992231 13.31959593039811 0.8873203058855752 
10.77348188488941 7.468531350341468 4.601964250941606 2.4965270789936764 14.622814189200042 0.9050490368476473 
9.19639410603956 10.897435942522874 1.3840983798662023 2.496530362208152 3.2157838350948467 0.9139569875129899 
7.345377098863699 6.286514313741968 20.749022067233938 2.496532180264776 10.564292232954013 0.872078198829477 
8.78402894645161 10.980327490759564 10.021853334006224 2.496536982269647 3.636905860589291 0.9011181147312731 
8.894309116863143 10.965248467531724 5.160921258979712 2.4965836029079624 3.5256572241065536 0.9292187089202285 
6.525627509425998 10.028005487489649 22.557904246158166 2.496587170786125 6.198920964369839 0.879296718567803 
10.835061754890281 9.383426140923554 29.059952384317207 2.496588701732501 0.9029855645145837 0.882396538221146 
10.325210993141507 10.203425204509575 10.130854952819575 2.4966082185323133 1.8746988671536933 0.902150858243005 
10.990247075788222 8.32151400587524 9.024282945645993 2.496635285453303 15.508183760494319 0.9093413129812115 
8.81712060381415 10.976423612945794 12.963653793821514 2.4966456272604978 3.6037422020715493 0.8891755010856969 
6.696453688468406 6.773591678715821 20.14900749007912 2.4966507544385284 9.749775449946384 0.924043154373583 
6.258953932602726 9.600498571649439 11.69968430627901 2.496674704962433 6.7038682310684266 0.8857114072397403 
8.060663260810195 6.042252140894073 16.0066179793788 2.4967060919022286 11.323814061685525 0.8794213114320965 
10.93330539751489 9.059079116189483 4.637736752170078 2.4967067540530845 0.5638601325616843 0.8496045289785497 
10.621327151846009 9.816818130176365 22.0529002408448 2.49680573395695 1.387072360798765 0.9155751458034699 
9.316236626943402 10.859659236044738 33.851130828306815 2.4968447972221264 3.0905125548043557 0.8744240192031146 
6.0031167814887585 8.497612827333057 3.1016814505347554 2.4968843596523262 7.846580734177611 0.8740189611976791 
10.55508470097007 9.918160539451367 14.155731088146212 2.4969085773848887 1.5082154660082718 0.8658821797966205 
7.272943838421426 6.325372286129092 34.742372828662894 2.4969326217588153 10.48377935768299 0.8428966916287642 
6.970806034293982 6.526102307502047 10.419001362251755 2.496939383565498 10.120748228907342 0.8621356830165156 
6.213420173761822 9.503217189025175 16.906756193203773 2.496976577806646 6.812103533061858 0.8369404451033994 
10.981707971026626 8.775824955584632 39.73656422715439 2.496988958642059 0.2763889979253005 0.8967583479741671 
10.549487979128575 9.92639269714854 2.638730828787928 2.496997617754414 1.5182235173750485 0.8937712476115425 
9.424019231640699 6.180257400109074 9.88323758424329 2.497001656024797 12.713367685750699 0.8736039878482248 
9.646358508628062 6.281677373383589 34.20617757602298 2.497016841365368 12.957921702620075 0.8987790057666609 
6.002963733227615 8.488653976042224 0.6641191131660733 2.4970620436497404 7.856097834887095 0.8945682690819196 
6.311514101713051 9.70263513734634 12.90644274157323 2.4971587455708297 6.590280596453217 0.8892550748397582 
9.458576947181246 10.805881229285117 23.869628244847732 2.4971900222523598 2.938745606443094 0.8696021099540198 
10.966389443341725 8.108480167934548 20.95662155360627 2.497271444022066 15.297677503880179 0.8859016352438367 
10.312469077955857 10.218008258603152 12.654494476693856 2.4973178682688326 1.8945870150396544 0.8919160788159504 
6.0028847709137665 8.532559089087464 8.275410259565142 2.49732748385481 7.813025665338326 0.9028581853383995 
10.81942229981384 9.426094327463002 18.92278977327865 2.497472824323193 0.9487495161511745 0.8968840151127435 
6.1483966867038795 7.658946891772235 29.214488634494366 2.497480425141484 8.703886909034711 0.8516379250559519 
7.080790391753528 6.444926445303505 13.164134204128771 2.497495390857007 10.259730069137355 0.8614701782787376 
8.879606013083677 6.031512848470744 11.64871840495335 2.4975046631456577 12.150296496521424 0.9402852377719628 
8.326471328964676 10.9914829169246 27.737639468481017 2.497518633563804 4.096761690073219 0.8784147954317151 
6.730598534987781 10.262627169457087 17.493110121134627 2.4975259924364535 5.889447135752551 0.9229140381267075 
6.190777825927709 9.451405450728927 15.720426625886027 2.4975346606011017 6.870174021525312 0.8733081843192975 
9.306489031694039 10.863787600108441 22.713425341889526 2.4975821060916505 3.101986822673389 0.8782700624972194 
10.319935027456598 6.789440916554792 36.25048510787606 2.4976340568867093 13.808813244673463 0.842117338139965 
10.33856694687125 10.190531127793658 28.40709977984436 2.497643671977003 1.8569369531739248 0.9136332998616463 
9.235587230639872 10.88701034773673 15.48580728044574 2.497780409500135 3.1768466389459995 0.9159099178995191 
6.3734991249866795 9.81031530785231 8.06015067353517 2.497785454642673 6.467661347956657 0.8597352125853267 
10.876560860949674 9.268808694475329 13.449923108636426 2.497820717044907 0.781496345041079 0.8586336900760638 
7.247459412074427 10.66109048234977 14.502630884606674 2.4978330603352363 5.235636057362093 0.8670626808559372 
9.746993953366232 6.335691495879775 13.464873144138053 2.4978441145794266 13.07645538991811 0.8683198160444763 
10.997799911984405 8.515840692822731 11.428991375792336 2.4978501411930987 0.015840799003621342 0.9519787008056673 
10.649430563337585 9.772489104941837 16.835193940632223 2.497855133670769 1.3351670419528947 0.9396086203751683 
7.674818836641032 10.857666307855528 32.58787503096924 2.4979019939860687 4.764674049902947 0.840701677066944 
6.768411837048319 6.699661446662805 5.553268160709152 2.4979224312829738 9.857935385788316 0.9137061954637598 
9.141248201354603 6.085739194108484 22.28477751865144 2.497970074801631 12.419915208146126 0.8758313544587486 
8.040705412890661 6.044613188413447 35.49903150321524 2.497974361810209 11.309504192017044 0.890059199231495 
9.265746044020784 6.122283726989032 2.2722660972256534 2.497979519306484 12.549727592213383 0.9171714440719383 
6.653937356608404 10.182854475331386 16.293076082866847 2.4979884844548104 6.001193398843846 0.8653028878747144 
10.745771128100408 7.406146984337401 7.222592848197621 2.497999675677229 14.563171251052724 0.8724822286213157 
6.525051667062396 6.97037980206235 38.03459603538001 2.498030998148711 9.49401025940267 0.905411520944856 
7.248373183957792 6.338108729733019 34.72693305300402 2.4980679636656293 10.460887632758883 0.835612042565851 
10.75187185045862 7.418516424071759 6.020190118455162 2.4981059937261394 14.577583073241621 0.865846391300748 
6.558341781430702 10.071783582513522 9.603286079083425 2.4981073371648246 6.148047778309742 0.8723663815928664 
10.93387695772035 9.062974827874974 14.811529082314436 2.498138847650971 0.5678523565821578 0.8300851758771086 
10.807617645493622 7.543019414860947 9.635513318532517 2.4981815462705304 14.714456252569423 0.8612112314081679 
7.514923239261542 10.795766359890848 22.957693592605082 2.49818322061322 4.93671262792439 0.8448115453134368 
6.562932850056264 6.9223676461487145 29.83421436793251 2.4982299708612676 9.555926888898025 0.901815926831485 
6.003564935083528 8.595491316662212 22.430780826916887 2.4982607199614697 7.753002940375939 0.8767990722527547 
7.672568353720106 6.142733658621882 2.27445314389616 2.4982689473832953 10.929456474149188 0.899650254516998 
10.611369689279936 7.164515414668955 39.70362765416156 2.498279616549534 14.288151465285413 0.9298396875166131 
10.666507700008772 9.744144783666238 35.115128336282076 2.498329813479642 1.3023295648243902 0.9473968768508599 
7.516315679653683 10.796528352424414 28.563445294297857 2.498334908611013 4.935432297831046 0.8528103465793867 
6.575171002776411 10.092705460004158 3.2689402354897297 2.4983349156748007 6.121757011706045 0.8791603262912264 
6.0016843289102795 8.513772789155452 18.426676277047278 2.4983536343227355 7.835036564741234 0.8936931566901868 
6.0016320455586705 8.495432085977992 38.13548445554161 2.4983721303316426 7.853435447150385 0.8933189371581752 
9.565824250352378 10.75966001328513 37.869149068655865 2.4984084350399884 2.8233631950967517 0.8649526878005218 
6.551408921406754 6.936248295862745 39.44569144245195 2.4984648454131504 9.53878506395338 0.9179611975531231 
