429

10.634168501671526 7.816344542114013 31.69305810712494 2.017807457325561 11.413375116898987 0.0 
10.273257031614857 10.574237895169178 17.146627287589205 2.024699587381639 1.803414830188867 0.0 
10.293410847632707 10.580952765128657 11.489639264758992 2.0426265606669034 1.807935255196064 0.0 
7.613069580581108 10.570137340821418 20.49649376393731 2.094971898940705 4.806531685892935 0.0 
7.555224331363908 10.545384039068413 3.7893261568247922 2.1155586876497363 4.913513447963446 0.0 
7.8246978271443535 7.191267016914054 17.14070731766921 2.157046638722072 8.921888379336366 0.7145487748028241 
7.124318400570438 10.06948534806235 8.10111052682803 2.159161960613118 5.664312170167225 0.6314784547974035 
8.425248497897046 11.082723941840296 4.021247063519716 2.160573606032524 3.9755767787447773 0.6538763445035659 
7.245105722548102 10.264999616351876 14.253926330362887 2.1633025572960918 5.445067144197022 0.6299922222324953 
9.27162238197028 11.173472275331946 34.41781384737678 2.1903790653728894 3.1683159898048245 0.6639155826562197 
6.481526593478442 7.714358095294568 23.579653027349387 2.8276462661533364 10.217961971865481 0.7489191604403781 
11.50894080149435 7.685797163917734 30.449320633946627 2.832298190475324 16.429236608724885 0.6463727979169418 
9.93340824913201 6.318507123510006 21.65486178127872 2.8393053738923983 14.331006842681536 0.6932816801207179 
6.732442096919698 10.73506145594078 30.724569290350402 2.855215771130669 7.105075527663388 0.584280511309801 
10.044995587048982 11.669930256709346 12.911487267127576 2.86714899379922 3.4340719876113077 0.5302948413113887 
11.8449076714249 9.369989712417684 8.29888819491945 2.868865986104466 0.3710231111306328 0.7140046739596656 
11.088433389503734 10.968822760507926 9.10449791415516 2.8701597664046705 2.1696284769909058 0.8060717907483828 
11.731537259476498 8.10416095458887 37.08688898826306 2.874686660349524 17.151177400005544 0.7694813736705738 
6.9963103092746035 6.93380928521859 27.583523625580696 2.878179363168348 11.346780563648252 0.5531747942481553 
11.881473035826334 9.00400541128774 5.367391469408318 2.88147581969966 0.004005412577654965 0.8298562993455018 
6.927694144347781 11.009482474700079 21.354805210281512 2.886602046610726 6.845820429929198 0.7372272545907673 
6.849216590280241 10.926623518243087 31.75568888332576 2.887515793302808 6.9621334928626695 0.8048670426911836 
11.887842507623398 9.02699860291975 16.663652857036674 2.88796871059854 0.026998996202351577 0.7254049706716754 
11.517124971074802 7.583110697905582 39.47981387560283 2.8885105875516404 16.668127656376456 0.7750428042119846 
8.294009202839321 11.808308431747339 6.322472717312017 2.895689771625886 5.261717903226899 0.5501611911428503 
8.008931033849356 11.720891116081138 25.78731961841241 2.895766938349177 5.560174043597673 0.7438466538912601 
11.412399343597587 10.604901053973009 36.80668125830263 2.8974778663578684 1.7009245337782488 0.8459886075523384 
9.240372029376767 6.1068489788589595 24.037426585832748 2.9031192782309434 13.921274820017764 0.9498646031645641 
7.478333983855725 11.475412201385712 7.237225094503209 2.9057069761862833 6.165803931752205 0.922928583407379 
6.2213744123713095 9.851980659185184 4.600245763667552 2.9063088617437947 8.265757714136818 0.9537496180554124 
6.568430143329337 10.593015620586403 19.200754215177582 2.906928058157214 7.446425976374684 0.8477929474492197 
9.46109495189694 6.128122300736294 36.01969276943528 2.908657778803316 14.169775220977371 0.7944975027153662 
8.256351291574047 11.813466228238049 26.99949943749739 2.910086874816561 5.323143567501454 0.6213125588915956 
11.60569442341997 10.29973890434702 12.233512209169433 2.9118661795685465 1.3472996368414591 0.828919156943515 
9.435311110579566 11.881238845088296 28.780458325900767 2.9139377216131037 4.14025592755214 0.9826017562849154 
8.095850976683181 6.229269274283228 11.520693304895616 2.9145212661423057 12.815040097588419 0.9510604743431279 
9.892554146387406 6.224854550079643 17.636864794261342 2.915147538710007 14.644432065062656 0.894505865549605 
6.812949813213118 7.071674099140704 28.729523782269197 2.915755356584182 11.267078563238506 0.41826687028293613 
10.3689921910121 6.42541454830077 20.64941739099784 2.9159269310381264 15.166026361030054 0.8893051026240827 
11.81448210382197 9.763065070038154 6.178910480578338 2.916089472880839 0.7720531390527583 0.924087405989939 
8.862306598455604 6.086809789787466 6.550012086074155 2.9164424687805868 13.605666744682312 0.9774675036938161 
7.594205744599131 6.443383521134347 22.35903857926408 2.917626656809517 12.282185076260859 0.8616540358718145 
11.7512244668751 9.973511242388927 36.0467366566143 2.918383149312277 0.9925346891882416 0.9244165907949796 
7.97793391609331 6.265955154024235 12.83219214927135 2.918838861547344 12.710507252442193 0.9811801532470018 
8.890183040185942 11.916793429348946 20.787880372651394 2.9188599956414443 4.694777443708929 0.9607250352785897 
11.915968803353874 8.845796748813925 37.834203767905734 2.920043271050856 18.192897963510674 0.8010067488350218 
11.774773103529022 9.913432004869996 22.757589991087947 2.9212538067735414 0.9290123937443298 0.9315765368273079 
11.886540349004036 8.536299814253276 3.3916318397833933 2.9235480240095084 17.903527262677237 0.73815944047103 
8.128428766630218 6.20848865916518 1.317008292350046 2.9244096807470603 12.895937246806781 0.9571727230145215 
8.425655551325917 11.867749924932173 3.3302572902475838 2.924698476368328 5.172207152545678 0.8122909969467428 
8.643338937591931 6.0966027206912194 39.00607635946349 2.925221850550086 13.427232500349199 0.9055157437603093 
10.797191853921412 11.309484982269222 36.414613465721104 2.9263662523902463 2.6615401913801264 0.935792378728753 
11.915681549416998 8.746542552042797 6.498596976611054 2.9266772243511383 18.135079991651743 0.9403098556212195 
6.332280225848736 10.205085709455812 25.230029818750403 2.927278661236797 7.954300251207016 0.9488245912083532 
6.682952619520071 7.210611375102253 18.310385808544396 2.927562162329324 11.122381119523666 0.5817521367920422 
11.919848234877062 8.775124140406394 21.80141797116596 2.9284949832537963 18.17517920489157 0.709135929809003 
8.40885883972361 6.129945546976355 0.019795275400582568 2.9303004000774004 13.213489323133626 0.964666697965794 
7.495319066489387 6.48472095745775 23.48153777152939 2.9309884635601406 12.231841552808014 0.8808786852676985 
8.33687462463936 6.144246743367663 4.5365624212473605 2.931733604237154 13.146555065694162 0.9680386470021903 
11.242778633847148 7.11020599917121 7.852700304345213 2.9328104892764157 16.37386791983903 0.9488202414953535 
11.523352373101329 10.498523248831091 11.177501187560878 2.934770710996588 1.5727262751941993 0.8242568111797297 
10.659053378079056 6.5788042279601555 11.080474394524337 2.935071903354179 15.594409506878705 0.9451531563761364 
10.299808315054399 11.631606705299294 2.61383663507592 2.935107409833713 3.263906858581098 0.734349706774004 
11.707287880035029 10.134694014294706 24.62357742571332 2.935462173399758 1.1650396928662374 0.9072962350144194 
6.669567988932041 7.213157589394736 29.76753161006196 2.936616958091042 11.146585840256115 0.4304044625287053 
11.885344183098304 8.44964054568215 33.068213256406196 2.9373638834669915 17.902370057373403 0.762319149604399 
11.781884871467222 8.04988280610803 1.4721525193949105 2.939660885242948 17.502945292117495 0.7696351339553416 
9.825698899868563 11.822082008983875 24.025089415880288 2.9403954731761233 3.781807512903965 0.9267925466176491 
7.180384028976707 11.31080792517955 14.299958459021063 2.941230278144787 6.5819730721300544 0.9036687552267845 
11.15922588043901 7.002774519162596 13.147782927154033 2.941286457328462 16.285147430764937 0.612248396762475 
8.499566450301444 6.1015651848009345 21.780395922918025 2.941319111490953 13.35775984660233 0.8019855669779521 
11.603577372702636 7.628837460348635 13.975935714619197 2.9425672202674193 17.062326407591627 0.878697760528789 
10.970287013551523 11.18583089397136 37.66365143443016 2.9427686984894668 2.4637258924126293 0.8660660034533664 
10.482047800820668 11.542501322755928 9.888173074499019 2.942920090680857 3.0695782932803386 0.8967456487257078 
7.368071837514027 11.44930505737863 26.60283510617264 2.943175970208947 6.352941448278756 0.8964444847415981 
6.754782058047397 7.096886363697049 10.204566734164572 2.9432711597044765 11.316021365822472 0.610824520052356 
11.932945067361981 9.25681832945153 14.338389162013705 2.944167526229662 0.25714513770359915 0.7434662309047515 
11.901864122598917 9.50156378703366 30.909192427301804 2.9448907651202165 0.5040208700180955 0.7265341880393114 
6.609729809196773 10.720690451793079 20.43158615844564 2.945193918222427 7.414977452322631 0.7737683351417394 
11.78107765180241 8.029354907106743 11.750171320996401 2.94559752880677 17.518605299677372 0.7731550192305104 
11.17670851035351 10.985151783848487 38.74651930001061 2.945995170390174 2.1782803669933166 0.8058058357368809 
11.907793026699332 9.476296784878791 7.284493036700724 2.94654355362468 0.47839578581826814 0.7264709978136971 
8.74133218344088 11.935957746751416 8.669163825788296 2.9473304751983798 4.88865691841599 0.8769736496883345 
11.131344801504765 6.964283593988743 20.103149885210314 2.947333023023486 16.271435022821613 0.5717517642621892 
7.139413802304626 11.28639153933339 38.860251280022844 2.9477732731995903 6.643911287977069 0.8584156711139949 
6.086404532841671 9.451188203307982 37.76420129076628 2.948323140541049 8.809462243292678 0.9389680828090311 
11.04388798265566 6.8746675738854535 21.43945375112738 2.9486464703552007 16.153437076026556 0.7611651424616827 
11.628414151041786 10.336619931722147 19.522824337671793 2.9487478344669698 1.3872267054332639 0.8227454570523427 
11.768976397104225 7.985985880337742 24.15197202540304 2.9488056773200086 17.492749258863213 0.7513682531832444 
6.071052465623392 8.657380976873512 16.725880717513817 2.9489186923580917 9.60769587159016 0.8816595847388109 
10.365182682460091 6.38598158297107 7.994125492741688 2.9490364597704364 15.316355256067723 0.8518047974057531 
8.242842461806571 11.850413428082096 39.08326762477057 2.9492616446551274 5.398420985334759 0.5285522255638688 
7.88749734421458 11.731804355143215 13.500760740383264 2.9496469608936353 5.774020326362049 0.8486582066327872 
10.399390596462617 11.59671587278146 29.333863785456625 2.949784291337788 3.1754693968391834 0.7703074673099833 
7.351958011169264 11.44676737064032 35.70781506757692 2.950036095199396 6.382566300970687 0.8612342795232715 
11.948192177392402 8.893368930308608 17.800753827146977 2.950119878896669 18.42949557636883 0.7224322854524965 
10.825697203342385 11.318141691950096 17.933308017649914 2.950754341223522 2.666541167004006 0.8259672490594114 
8.073797260575734 6.198305925573742 3.5396123358029428 2.950820428489714 12.963285957682807 0.8847870627045323 
6.088016692532314 8.521695591960313 38.27287385547072 2.9510035394286875 9.751274820432787 0.8771569390346149 
6.613836425339073 10.737096579664048 39.67488717898386 2.9514879522232755 7.415109398800098 0.784227963226917 
10.220592531890649 6.312705307877351 31.5877618969444 2.9515079012629775 15.167023794148442 0.8480999086977302 
6.098866566325556 8.456365795832202 15.609818247995534 2.951628931272497 9.81957144683319 0.8594411786104615 
6.0940744204389095 9.519020789395483 2.3255910015501726 2.9519122706767864 8.751972998703275 0.909123924561363 
11.710696559827968 10.17154710675085 21.717729863901837 2.953032079541209 1.2046844607903466 0.7296525841038729 
9.62365676743996 11.886644240044067 20.020413600468153 2.9532461347055468 4.010560452106562 0.8466076685537918 
10.87963870111548 6.720755915969242 35.580276977403244 2.9543180670537637 15.959215620997488 0.893196410987877 
6.107025599671561 8.400579893370132 7.562535747633426 2.9544213215429935 9.885198947507087 0.8390409414385567 
11.611059228980931 10.384582929663617 23.628922481572417 2.955452619542799 1.44100272215168 0.717436054627276 
11.033916192312041 11.144390127307531 11.964056362232341 2.9555412525361797 2.3994026381628686 0.8339873561391657 
6.2223538992676755 10.010662015357394 21.168338031767938 2.9558003265105324 8.254450916202163 0.8370004517170653 
7.221497834593288 6.639106087447601 1.6687797133870106 2.9558230695837207 12.02064724891359 0.9420087288256926 
6.121089382357427 9.673037436429997 7.892817839729933 2.9565361041616587 8.60924177962675 0.924262694023998 
8.568707686403467 6.074943563476678 26.30350816737431 2.9566819606805814 13.500198824476065 0.8745920477170921 
11.082737450902204 11.098754345947295 1.9134827373132026 2.956782895990721 2.3335775388711237 0.815400712162478 
7.737709446321281 11.674310925657 8.227119322185047 2.9572481074463344 5.949388545184135 0.8032477288248985 
6.492621005889815 7.4318793689654825 8.013795003754684 2.9573555304665518 10.943638609652933 0.8608680936842924 
9.059544734284932 6.042970082362714 11.198533693602222 2.9576293731945222 13.997048823779016 0.8823100691505241 
11.927866447894276 9.41869048578079 15.638355208132765 2.957651713706058 0.42010165717777603 0.8457244729220212 
7.563007071149707 11.585770988463693 20.585457460161074 2.9582360085608848 6.147299733917308 0.9038522113241135 
8.60231010849635 11.932092729582779 7.443222407553826 2.958939848100395 5.046788894613989 0.7546326615990077 
11.679873416258662 10.254572941999603 37.78812837375285 2.9589989513292134 1.2955726401645506 0.7571720620777659 
8.872660428088572 11.95637442660281 0.10861429680868895 2.959115597073842 4.7755468171796345 0.8061822656807272 
11.904207758896423 9.568465681119674 18.553335358715604 2.959320181637163 0.5720210904026182 0.7932860063893018 
11.358796291078516 10.787165355294349 17.196479242293883 2.9593715464554533 1.9188134385368372 0.8333263693895147 
10.565269252302087 11.511754834805224 39.60651782530001 2.9595574301523078 2.9995369158628407 0.8571433657070622 
11.082157473906289 6.896594036742702 2.933368122933075 2.9596784271961356 16.2566569913219 0.848484110534023 
11.924349211829306 9.455981085213573 36.997053740392445 2.9596852979327446 0.4578044694852039 0.8127217937489846 
7.194280642232414 11.345359972045028 19.673012348201823 2.95995537086079 6.591582082142203 0.8769210494678206 
9.392417095659884 11.934033021210329 27.437258618321437 2.960158939401521 4.256231130478701 0.8310162838667814 
6.598028905715534 7.269449461609842 38.97291131910383 2.960451030451372 11.148839028590832 0.8129631158583424 
10.93923914980964 6.762455286848272 14.310482711833693 2.9609550525983446 16.06758791405925 0.859203243186678 
6.300040965419186 7.78444975701148 27.99900658854898 2.9609696353802777 10.554736678672079 0.8787117458953564 
11.47724467182649 10.622510339632651 27.670374694142083 2.9612971762907545 1.717132283000101 0.8984827476966747 
11.945715875583762 9.30465115499365 26.799526031594382 2.961427754632078 0.3051910773865316 0.8129691376083801 
9.533344939593189 11.913061846322083 10.811159150458906 2.9614837742400484 4.115616919261665 0.8613695250213927 
6.327950512164438 10.277395357519431 35.91540064218382 2.9616865743786054 7.983676343262307 0.8736290346006131 
10.641850033627737 6.5347574445717065 29.76387525734704 2.9619406459309827 15.69807654625043 0.8936602325278963 
6.924071864411307 6.887084719085156 0.7311444200227086 2.9620750511174103 11.658195726085708 0.9056682957236429 
11.90413391118997 8.416130070571242 7.710952535875933 2.962245409923808 18.024618692955556 0.8082187075310864 
11.021560533172245 11.165624341190892 24.129821632524333 2.9625387383860753 2.4286610646813607 0.7944444335138428 
7.162480734425621 11.323881138353517 25.40179165460202 2.962583432842396 6.635735863089785 0.8565593575075625 
9.90836250776304 6.180059523257892 10.423283645773928 2.9626317249833862 14.884305843698606 0.8494102891409633 
10.197867940999739 11.710517309538876 28.0372606228877 2.963408795523293 3.4217617826892592 0.8525923001117918 
7.159302285872297 11.323226630220947 29.743407133358446 2.9640428556555545 6.64190391000891 0.8216483582401585 
11.455609036608873 7.339090956202057 0.5423756146869181 2.9645631368626555 16.863895508637857 0.8710208299877391 
11.834042149898078 8.129156966914753 22.928474440890014 2.964820820163001 17.74464096891116 0.8364100185148929 
10.416856395394927 6.395370069854568 26.39308463682505 2.9650597157866674 15.449726944075191 0.9060194580861126 
11.883858961241703 9.689629811699437 28.14705352825643 2.9651697734731304 0.6960034485120339 0.7672088840666694 
11.654129177493271 10.32264590279706 8.027053660214243 2.965433168190941 1.3709638040516197 0.8516603550903735 
10.08837467429866 6.241005388942305 38.888021542909115 2.9659080726651137 15.090925041915778 0.8398094454853936 
6.11541652132108 8.308428856841822 1.9377654356196459 2.9663264303708203 10.016983858591267 0.8907710029690136 
7.082186116909362 11.263475145599209 9.109756326508375 2.9667035283156498 6.74543372879241 0.8642167660786372 
6.974100672244301 11.16764468532303 33.00493419856709 2.96697683981695 6.890526305700094 0.8746684928702742 
6.17619095980287 8.089257394136752 30.20632634184848 2.967043914341954 10.246930403225601 0.8965669594910529 
11.611478784544392 10.409225732333415 6.973545234380801 2.9674464791797157 1.4684254774603467 0.7438527830880263 
8.913893431025425 6.033741724415698 25.097945699691813 2.9675077925243847 13.897932364168014 0.9314511959322119 
6.108935053961208 8.329124178564197 0.6452060375373634 2.967883233889339 10.0006047200064 0.8680721576061936 
9.570008596374368 6.08726998993 26.946153885320044 2.9679801063186173 14.55984886887708 0.8066692203120037 
8.049531952031547 11.811844968268456 5.043422523642832 2.968141107795515 5.629855943267994 0.8396868198289794 
6.033166868032122 8.906116266716246 12.584068590916793 2.9683182087366613 9.419146071465356 0.9438517117866451 
6.559264940539503 10.689624067166516 3.8764266226638853 2.968504188783972 7.52836411791532 0.803736854251316 
10.885631602102105 6.706505112504519 32.264644429062045 2.969128716949476 16.034779344202565 0.8411086807726841 
11.967021194958601 9.112753237273285 1.086229097842729 2.96916285573041 0.11278035477970505 0.8231467035190824 
11.964072363730093 8.82458039095052 25.900784439164866 2.969258664493143 18.480880600390584 0.7971166937074757 
11.713418100913461 10.205907409704007 16.408312870514607 2.969318182873605 1.2417897586273376 0.6966461551844341 
11.328380025879913 7.15714894313761 12.098313752466524 2.969419735014802 16.669328010695942 0.9199643536331569 
6.32821625364463 7.702897115869892 32.15398495314556 2.970000720422031 10.672871461590063 0.8796006588455583 
6.662866747528209 7.166940305528708 33.25532091132935 2.9702356275730986 11.30679314323265 0.8961472917049197 
7.550248945267544 11.593710216099065 27.815239061885848 2.9713819690161953 6.1819126445824715 0.9031989246101545 
6.198660360480009 8.008937737296403 18.75503418948903 2.971482489347898 10.34560956669496 0.8721010161482947 
8.259817166321644 6.121925042938095 10.527183154935742 2.9717311597348455 13.255895174846295 0.8602242257385935 
7.9272295008572975 11.771390493831543 9.46941320366448 2.971774186093339 5.765604125621586 0.7995914904059687 
6.126443785287103 8.241848642399777 35.10211927165076 2.9718880867465667 10.10308713527947 0.9033330913312533 
11.327124501279178 10.848574052100787 39.97126893483581 2.971991667309013 1.9950751058039877 0.8537860022652309 
11.355810798532776 10.812020522247206 35.63785892430339 2.9720805661234477 1.948667968336224 0.8375797507470675 
6.8514909318664685 11.054046767484248 12.099774200641242 2.9724063212933194 7.070367953116733 0.8806038799408406 
10.557886958305582 11.531445337642545 23.272246848913056 2.9724110200863545 3.0292435628648597 0.8141252050074552 
11.902654678641928 8.359334311637017 31.18283062998053 2.972516897796796 18.031142015852666 0.7499260594852116 
6.592467304654841 7.256297472853696 35.52334906964319 2.972660791670038 11.202239928893434 0.8308081509223894 
8.941045834717837 11.972159144816882 24.809416094617667 2.972743779023468 4.7285330389159945 0.8291891843851962 
8.560024573833957 11.940252839507195 16.714080699053874 2.972989259291077 5.111558078495062 0.7857357922313553 
8.643826461651377 11.951650632030198 30.45813893325399 2.9730625696382584 5.027106824505179 0.7564073443713565 
8.533425836478738 11.936432773996405 31.678666204352673 2.9732690571601124 5.138910696182137 0.8039204591304159 
6.031967605934433 8.819136246698829 17.96464814875973 2.973537958305015 9.522620465288142 0.8826442206105569 
8.980232991117381 11.973712120456486 5.530771354014888 2.973777817858956 4.690966427446703 0.8363824295563889 
11.973626411411125 8.965791467680857 12.561902170738449 2.9738231720001846 18.65087277366273 0.8839778037229035 
6.035480513051718 9.235441095640676 14.821014414347559 2.973854115119397 9.106950493600415 0.9001600826350266 
6.089905899823538 8.386969341320683 27.0387061890776 2.9739627200694105 9.960436609157583 0.8510378497526034 
6.02753554945048 9.100297197387155 13.651089587481607 2.974156088302088 9.24327070027562 0.958565730141829 
11.964693173028007 9.237200836863384 35.220647970316804 2.974167084615046 0.23745301805391605 0.7403528375646736 
11.393756728051645 10.766162028841268 5.887783277980425 2.9747940408057216 1.8909586109424694 0.8304958473662043 
11.54566876021893 10.539316192789098 1.1900445266466875 2.97488214525169 1.6179013162804345 0.8447758352715186 
6.426779159497546 7.507021456927159 12.364120214769073 2.974970659363227 10.910183892953835 0.827263358774385 
6.363125782549265 7.622294345497384 6.955563450527812 2.9750930252859176 10.778939364174157 0.8772254923717417 
6.959679104949041 6.834613993159728 13.066388776996696 2.9751984662205677 11.772024471460025 0.9622433479016927 
10.336466831586819 11.658517637579283 38.45314113825812 2.9755435841627005 3.287922216263027 0.8987289019285983 
9.552021782910478 6.076039739262793 19.858240680390566 2.975612820105809 14.57748330451864 0.8180430281251788 
11.267938041833034 7.073639612981662 1.8700942799819913 2.9756356131534094 16.601209107917846 0.9333777599976149 
10.864382706881765 11.319241453989981 16.18571637660839 2.975702236384776 2.6593743510045407 0.7919432746161421 
6.955576933996213 11.16230858411284 4.757851670050471 2.975776215668173 6.9281389688349435 0.870859211342508 
11.96392661886829 8.73462184426473 36.1600977097479 2.9757833536024547 18.431667067999005 0.8568967297501954 
6.3920244377663185 10.433193858673608 2.8701613029287785 2.9758328531266356 7.85352234586496 0.8319070018249731 
6.454488674452925 10.541570143336681 9.691382110994972 2.975914383062036 7.72863784535086 0.8740599506751066 
10.171281654390086 11.735745340736312 1.5910661222781286 2.9759373789230157 3.4707440767133626 0.8257199566042415 
6.540207496812151 7.324754221572345 36.68852262464787 2.9760758688042293 11.129000284245091 0.8042151149208631 
8.620116208812512 6.048201059171841 28.70027494348514 2.9761432562766887 13.643821699122146 0.9162855668382398 
6.02610541319979 9.120225265846077 20.710917041520702 2.9763237606059185 9.230138876577769 0.9534760228800582 
6.055456837830603 9.434490433674245 23.012508344736858 2.976426779014226 8.914671963989093 0.8983097814974635 
11.866145478385883 9.802766936011189 10.364335482641678 2.9764449695609367 0.8128324646774274 0.7852411243961128 
11.08523297606576 6.875928864804081 38.663678844930516 2.976554174182715 16.336998156258403 0.8634866154254895 
7.941387070335502 11.781994526488852 24.687797305727464 2.9766012296353654 5.757938233318427 0.7973380540786679 
11.500465526177344 7.385016530676534 15.027207740442314 2.9766591094361816 16.995880244795085 0.816897581943188 
11.874567744860284 8.226668963536092 0.2835057131859742 2.976773523758484 17.921314639058146 0.8644853986445169 
8.099776400977305 11.837648983183115 14.65358004463831 2.977021041241991 5.590834052502743 0.8324418962073419 
11.84463529744114 8.121788045109966 25.165722570587633 2.977113738700594 17.814282464564958 0.8317903206428998 
9.3294279774615 11.958863414078056 23.091842071407655 2.97714552810306 4.346385302420785 0.8513165300586357 
7.926262738667251 6.223215994812254 16.90346758136174 2.977153190187037 12.931010543293297 0.8874008130070318 
7.07468249769644 11.271186633429732 34.22739976635515 2.9774378597287816 6.7705804202803 0.8362184146780715 
9.770420295341864 6.123958566850117 30.36350400039933 2.977442150012237 14.810152672495796 0.8201598397759498 
6.048529610797864 9.394394843777718 9.450347542196766 2.97770461112842 8.959177755275277 0.8942205869048732 
6.844168187744142 6.9458871254048375 24.1199143220626 2.9777492346253713 11.621660753114636 0.8986052698746634 
9.378188869570128 6.046046921149433 3.9656129124813333 2.978064071358687 14.413009129613215 0.9264652265151552 
6.757839146867688 10.960124938523453 24.48987127339955 2.9781496043584825 7.216678545337441 0.8555093986768803 
6.568771083011992 10.72019223941152 14.864729831487267 2.9782436749417114 7.522519488049348 0.8157255723774427 
7.787146164029668 11.7202228874534 28.903258172751393 2.9783597809622098 5.927551818540358 0.7692691048352597 
11.72755618449155 10.19707683720586 34.852913976778545 2.978683550451926 1.231895034451874 0.7547743034620296 
10.054456157125049 6.213425471441617 16.27981658911844 2.9794085638779553 15.117942932803818 0.8449839139983889 
10.713382431290523 11.437674490208618 6.615215412181669 2.9795865948263476 2.854869726538027 0.8811107565162485 
9.349440619266389 11.959122982319197 2.35949190486901 2.9796841394488345 4.330230291197552 0.8247360004554639 
8.632218916448643 11.956978290050532 18.635393772070195 2.9797623283155312 5.049321063303019 0.7198762937596549 
7.603376006353374 11.632268570577281 32.33933344196214 2.979831607201722 6.134299532155371 0.8912210715804794 
11.846675666946446 8.119024397029364 4.476829925601336 2.9798792535628813 17.828791808932237 0.822908472975007 
6.108013630640787 9.718489726325448 24.344633447912365 2.979901449275575 8.635996532004206 0.9137982052854128 
10.466318896023573 11.594226657300144 21.08082204370431 2.979950176476523 3.147840821676894 0.8489056487173574 
9.658663873087502 11.90630007303385 39.230259574504544 2.980003055741249 4.016829545597929 0.8531339541097714 
6.040742337997266 8.646498444171431 37.159051285593335 2.980296840936333 9.717214411999947 0.9171741681121922 
11.58697705545542 10.479985700576844 18.17905649035732 2.9804039926434083 1.548752536848351 0.8009801229022557 
6.517181649469844 7.351150971933809 3.5358725970445946 2.9804513213746837 11.110582602433674 0.825109543898955 
6.038278316502129 9.333916687967555 22.012130815731297 2.980485813588897 9.028853136546207 0.8835207055480272 
10.503661965797406 6.4265288698390535 19.454793349413606 2.9805625249535663 15.621662852114625 0.9015123799221938 
10.538019020845752 11.55310584716641 35.2186930566523 2.9805791342151355 3.0658413582960478 0.8280316018351519 
9.451986094257306 11.946395254398379 21.683475515603483 2.980861691615912 4.228590363437277 0.8242336939910733 
11.685695262734757 7.706189127051875 2.5774378222921044 2.9810913470128226 17.39243486823346 0.867694631368035 
8.169987315014449 6.136678078422289 24.166070774402463 2.981196652994296 13.207430170104914 0.8544318439146171 
6.78097153246749 10.991253285708108 16.117867120209695 2.981472285224704 7.186068385815304 0.811815129847811 
11.476242447331307 7.3394559622063476 36.33096403193261 2.9814733202591954 16.971951291004025 0.8286377608826287 
11.045014993458876 6.830052869653084 8.81611821890749 2.9817372238298305 16.304603285299542 0.8139434660916868 
10.205659680189049 6.272882637894341 4.756008828026815 2.9817418350909746 15.29232281952654 0.8666374702566236 
6.069106151768684 8.451069036298446 36.138507555610744 2.9818557900258176 9.919855944960467 0.8637143803628688 
7.627592072678199 6.352441031788935 9.741074462498744 2.9821254180752628 12.626783494349361 0.887436531784084 
6.023097885648287 9.17790942505486 1.2541234507646877 2.982213600994243 9.190885217798243 0.9374420008209475 
10.640803202170465 6.509719051251128 6.9256593766176024 2.982236468148432 15.790892454835163 0.950753099464373 
6.217642532561131 7.926347298323051 24.689249651385587 2.9823217801624033 10.467551627291506 0.8724377350996286 
10.173737119336058 11.741959099697464 22.365935910421072 2.9826160546944416 3.478721566304774 0.8273045360069987 
7.367143831789933 11.496111310796348 39.87041725634337 2.9827488901929224 6.413179806781635 0.8593216759014783 
6.029612641695815 8.727662033115447 23.993042661915972 2.9828457932954104 9.643604189955596 0.9363957993082332 
7.33140124822363 6.5273565554908775 34.93176443380622 2.9829829697977828 12.286191955754866 0.8345394109890882 
7.7420834652755595 11.704799106820428 17.49950019616383 2.9830005391534407 5.984227868109791 0.8444238364004198 
10.736533425301008 6.574154926104121 30.764793362923257 2.9833324755602666 15.912115080727169 0.9064204092570094 
6.151132964448104 9.88591073080304 19.953790185602315 2.983434465378152 8.473260385493475 0.9329742939268671 
6.988849845673428 11.203895640691997 10.298139682431668 2.9836020073577156 6.893607526052687 0.8796376832626195 
10.710709719195957 6.555168483920845 36.613001417969784 2.9839116751950643 15.883154028036415 0.9329529906988171 
6.189202526263124 10.002450587763473 15.912688455157621 2.984206698483357 8.352831262257002 0.876022320123547 
8.149313266840647 6.139527651503517 35.37384493481229 2.984287180297219 13.200471821731064 0.8519757813511188 
6.067189534581454 8.448100371744943 4.026276738843158 2.984287255901583 9.930509894902794 0.8500685281279293 
11.95513589735745 8.583267386094079 18.895198000962086 2.9843750172093833 18.333282323715167 0.8183204210465737 
10.659953037151814 6.519755409342618 3.8532868456470055 2.984469352336316 15.82422849255336 0.9488073204973573 
10.850580489582377 6.6583925993283515 39.75897369209416 2.984589313004918 16.06064032766574 0.8677459758581813 
8.835240927229357 11.980088382516954 4.349941474441465 2.9846393952490744 4.853103464926118 0.8219421224007467 
8.714278438395434 11.971006820455635 11.559835150318563 2.9847141132710946 4.974537724212013 0.7848511376101023 
6.540198775827147 7.309367862365679 34.40204973253344 2.9847711951243885 11.17422864892226 0.8364128063334968 
11.33320840966422 7.138433054232925 24.51835993342209 2.9848438780781144 16.744235003183903 0.8756763322580648 
6.591203375524131 10.762965562703522 26.183060356071046 2.985020729134878 7.491761364559153 0.7958862908058605 
9.941836915082988 11.832584635389976 0.35818783663158626 2.9850615556903386 3.730715477169287 0.8570036570335792 
8.692429124971236 11.969406106703246 12.710744843594263 2.9852926941411426 4.997404428992063 0.7422370355263413 
6.338202816862077 10.351608259901958 37.16925703381983 2.9852988346891105 7.975942811639538 0.8540668787490939 
9.744450811087178 6.10860912415702 2.954908523181402 2.985690574563345 14.822124097800902 0.7710651325497967 
8.446980114942699 11.93411068825715 32.91826318852677 2.9857723496967457 5.246271927571421 0.8397316845301139 
7.636779472606017 6.343594143089721 29.32546250042474 2.9857766632713143 12.654471567852294 0.862730474761551 
10.224722297342192 11.723067220083653 11.577969663396281 2.9858063886831725 3.4281337540412586 0.8593304046274637 
11.766801178435314 10.12248248781826 9.241343292066837 2.9858257980749134 1.1507604805805123 0.774902300333824 
8.909252513184747 6.015489308975917 9.591487010855538 2.985890013245687 13.979913732159346 0.8906881558584994 
6.214931416458393 10.076788868588572 12.84903284772453 2.9859807907196445 8.279126495193811 0.9059376533400989 
8.910998355613323 6.015217180390394 17.769838904160906 2.9861094710241614 13.982694538368904 0.8876691414816814 
7.407148010984674 11.525813326502139 15.342825740495712 2.986119625742728 6.3706875502488955 0.8586133156760286 
9.992551334651273 6.183514067624959 32.69439076634776 2.9862603970826975 15.08421981983384 0.8655372513811771 
8.0613275868137 6.165063539307077 5.556536928375458 2.986297144532524 13.117733781239021 0.8825074462182638 
6.174005089833388 9.965779173446073 30.244074218212702 2.986465577258472 8.398800633726946 0.8726295056723404 
11.777597441856123 7.902029748089468 19.937149174293722 2.9867350440047664 17.641872053705196 0.7878843843264001 
6.949040453200126 11.17149447648276 37.73116857549255 2.9869421360322104 6.952573966901991 0.8479417791111044 
9.458801395052625 6.048373353504914 8.683667114416053 2.9870719074709378 14.536869539682638 0.8325745174682337 
10.212520056376224 6.270020795815633 9.327646558647174 2.9871376503927136 15.325113451896822 0.8554423941465206 
11.98712693287455 8.990441440059033 32.11038608447171 2.987142226137327 18.75920956946847 0.9903075802336504 
7.444330283190851 6.449786668427958 6.314478591227058 2.987255647634602 12.440837352623547 0.8980384392547772 
6.1068192816593285 8.255981881617776 39.386302130664006 2.987316124794841 10.136863457609792 0.9093608749274548 
6.5134716004246265 7.344217223177495 26.777194431342366 2.987380137497891 11.14013554765501 0.8110614910305747 
6.398493871939774 7.531448459437975 0.06578452040742988 2.9873864433015695 10.920392611381715 0.851553798084451 
10.427090085576436 6.375352082817965 34.74915957712158 2.987534569091804 15.56625839455802 0.8762976976883018 
11.980353654061638 9.210689912742907 24.943608684679823 2.9877915159211073 0.2108649187714704 0.6075848635313139 
6.064347977907211 9.55616055535872 36.58598450231971 2.987870037025438 8.827247237892955 0.8698501890245174 
9.797445604263917 11.879527505113263 15.933340760693639 2.9879086573159563 3.8861662498324065 0.8540736717464524 
9.669921560943045 6.088142986140802 33.96905266423145 2.9879267338703883 14.755938295126253 0.8387695108502615 
11.873309702132959 9.819675080240172 32.810156145491405 2.9879383998901545 0.8303205745505622 0.7563178096072489 
6.077692327456914 8.37700015350739 22.741331957331013 2.987977734477622 10.014613368965463 0.8815091021295935 
8.468867676844143 6.0593624124537655 27.429212656283177 2.988218694471787 13.547679389644642 0.8557259848005135 
10.032779704571043 11.804093417914778 34.22948352390246 2.9882392498872705 3.6393838998234145 0.8726264905927212 
6.022459884820906 8.746266060748688 28.273627129850155 2.988331649838871 9.64216056877082 0.915098561924005 
7.186022010628209 6.6248754894721245 39.558496873869004 2.9886004394089922 12.134172063690677 0.8812670455920503 
11.583831393021685 10.50188745367608 30.60656063062258 2.9886201818019615 1.5735948724482967 0.7861633909429812 
6.069075957815054 8.414617424386911 6.313281479566136 2.9888105495144983 9.978816543019462 0.8445409837597366 
6.43425363566061 10.532963380353234 38.398478114897294 2.9888176812286207 7.7799926757120375 0.8142607699407446 
6.1412409317807235 8.127722067158096 11.622747531075142 2.988874738467452 10.274987181287095 0.838904795224959 
7.794115204350453 11.735315277154784 38.17957213453303 2.989332334454487 5.936878450291083 0.8017132271389175 
11.932624179496267 9.579881985134222 11.607123876722667 2.989405910017799 0.5835815969802383 0.735571887838834 
11.59755123990593 7.5203291346945065 25.994743616426867 2.9894311019942825 17.23523027078234 0.94943622207075 
11.204703059675323 11.019153666275486 29.77530607729807 2.989598151821659 2.2167795099405936 0.863080653811693 
11.348093672806625 7.149514089994263 19.03395696371649 2.9896223840820215 16.788986767191417 0.8446068625016028 
7.630241751418319 6.342578278475488 28.24484417095487 2.98967019344741 12.66562061507484 0.8548295183867322 
6.058123494015328 8.467095269383655 19.66313087278879 2.989753305605309 9.928354677826462 0.8200639489454559 
9.0718982507916 6.011094702342879 34.93537180667195 2.989769930417673 14.160864056500813 0.9254292495320353 
10.479100508180023 6.401661143625239 37.951404648363734 2.98983329398903 15.636499593429399 0.8646179023848576 
8.340096866140486 11.91650920333065 10.479211870861242 2.990233783367111 5.36242876445133 0.880182442547265 
6.014211627076056 8.83571283739819 8.476838968321289 2.9903047469586705 9.558689347414578 0.8741126195015405 
7.225187834149326 6.593108744290138 7.436773354491315 2.990498911697537 12.192290039484114 0.8821491077223766 
7.371313608653944 6.491904053809662 10.845813734019252 2.990512437133852 12.370121953931715 0.8842260799456203 
6.236152008971336 7.857300496728477 17.65853690432381 2.9907554016151443 10.568239945198295 0.9031035077862483 
6.06294411858571 9.566306549989775 18.866717210793887 2.991153683633057 8.827240936098857 0.8682307750507676 
8.417892212721442 6.065913314573873 15.991169642442905 2.991272998842668 13.510196004164225 0.8645348079822945 
11.481606205240396 7.329840942529049 3.7599853965477337 2.9912874544483175 17.02281964384656 0.8857388460643966 
9.160532068384127 6.012937713255136 16.737012210138957 2.991372870418053 14.257121772815633 0.886701473619092 
11.720719844831903 7.7565611649398924 38.27947051845274 2.9913971001185673 17.513146907512322 0.7946104736264072 
7.239250006518182 6.581539788903184 12.055365154456673 2.991519736221823 12.214635931590891 0.8922337516486203 
9.31520700703822 11.974926140448668 6.591343347153412 2.9915783456915865 4.383367112375716 0.8170394864920707 
9.039942173031223 6.008440348854849 20.839376045381776 2.9918262856566646 14.138592579389204 0.9169594839951262 
11.885327420835486 8.208691804781607 26.98819290642937 2.991869479981528 17.99763332399226 0.8025232382928472 
7.789805831181356 11.736307883512138 33.703674202008784 2.9919810760787464 5.945681681899327 0.7057728028235256 
6.3707466787264355 7.5720528623189995 1.3062418076706024 2.991990316735573 10.88822026717483 0.8045926826367483 
6.7801113350011075 11.006150967715733 36.49721949831509 2.9920807793669835 7.201123964448094 0.8278580535362103 
8.81239197892255 11.986357228187716 15.672018815440119 2.9922443523084152 4.887937592622393 0.8024354123518417 
6.0439293191023875 8.535995540820124 2.9676063063545044 2.9922656981961464 9.866364389202221 0.8667286834377762 
8.504262533640317 11.950993518524026 28.22420774297529 2.992343292793047 5.198395469711006 0.8479892514135948 
7.0206210576766654 6.75568420031418 5.188524320809776 2.992472958279229 11.938875060713215 0.9292756574421178 
6.029963951842062 9.367010323973282 38.98532456712563 2.992626055032702 9.03367544201754 0.9148270608963879 
8.363399088322373 6.075678134140281 22.963609948301702 2.992811236261661 13.461788760838477 0.8653298568674482 
9.515380270275584 11.948186238185148 33.35978021090321 2.992894738879673 4.183266072073348 0.8444623077060358 
8.165577804678241 6.125567904219686 34.34942868990194 2.993095433376219 13.25900276551829 0.8186327710023015 
11.373597496876114 7.176602301335507 31.446352907298376 2.9931161428637405 16.845669386082122 0.8405986303133257 
11.775142015714748 10.121655323960974 5.202344788701765 2.9932463769551805 1.1497183112420686 0.7651220698089692 
11.17019696480486 11.061538517274085 34.56439460635998 2.9932751166995772 2.2740712143632713 0.8379638566966979 
8.539784002553512 6.0422555796899875 14.894649980217551 2.9933343983224954 13.643707366814038 0.8866491641697918 
11.71974551399324 7.749784357174226 21.171585877604734 2.9933350655168227 17.517924120398916 0.7874287555092422 
11.949936439335682 8.491982412417116 13.557805602507173 2.9933604636618694 18.297349986232646 0.767042881230275 
9.38926598038458 6.031992446234039 15.532805842106157 2.9934256033341753 14.49655735336875 0.8667484505633019 
6.3673810994304905 10.424836148502159 22.125625877152444 2.993466272686945 7.919251921612254 0.8465854405493317 
11.904046499077927 9.726633268491398 29.802972758064378 2.9935734458478334 0.7339647037345394 0.7496593697400298 
8.516908981211971 11.954407219859263 23.867992132087394 2.9936430904819287 5.187616243462571 0.8214592626298546 
10.192146173378218 11.746092863743804 16.99992881689427 2.9936998037553813 3.4763518873179393 0.8075565516916746 
8.322080619847572 6.083856314862043 33.260081530121035 2.9939052554074315 13.424595823777423 0.8477810819765049 
9.125938478472237 11.991447450135873 38.340263687962235 2.994097250806044 4.577141319807495 0.8305730612831461 
9.731341402702123 11.903630201244333 30.13811772124013 2.9943160475949253 3.9646454926387023 0.8697864289031886 
6.172271918034051 8.01502919772981 29.082118720799755 2.994363636378123 10.410729386625675 0.8462339133270794 
11.737357716332296 10.214144815697274 25.774364723148153 2.9945408497211257 1.250143129392269 0.7743184489199088 
10.312416931389938 6.308324339834076 15.223152895075387 2.994587794894088 15.470202939501236 0.9100232890199275 
6.136740752197051 8.122529938849617 13.334865044160622 2.9946965169019024 10.29865372613208 0.8380638500162878 
6.032725808174016 9.404512317518048 0.1211420771067182 2.994719743899315 9.00243694391417 0.8812027975843485 
6.99563478600807 6.774775755636121 21.62878377829547 2.994846047590046 11.916974710306238 0.9342340749044934 
6.016496650020217 9.26147142533074 32.024750486212625 2.9949389886281614 9.1470735962233 0.9095788018012839 
6.21180737145845 10.093460226657612 31.34324404301497 2.9949413017846536 8.289547894914087 0.927196357251278 
9.00434923448198 11.994956731216288 26.204751497265512 2.9949598891635154 4.700122756785479 0.8080030071917813 
11.074037638884098 11.160784021424654 7.5874744859861 2.9950992829540746 2.413688719981428 0.7972834553742033 
11.988125879885278 8.795553212020902 2.212931856721383 2.9951118114613284 18.61423663712209 0.9088800049401979 
8.054151464624026 11.841874333452651 21.52627229939391 2.9951425974417067 5.667078917692976 0.808823891368142 
11.875477769673877 9.838247982398464 1.9691335343039391 2.995168122807755 0.8495953569339108 0.764818696943771 
7.480310437456181 11.581175166404897 16.540021424236357 2.995316612007818 6.298878934245387 0.7945310292334203 
7.261964498583824 6.560470662118469 16.21276529988637 2.995341515514997 12.261005279990826 0.8849049606813383 
11.638696554526435 10.418044628566278 28.82506155854159 2.995591773836241 1.4771884455253854 0.7357062976800793 
7.199184465109576 6.606090800091607 33.902350004227166 2.9956197769591406 12.184534068917309 0.8594430859468738 
6.364950086018128 7.575075886766939 31.063796164930558 2.99564630382976 10.896101863162997 0.8182718440266712 
8.179346030392159 6.118926138592347 20.121346078999245 2.995673468974801 13.285497155639472 0.8545260320178865 
11.620347007197806 10.45239937343348 33.77304417431328 2.995944321592184 1.5163113630967686 0.7322403923186054 
6.289512190898332 7.723507166296136 16.423772111139932 2.9960270555831268 10.730953779139284 0.83766991081025 
6.173777102423955 9.994305228313866 14.134476708715518 2.996027161731918 8.39877065166236 0.835356496863145 
8.689816752694488 11.979960964733703 34.09071329832083 2.9960609136407084 5.016941533476494 0.7326919610480539 
11.626990651091301 7.559189283590442 7.0004466490988975 2.9961667846503066 17.322403772652542 0.8900835817984527 
6.640838480526856 10.847008805215285 13.369911427834623 2.996178332727481 7.422613177971321 0.7761011077660945 
11.017562520291596 11.21513789633341 28.508064892166892 2.996230035070369 2.4929911279161665 0.7836498591092039 
10.988434896681701 6.758558838883708 25.52451033593251 2.9963197120948064 16.294119078597102 0.8195159405371345 
9.670726166857532 11.920350087552201 3.579630229092615 2.9963841917840797 4.030251608027054 0.8737538678642561 
8.185554544500862 11.883589982984219 19.787550167557853 2.9963999382509203 5.531556800791456 0.837233042018094 
9.537559925776407 6.052183250586507 28.06227471605625 2.9964302531384686 14.660830918258398 0.8471096573021467 
11.77947199387266 7.880350487873676 8.656487545605984 2.9965112372102287 17.680145246115444 0.7762309635543982 
7.717007872557939 6.291987262281976 21.118142497211515 2.9965649979136746 12.795151504447864 0.8702725891002033 
11.37027068108438 7.166351127371234 37.52392670251774 2.9967401104701987 16.85590949418038 0.792582388420889 
11.989367483941745 9.21032103776116 4.171471071767613 2.9967570627218234 0.21049408242532053 0.6593705077833659 
9.695991143953837 6.085152188358265 29.293165146912543 2.9967885206491935 14.824438005646073 0.8300541128928055 
9.439547687083692 6.0355585440159665 39.707978051674246 2.9968508997241337 14.563466225072823 0.8373972007477526 
7.331722257249137 6.510321128744444 17.884411900657454 2.996940357920767 12.353474349386367 0.884247411472876 
7.364051897415859 11.511234316145542 30.892369658212033 2.9971025983332016 6.438350219563953 0.833496651132621 
10.887065912500848 6.671485928272892 10.049919022840307 2.9971645834611422 16.16505484026504 0.8471481333153575 
6.160382675853345 8.04092560999024 5.321739801057195 2.997207072120043 10.39224879999064 0.8533430523933556 
6.677546016167714 7.105299781220603 11.379962678033728 2.997279003706721 11.467303798073047 0.8862351331392926 
9.639983900844099 6.071691424892961 7.230806385773818 2.9974273142788697 14.769992377911016 0.8171244991813901 
6.117425698102444 8.177970560534572 9.322118882737158 2.9974934537556606 10.249601747736023 0.8383581691586974 
9.172582601812254 6.00731210254987 5.28953599598205 2.9976600217490916 14.298818137704238 0.8757497199431494 
10.16025246923886 6.235960410858969 0.5772182544888409 2.997682545352958 15.317614780804629 0.8368819025545527 
6.323289202566134 10.349764850041861 8.697012165061498 2.9977734810201326 8.017667695088917 0.8444437407490735 
7.640537318432328 6.3281863159985825 15.270296871464083 2.9977870412343166 12.715752667819892 0.8710065688392223 
11.773003633630617 7.860963541559627 32.2156012856553 2.9978247456756075 17.66749546140447 0.7496201186546757 
7.954778206628337 11.809714057410819 34.92385827501627 2.9978294951099254 5.776628039950154 0.7594759644850209 
6.156315441058965 8.050847910079389 33.767997206784 2.9979045282597525 10.383965005858578 0.8586698636985557 
10.402017277806596 6.349950112064834 13.512481009529083 2.998068854415021 15.586984181673444 0.8057848092985431 
11.740706260439525 7.784584621136375 12.789642474966513 2.9981169672297017 17.58628464629669 0.8192417648100894 
11.91667349772424 8.305821391101725 14.74595433393138 2.9981441315218493 18.137359598664325 0.82471282119429 
6.017899880205205 9.310527222439566 26.09769191474031 2.998224187807871 9.108114000946443 0.893523805167679 
6.77093223203595 11.00517344433246 8.017725006635555 2.9982434284147668 7.222835502996286 0.836493771710289 
8.789127688210973 6.0091657994288 13.75768722806366 2.99825888595125 13.91791558680254 0.89802702099912 
6.0856420433418155 9.70460560685817 3.54506805658135 2.998324759053437 8.70825746211321 0.894831286476196 
10.147757749944814 6.23004713332589 24.73151191141764 2.998330658242101 15.307116872518279 0.8195190326404086 
6.00159898231046 8.985639095491692 25.07429074691899 2.9984354084188585 9.434223610765166 0.9538719936260764 
9.500985850049831 6.043577568130271 14.476294475168395 2.9985697286560926 14.633773325610843 0.8425305512018506 
11.963641123058027 9.45650428074686 3.0004555698802804 2.9985938145438853 0.4582863185586099 0.8125174008854229 
11.920772093773621 9.67912665084839 13.319959100608578 2.998686817868663 0.685070375407463 0.7022189995250478 
11.983787879824046 9.298865145793052 19.713592760008325 2.998718140665239 0.29936214039235054 0.7660561138712573 
10.808701390756198 11.391947125022552 0.8062150269340123 2.9988017223262786 2.7689816288610913 0.805593477446211 
10.959957713933058 11.269688616329768 10.841815371145714 2.998819877135443 2.5744756099025174 0.8222751286342066 
11.445418680435797 10.73577197794185 10.081719437097917 2.9988292518968946 1.8511073090385484 0.8119708643701781 
11.998495546265207 9.04579319194102 23.802193742006065 2.99884520397443 0.04579497181386216 0.833728132105736 
9.857414897491669 11.873740589238244 4.78543387929281 2.9989240204906875 3.8411508113535255 0.8583475943052364 
7.25131952747401 6.563647046216156 4.04911107039257 2.998949667867898 12.265261930806652 0.8865216641470932 
