431

9.937606289527997 7.664032659636693 5.322962231913067 1.9665177820221296 12.018372100582472 0.8480787087371072 
9.007429181886902 6.3103536582955435 4.102938703883929 1.9671853793053058 10.327795562098403 0.7943789580791819 
7.704153162247422 9.9455757404101 9.334234252882013 1.9679406274276923 3.388206594707139 0.8953700883552596 
9.96852361110956 7.995468990189291 29.019913614368235 1.9685288256832127 12.364100380480696 0.8723975928376818 
9.938341465923507 7.655859619790643 5.3252209868032025 1.9686544236633108 12.023502882566927 0.8311512736429696 
9.818310503159097 7.2448300877338525 30.958786133397503 1.9688917396065084 11.595880950286915 0.8704274475459118 
9.227175311771 9.539716471003256 13.382621071975635 1.9689301808085944 1.7678608217415004 0.762811178283804 
8.970611370089188 6.286719659551071 4.055205261771995 1.9691155265030054 10.29419854210293 0.8131265277437273 
6.033110549131191 8.09383102956506 19.21331592389265 1.9691262971298318 6.09232613394342 0.841062635488215 
9.042316348769912 9.67087191966105 31.639065943709127 1.9693238288369044 1.9950215446393749 0.9227488297279691 
6.298550695504437 7.008348069348424 28.97342760101902 1.9693408255894738 7.226082249104003 0.8976155775167525 
9.792049085396872 7.18311945440956 19.236700474001232 1.9694501136702869 11.532092975274226 0.8841397074564089 
6.418883351543659 9.17438265489789 0.14080643279087468 1.9695442305647333 4.929265687696159 0.8853970402816981 
9.528321650137066 9.242920159148877 36.293591275600605 1.9699283205985816 1.3450140802858108 0.8795746657955552 
6.030372569472306 8.035948882829356 16.71653726079031 1.9699554658072354 6.15284674092451 0.8447315006001246 
7.554819453096469 6.0808774635550975 22.417779792778575 1.9700804626288837 8.834726424020765 0.8490619513947667 
6.378044619920109 6.881148320239159 34.35868011932382 1.970423390105222 7.3801249413107755 0.9356726112034364 
8.616686391539098 9.872327371703395 6.155177117166815 1.9712716434675512 2.46925034971607 0.834475752527509 
9.631745607240731 9.10630052975391 30.975292817654065 1.9714194350475458 1.17456798902818 0.9466409121608291 
8.281118635665415 6.048456685608777 6.011473727842784 1.971686840059409 9.573435242354227 0.8944576594934104 
7.858559403960058 9.96671800091794 1.5591037066646933 1.9717974382128547 3.2388543468609132 0.9049438669082802 
7.663665935925907 6.056169970778225 30.330665020460685 1.9727127984480954 8.9582048767472 0.8298825180052856 
8.475774096529754 9.914645895715257 14.056169403680855 1.9728735126479775 2.618471719721441 0.8673437003100044 
6.027655272667506 7.945099948403723 12.70978631333373 1.973108648580096 6.253610772958044 0.8355540845484112 
9.938807557745033 8.368815377295867 38.323639066976284 1.973575316145584 0.3709965169173959 0.8769593691769161 
8.70921826622638 9.84183300637535 2.1531483831920823 1.9736614128372711 2.374777034239793 0.8917114964575381 
6.180420502718981 8.766066922485194 27.636046182960385 1.9742664654629014 5.415617709510133 0.8929299903306844 
6.243818682730343 8.902638888237746 13.385968541232458 1.9745707841670466 5.265834990097959 0.8778184297412341 
9.972613752869524 7.904216268552652 10.761590385968447 1.9749378575590517 12.313079207335482 0.8661737078379035 
6.782026397662875 6.444967086022249 23.05339979319556 1.9752435443621115 7.99568234482491 0.8461776577167994 
6.062196204300692 7.616271973828223 37.461133529749134 1.9754317879127925 6.592185150144029 0.9468056196905 
8.350481753712087 9.944118986283389 29.581460076297503 1.9754584512240758 2.7506958891213866 0.9468558839934978 
7.19945841337397 9.80613469417355 36.99962477755661 1.975598482843899 3.927509563570096 0.93242473529757 
6.20097074106031 7.183283662922552 9.370825195446166 1.9757357742801294 7.048927764978739 0.8353162283977384 
6.250543841026849 7.08186088006633 13.371184709228245 1.975747022197342 7.1618732278380115 0.8559324789817051 
7.553428812778105 9.924626837183173 23.772850829493336 1.9757566367502013 3.5539749893536694 0.876382550560264 
9.758248563804628 8.901291246347714 21.843188392544548 1.9757945042093963 0.9358994662611995 0.8798459800234023 
9.310638941134613 9.478868097692946 15.99521644465301 1.9760630770277567 1.6710242528223755 0.8027412659755653 
7.348564013484298 9.8656537584332 31.659000169106243 1.9761155813574318 3.7679272408438216 0.9384000651987412 
6.104139276920584 8.558647270146267 33.05616778382133 1.976455072536962 5.642850045507162 0.9693948065032868 
9.79639284159652 7.175686538436182 23.276365292451167 1.976491822460835 11.56836391678242 0.8653458015852729 
7.160634609657983 9.789531702958207 37.00090544732613 1.976602634420108 3.9717303725580972 0.9416916925170599 
7.638055240577 9.943199859418815 18.599402115711214 1.976620778631826 3.468867249057544 0.9086590508719845 
9.179631301762923 6.413458879865843 10.704228977208217 1.9770287640738646 10.580529109172758 0.8812513364389468 
8.606218269728718 9.881927541018573 8.72406783751562 1.9771575203299008 2.489569178306226 0.8956985395718149 
6.298517893637021 9.00748919274044 9.321826436260771 1.9773911681208094 5.155027350946288 0.9142247218104187 
9.4214828853743 9.374612073401439 1.548364547827049 1.9774154712030125 1.5199142584475744 0.8564157183023465 
6.1973808001347415 7.186502381186029 9.363940028735563 1.977679032487038 7.051445990246579 0.8507944912748623 
6.228080209230507 8.878607677493406 23.8950791554484 1.977789472080118 5.302987551709993 0.9133490934533374 
7.614534597631444 9.940382097629922 19.966690037120387 1.9782988301128401 3.495451627081172 0.8765586165088125 
9.305429983887032 9.486592333057043 14.729356444878078 1.9784095146190739 1.682030004871132 0.8361227804058355 
6.2042794277558535 7.169417118555106 11.999239214524067 1.9785045606543699 7.0728002806349135 0.9237457918240104 
6.160090225555296 8.727911077654353 31.671833158124088 1.978666852976793 5.470746778190968 0.9441257394498959 
6.761288317877133 6.456771151521355 21.768440551765877 1.9788789528933786 7.986792822907471 0.8912647422706366 
9.932725063384888 8.4250418519124 33.016956520448986 1.9789104948211402 0.42837969142231636 0.9200369260239756 
6.226173034653614 7.122249568322957 21.154800044232154 1.979117965988688 7.127000070011194 0.8863219898141091 
6.378686859595632 6.8647551463308005 34.357947070635774 1.9792516709681658 7.427049681928125 0.9680587022741236 
7.8278402332267145 9.971865772219903 8.069146383372406 1.9793669717735087 3.2815599433601985 0.9311280941731804 
9.906168522797026 8.533341388529845 39.67100299301521 1.9793765366956204 0.5400155117497238 0.8224346283350022 
9.89879546705082 7.440920193198059 32.37327315369433 1.9793924461981856 11.870095729805431 0.9471235381915589 
6.3098053017923075 6.969711209038717 27.742389389737127 1.979457781977141 7.302255076344437 0.9491366872141871 
8.743327893326628 9.834696420442839 7.311998071535669 1.9795573525874832 2.3474737147360116 0.9261215439587173 
9.78298611151791 7.139992499970354 25.639027297790555 1.9795586311026503 11.548278566618599 0.8594948695463843 
9.33407045024074 9.462821701539916 18.754389809489112 1.979795771462723 1.6460009623903282 0.8312911307467973 
9.803697202374474 8.816360050898336 12.67634417569326 1.9798402285427603 0.841465883023913 0.8641883439050517 
8.759130084868561 9.828563747329401 2.1490444316745183 1.9798797599349027 2.3309071938348644 0.9436563968640852 
6.045320781647419 7.684847095440105 33.705881591006225 1.9799222711793492 6.536608383446072 0.9579139707369893 
9.779856473417107 7.132442107429242 10.122719222042093 1.9800368084777131 11.542907835332024 0.9007954432735065 
8.952769314123858 6.26425354048377 2.9014640146318484 1.980046751382192 10.324746424561546 0.8122342512474294 
6.232707489278107 7.107054830263561 21.17584787290982 1.980069164097385 7.146942299440354 0.8798658999384423 
9.9800348166226 8.027760642998993 14.78354244158237 1.980229413057337 0.0277615523775534 0.8077405090995711 
6.020707235090992 8.065747890359056 15.45698264672496 1.9803844662862342 6.155801316209869 0.9249682873403585 
8.482527575316254 9.920862319248165 28.238676217131115 1.9805415699873665 2.623594031539829 0.8849190906202541 
6.779632900052681 6.439859594298124 10.169966829662854 1.9807407564185284 8.01919984180319 0.8540796272030734 
6.702701805954973 9.496886730574886 27.094052566859574 1.9808211651846939 4.52594982993903 0.9223610748485247 
9.795565257161245 8.836540344825108 15.383828204975849 1.9808721163277128 0.863642873120412 0.8544162777281027 
9.230181624106903 9.55265124198573 27.62889971603761 1.9809272342845194 1.7843436303760178 0.8637719566726194 
8.051557234794295 6.019674744435047 36.94509520905035 1.9809962812403341 9.386788102834874 0.933984832232113 
6.059169940696604 7.602726197415006 34.990261803589206 1.9810723846735023 6.623708296229257 0.9614560967370428 
7.137850220094213 6.216221578049408 35.02969621644806 1.981203599231575 8.444222252189238 0.9705507777897167 
9.040198678395356 9.686269219584883 31.629931646591302 1.9812917936171963 2.017091883004765 0.92377314004473 
7.233806093183723 9.827220505467832 35.708186411666816 1.981360108219737 3.8990153560128675 0.9410538661956745 
6.019402455964396 7.9410681767766995 10.053723843105423 1.9814740955228964 6.283924976492031 0.8062711247215611 
8.925890057960602 9.75194729479621 35.65660025610835 1.981562949586526 2.1492345056716644 0.9702869930991971 
6.065002086208814 7.572073361570347 36.265806245676515 1.9817512796145602 6.6571791880514795 0.9779399170638384 
9.78296246848461 8.865415516126369 16.676185651581697 1.9818928274699976 0.8955854459923476 0.905013937785613 
9.082372163265187 6.339696976806167 9.346819454309436 1.981952478905064 10.484741543921274 0.9013145147583543 
9.909101270687525 7.466983904678376 33.66777991188487 1.9821134729405994 11.914327533563432 0.9837664962096782 
7.596960372203252 9.94074336524762 13.33834720979413 1.982151798255421 3.5194266423109966 0.8916333318646121 
9.577896440639694 9.199682656302134 34.98441082597268 1.9821694310062237 1.2885365807021252 0.9508748889924431 
9.754620627100483 8.922533695027063 24.540025322902494 1.9823627224871772 0.9595695658097654 0.9069745482331193 
9.713793122401134 7.003518440025498 11.323663695346497 1.982438489779353 11.411944231741499 0.9493500922219872 
9.982484213466622 8.016555595729672 13.328313360770963 1.9825533396088793 0.016555788148270523 0.8137776689335463 
6.271718057478852 8.971965943258388 1.563305871066376 1.9828454976873129 5.213471622811467 0.941450926528801 
8.914369131158756 9.75944466411016 36.92804775018618 1.9828556261315946 2.1643257631937 0.9744663173300067 
8.994065264173384 6.284268177117243 37.76314125972641 1.9829022763335276 10.385471901712974 0.866052659251867 
9.896147336665196 7.419666372879021 32.361812165487834 1.98296793748913 11.870400599994817 0.9497090917151951 
9.558053570585914 9.226856644484974 37.5152439839843 1.9831056842570007 1.3227881842719853 0.8832452587630701 
6.852655827586803 6.382479482567906 29.655372670359107 1.9831215984614554 8.121742574847678 0.9405956126275736 
7.46632170851907 9.90998240758752 25.239050520845666 1.9831402663684206 3.655448576534532 0.9286072439469918 
6.5761173532951975 6.619569608472677 3.3438675375992766 1.9831867933806298 7.75722971237516 0.9730726976452001 
6.023936975251422 8.168737487945117 14.055123189354767 1.9832542493630336 6.0616352499844375 0.9377619451327212 
7.883240871905098 9.979917467789424 5.307223726351566 1.9833572228045993 3.2322769140754772 0.9297598896789849 
6.159599523263335 7.260606070148002 25.216399024929444 1.9833752288143855 6.988646423504548 0.9395614173403537 
7.116688860076552 9.775826547072986 38.300033451571565 1.9833805724575428 4.030960301616188 0.9402930450797201 
9.915593388816164 8.515053128365802 3.2821733705498914 1.9836274237657674 0.5210235122770808 0.9238055417823102 
9.789191728853082 7.1434490131151165 17.974683179236564 1.9836548680982136 11.577984327183488 0.8649345792044231 
8.608929753229122 9.88793603070178 18.092630101227634 1.9837081187487424 2.497078852411409 0.8951007365121229 
9.732644357195218 8.966450668087408 29.711968560022335 1.983956492054962 1.0094447707432739 0.9685310681381699 
7.462279306487286 9.909831904075457 30.216403707634882 1.9840870560679245 3.6611275411462003 0.9031396168805569 
6.403569821905288 9.178168957060777 0.1344801562962772 1.984104685976322 4.9717982335570365 0.9627715674821473 
6.45845723836158 9.249130272708879 36.32154501086276 1.984106984050401 4.882084888066954 0.9209145731433902 
7.653711419783429 6.046143493666296 30.33712572383699 1.9843061830602033 9.002751771087388 0.8833536655488213 
8.035774137566767 9.984189787072392 36.34499148049633 1.9845122574680703 3.0814884891289793 0.9648792006454985 
9.827376833922298 8.773954896622516 10.05569370171363 1.9845181468461972 0.7950528677775495 0.9187869766194022 
9.975501595401964 7.810907674838539 9.33050528051075 1.9845307911117538 12.279795083562053 0.9149692322842845 
6.861818471360982 9.625707416784365 13.941186326713286 1.9845356628498136 4.329461439285069 0.8918421843418431 
9.96697309738772 7.736245604656052 8.113145564361687 1.9845779266408985 12.204933790625038 0.9432421891419775 
6.737427070446186 9.531166453953622 25.810392444212706 1.9845808404182 4.485843034664321 0.863603747014944 
9.698429240853716 6.973240333494173 8.74133780944539 1.9846655383086824 11.390864864237397 0.9512776654904576 
9.709998142922668 9.007638026819262 29.690111830782715 1.9847992447326261 1.0568797442100824 0.9811205583481573 
9.914779409811072 8.523108832684596 2.0355207634288135 1.9849491275770965 0.5293614580754564 0.8517363617106968 
9.925661791684266 7.518041293422957 34.97457025340054 1.9850585711253161 11.98566681468576 0.9418976193879872 
6.110708783873971 7.390683862469848 2.743391812832293 1.985116483933785 6.8557410852354295 0.9744158462707858 
6.01484814949109 7.997954037066885 24.52693956516847 1.9851529048270493 6.2385877453524206 0.8828082347919303 
6.718373553972471 9.516064613423742 30.811506574049517 1.9851998033530138 4.511550758624823 0.8992292064662459 
7.592999541253196 6.056606386520057 26.426674437766735 1.9855548620813124 8.946800952930797 0.879338804146592 
9.803796471241139 8.830075810457238 14.069577964619704 1.9856252317011485 0.85637924929501 0.8786704494728684 
8.575892134286182 9.900345156490022 15.319065101189942 1.985689669643217 2.5348268249758217 0.9287278303477988 
6.014342375486164 8.011622664876391 18.059678379697736 1.9856916397388502 6.226611536455346 0.8831555448069246 
9.853750061512304 8.712042842819438 7.337491606325667 1.9857981520203032 0.7282576890614845 0.927982688089813 
9.985449337409303 8.043497680170267 14.786822511498222 1.9859257588337018 0.043501158852762956 0.8695405869930098 
8.809953508086485 6.186688653510442 0.008414837307007872 1.9859815519207051 10.192992766543574 0.9175804596383768 
6.284738173511638 9.001049854209548 14.57918765931791 1.9860070352395904 5.190050534919656 0.9404991955537341 
8.112334757431395 6.016993351105647 38.226649762847416 1.9861859095478402 9.47207532655339 0.9509988919783318 
8.268039305688003 9.96818554737167 30.971277940014296 1.9863532964395911 2.85129696684983 0.9688747216903512 
8.867089773820792 6.212880382668079 38.866854348559926 1.9863638142387676 10.257815702813344 0.8772140448722306 
9.20712764974761 9.577556524373202 22.451391336261572 1.986414294747606 1.8228239738258427 0.9301054463688047 
9.287799108431729 9.512472646699706 28.915731620929733 1.9864541400929407 1.719195461804496 0.8507578430153042 
8.491399860513939 6.07527549305712 29.70735578126223 1.9864637551537745 9.85754481389562 0.8888190081159021 
6.233584984584567 8.908955277323205 22.618900254265135 1.9865602691231925 5.29686920737185 0.9021851567076108 
7.537249412775699 6.068021108611832 13.367841761670206 1.9866254158109156 8.894710895385739 0.9175535137489464 
7.510329984764306 6.074491185787096 10.812884624692337 1.9867966472270142 8.86779060906981 0.8807261456698371 
6.444443256223373 6.763905658606081 0.8570245641542868 1.9868784572628 7.576069918238645 0.9532415410110064 
6.026290825131461 8.230140325910458 3.516345833882305 1.9870813965639194 6.011942348758069 0.9733226998684023 
9.038185716802898 6.305671899239119 5.318904550126362 1.9871027390654776 10.456382679084639 0.8947718877556776 
6.97702074396202 9.703609844361253 2.3229025422096825 1.9871519972283416 4.196004188722409 0.83260990391767 
6.700047750280733 6.496892891230104 12.61858379440698 1.987261138347142 7.947733820047029 0.9405096825597449 
9.187001700505434 6.406168716318737 16.155270999737056 1.9872773328964075 10.636941549225389 0.9261134978639546 
6.684238589749828 6.510641954064477 12.594224243179006 1.9873136334500416 7.926991935570829 0.9371623517538054 
9.328276080743864 9.478611101010465 10.720467926065254 1.9876136784364418 1.6674217883063083 0.8880121879446575 
7.5075424506996296 6.074301838764814 18.70464379431337 1.9876689477997842 8.869029122035084 0.8871576061127956 
9.558852089762645 9.233290321725033 33.740914355678555 1.9877185050751005 1.3304257691815238 0.9140654758035968 
6.8535089731949785 9.623805015865592 20.57561225153806 1.987758638289542 4.34439081549537 0.9325381078316168 
6.012256317813694 7.985418257178999 11.445343098822164 1.9877971660346208 6.259430847242603 0.9174140565272622 
9.316995163108064 9.488963860876808 20.003529923516673 1.9878354153820676 1.6829184834541433 0.8971905813030419 
6.771796650524806 6.4368716071003576 10.194121978140096 1.9879270208815778 8.043962737024088 0.8588564945620595 
6.143196022989288 8.710038893072955 21.390185583276903 1.9879326544727471 5.519199872441035 0.9479766177253177 
8.442842066845857 9.93798760052288 12.801150558415742 1.9879398974689233 2.676059738202529 0.9197040145222112 
9.842986419532767 8.745258115055066 11.372062409054855 1.987965945542743 0.7639205531192701 0.9105767811117621 
6.4470984656417905 6.758706355597525 39.627552293019455 1.9880425264681973 7.586231076064957 0.9711503236457584 
6.217564051614717 8.880495345459739 17.38791091601449 1.988051801003286 5.333484116780133 0.9029413952808998 
6.885700263337203 6.353548830001229 28.321000805053323 1.9880808228834916 8.185746712718986 0.980471550551792 
6.872616597660574 6.362471354705452 27.056138121815877 1.9880878753291114 8.169939213017098 0.9764500260303072 
7.607330239324675 9.94895206064086 21.19257169302834 1.9881156092202144 3.5181933244280117 0.9014226949674735 
8.566395487969183 9.905768075774972 15.335079537779677 1.9881538691547191 2.5486337875109033 0.9321518126779639 
9.166342686624787 6.389640580271774 14.73503055941692 1.9883693629078496 10.616344727179062 0.9342942572940105 
9.985086584445881 8.114777036097824 23.90929082533281 1.9884020005427474 0.11484087087765538 0.9847850845410575 
6.014919952474713 8.116487471845616 23.257240328937776 1.988494939943267 6.130486895051552 0.9360529439422764 
7.882929572562702 9.985049974261656 1.5348096771039117 1.9884991539592254 3.2406653300394037 0.9118372808605345 
6.735633125060524 9.534975210204859 21.95284769826373 1.9886609792490195 4.49402655553018 0.8757701769233427 
6.128099993859093 7.3285775612024295 4.0611868336062 1.9886723521764962 6.9324792266854445 0.9709727544455431 
6.5861500862510844 6.601448147508046 6.130916386041029 1.9886977806384991 7.798780506133035 0.9722850523059565 
9.282103958753304 9.520305892505162 10.702761588553713 1.9887484928559471 1.7305956322496954 0.8758617374822553 
9.98895228567037 8.00421347516968 19.88417549535794 1.9889567486615662 0.00421347832119956 0.8490766614218512 
9.97360883767329 7.752881089928454 8.132790646268987 1.9890197585386293 12.249620602292465 0.9215406942680177 
8.459154525378786 9.935341120493359 14.041572893025219 1.989062123426091 2.661078124796811 0.9363610975397446 
6.01479758824383 7.8755950510088475 30.964528037291373 1.9890965806053769 6.373417402440516 0.9778520447483454 
9.171352399432392 6.392355159891068 8.103466069271747 1.9891174866218662 10.625988771693251 0.9089219233391822 
9.40214870227765 9.410964192420238 17.471517757903655 1.9891809710508974 1.5685325843900966 0.906753464295187 
6.211651302005089 8.871074861989477 12.209677861408586 1.9892115223902365 5.347660319794695 0.9243074870129956 
7.629209220963345 6.045641321746704 28.96300409627647 1.989221869245003 9.001014971221775 0.8816568313393163 
8.469305853944427 9.933069798257996 20.5714886326556 1.9892226696586104 2.650891394348447 0.9008394773251691 
8.978523698198012 6.268071835810943 37.773622748184614 1.9892420149007475 10.397108864134157 0.8837161849828171 
9.292920539572314 9.511997288095888 9.375323028713694 1.9894168293390109 1.717551952821795 0.8551162272718653 
6.999187340476224 6.28049051536793 32.33011087875931 1.989557450088512 8.326864299245354 0.9934618947557345 
9.265745473719496 6.4649301431505375 27.799117209188733 1.9896107834572148 10.747723483184117 0.8709828287251751 
6.054029011489664 8.414445803784284 39.52055327220332 1.9896151417795085 5.833057241902701 0.9629106778119689 
7.650996922417825 9.958910724305994 19.983024836705198 1.9897573656008578 3.47632139556141 0.9240186249300754 
8.876599101654918 6.213619719385619 33.72992386238393 1.9898694660680938 10.28479755082015 0.8425652119022801 
6.204500766752965 8.858254144024473 25.011244176991205 1.9900798155666692 5.364652060484563 0.9308719335065815 
9.169063362273478 6.389487337553389 8.102845298082759 1.990090495658688 10.627647793877046 0.8995865780505686 
9.272635460346573 9.530019504862626 25.179700377552436 1.990115750450615 1.7452859014489732 0.8929438353992426 
7.4800319778774504 9.921017070168261 25.20723699787237 1.990144047024709 3.6521841951230734 0.9259132285873386 
6.316768685406288 9.061888474556547 2.9093724127485174 1.990194661540653 5.132290714957655 0.9560691885678426 
6.009809899855183 7.993967692077501 24.536009451940906 1.990199242149716 6.258427635476533 0.8762919095334041 
6.185661948526375 7.181924213886049 22.54029142659097 1.9902438435656735 7.095598514310483 0.8784300424130427 
7.471642952058788 9.918849687074918 30.18895685447778 1.99026261877589 3.661065729130426 0.9164530434481755 
7.581452519104163 6.054007746869914 28.978453226396617 1.9904943715083847 8.958288896274556 0.8673260477189463 
6.929930507912964 9.678420583265314 4.759426179067873 1.990513595086472 4.256447198930752 0.895571779078831 
6.124461929423925 7.333240774222119 6.746809787010108 1.9905303110829897 6.9333383426254755 0.9723108054153967 
9.468678274080121 9.34375560754841 0.3321746990375516 1.9906519046716222 1.4750916703061332 0.9320168528488718 
6.090551616686366 7.437106801038899 1.51446272349353 1.9906887958633102 6.824610981795908 0.9815453539237333 
9.990627437062688 8.020984440646327 17.375490546951312 1.9907380390036236 0.020984829274631522 0.9181250500691919 
9.304158789592906 9.504292840287338 21.176617675261163 1.9909111225296283 1.7052935241889635 0.8505068299354757 
9.331976114959376 6.520218427653129 29.03364157566618 1.9909580288593822 10.841301152962192 0.9284666961624004 
9.542968828036534 9.25860654605173 36.27147346973072 1.9911914127116754 1.3624602645112311 0.9548512227856697 
6.58626412858613 6.597776113359213 8.59000118171608 1.991200879466542 7.811287343270099 0.9558735355471901 
7.851028221311221 9.9856352449072 4.053654870413382 1.991215688132098 3.2769053896550684 0.9360337990428631 
7.629717103055603 9.956511929209164 21.193771208084364 1.9912429165994001 3.500287896768093 0.9141415210092744 
9.958389299333904 7.639720197339141 4.073311006042097 1.9912534203237118 12.149139204767772 0.9607294291521196 
9.330645274381888 9.481578098668553 20.00406639266265 1.9914041550346284 1.6708219456655247 0.8946046433143946 
8.525922880619808 9.920742501167688 15.337994569168849 1.9914433539900966 2.595915447477097 0.9198039593439336 
6.230735440185597 8.914092246857694 19.85990205328384 1.9914471417490853 5.306635440408487 0.8924850031370991 
9.991448738494705 8.002123395223737 25.016763534847243 1.9914498705363959 0.0021233956260857667 0.8292139577403856 
8.220038876983189 6.02072482897559 4.695516252164516 1.9914686314420649 9.605063901570958 0.9344081209144726 
8.867237158965581 6.207180788926214 38.86283999924234 1.9915574341419138 10.28228077300488 0.8525062048294069 
9.542290725000305 9.260061111500214 2.653484447293266 1.991585972318826 1.3642859986642755 0.9358976554194443 
8.895615633450694 6.221153303819346 33.702385680160305 1.9915880425916686 10.314071134976885 0.8577000843280146 
6.7632404509303985 6.438919400219088 20.6538079847275 1.9916191456267853 8.050909534457679 0.8582333844837283 
6.1512332393491125 7.259306782344515 7.971529398129281 1.991623703908048 7.015797567144958 0.9230776772391097 
7.124121411687222 6.211278486551183 0.18809541616608527 1.9916545770136485 8.47855634265382 0.9817069338482047 
9.931115168942272 7.512678513845604 33.657688945953446 1.9916545952013518 12.021614945370727 0.9246507346338714 
9.903801579330382 8.585043637530418 0.9138259226004983 1.9916667671263877 0.5938017265102875 0.9540331539984231 
8.651892751375653 9.882062195730207 6.171558950772095 1.9917636074326035 2.464523941739756 0.9006715394931476 
8.494428989373308 9.929458834433007 14.038467955080307 1.9918010491272187 2.629060874585795 0.9221066941989912 
9.989089562569003 7.895040587929522 27.61593291288213 1.991856863859233 12.410197734947287 0.9280850691621465 
9.370474475444363 9.445453717222144 7.98841505437246 1.9918676503412078 1.6174337870703557 0.9012138873034476 
8.812130817285741 6.181214399063059 0.04546227713875339 1.9918678486688688 10.222959423584769 0.9319418911945231 
6.452604234320425 9.254272433884775 6.534501050865849 1.99189181283681 4.900929889100977 0.9352748252083021 
9.951503344147 7.600876657583557 38.985276649075004 1.991899782789935 12.113631905383919 0.9587204740125855 
6.008028941309389 7.996126980380392 8.68962245230636 1.991974823872522 6.261846494873581 0.9028066382254527 
6.009542383500195 7.921864190564548 29.70198555548245 1.991990644505697 6.336179034741722 0.9498285994227048 
9.757641659742001 8.937606139596742 25.84947431331976 1.9920867142446645 0.9762115281780037 0.8996682125769587 
6.508974359672068 9.32117166772765 34.899571475108274 1.9921475938598476 4.814064958597211 0.9836900042764359 
6.14480410935659 8.725984870507887 27.6516674948477 1.9921861923190172 5.515540522301457 0.9527521468450392 
7.4932614737913905 6.0733208901582 15.987120500168302 1.99220388671563 8.875671334900085 0.9329238790938696 
7.440780136913572 6.08787241901044 5.461377956721218 1.9922245709887705 8.821300171297063 0.9507174925204692 
7.062448283190415 9.75800284071337 5.86427978955868 1.9923797854949432 4.10575998159757 0.9355762638650291 
8.429459307959947 6.054362359043429 10.074807017941943 1.9924711107317166 9.82215501756207 0.9406649669818623 
7.551108790333897 9.941305262934058 17.345400741096768 1.9925284043172296 3.5826341441261924 0.9216173495583536 
6.241438664527351 7.063167093891842 20.00846219905609 1.992534532846644 7.235047737140661 0.9504137985865232 
8.24519316125288 6.022567690470915 8.69783809838534 1.9925757765000351 9.635608339011863 0.953401752499166 
9.222947762906589 6.426754336989793 13.406138838317489 1.9926623263811323 10.706892927967376 0.9438529452212177 
6.216221909974939 7.11182820483841 30.338468875899935 1.9926649021283074 7.18071092411901 0.8948403330396082 
9.946851453410924 7.574765034463084 37.70297062069308 1.992750701307975 12.092291754096765 0.9490024046461233 
8.516816832855806 6.075411089592045 28.39387295189657 1.9927724688956303 9.913512097581117 0.9745662909340441 
9.520006039728953 9.288700888974134 3.893061022794143 1.9927790499840239 1.4013833773650717 0.9461154791733546 
6.05385032109859 8.42865351380215 39.512732324261506 1.992797633374494 5.828528576805461 0.9630456236886403 
6.22845351820928 8.912679809275275 18.603267490249472 1.9928274815958924 5.312615927695891 0.9031915019186425 
8.056138360596465 9.9921201212101 37.520695591254125 1.9929109595916639 3.074311427464888 0.9823207672000908 
6.136344773270666 8.706081674671292 29.057125628758406 1.9929280306679882 5.539212085401649 0.9539486491373095 
8.924823012624111 6.2345648898020976 2.8913302500735085 1.993002441794444 10.353516069136433 0.8358142147615248 
8.046199437799535 6.007501150556795 35.62230163261154 1.9930343833174284 9.438156841689603 0.9293906332531721 
8.015842226045296 6.006998266086651 33.14134688922677 1.9930646972709345 9.407938509485819 0.9309012628450758 
7.721957850435791 9.973579302512277 6.707592930518977 1.9930686642058102 3.409656931023152 0.9392658082727116 
9.783490885715928 8.889712912093419 24.52698517125708 1.9930952825636674 0.9222759112369943 0.9072539007818089 
6.2930457829976145 9.029020760677817 4.153194830558583 1.9931323149375135 5.180324942278176 0.9104919571328968 
6.464890392899548 9.271242558342642 37.56889981406876 1.993143032487548 4.8830884010001085 0.9335215069490103 
6.435945756485216 9.235743655832593 6.53272381615043 1.9933208621762584 4.929330317256833 0.940021499797845 
8.00080808634116 9.99336103204132 16.19283562298061 1.9933611958359114 3.1303563580312375 0.9678331597205168 
7.609567847935818 6.045240325852575 27.66563327995646 1.9933696719470817 9.000560642475472 0.8874281940665124 
8.030344162058165 9.993155525862758 36.36673093274952 1.9933864949999682 3.1008588501464516 0.9631798942605061 
9.09500881555489 6.334242159922166 9.339218165425564 1.9934376057262702 10.553106025108624 0.8985718737526294 
6.218312295912906 7.105806761075375 26.321973014183584 1.9934875528664973 7.189997372394714 0.9084930990045317 
9.21547443698693 6.419904077658348 21.363705583923156 1.993509776943525 10.70134185664224 0.9176672730503939 
6.583649180819187 6.596994361344542 4.867101841287301 1.9936084031457073 7.819445388938922 0.9511700828810543 
8.30217685214892 9.970574547921299 30.89302081143117 1.9936085119425628 2.828206896004655 0.9538355811170358 
9.969504881989463 8.309436492250839 31.59914161757858 1.9936650729038805 0.3106925496472073 0.9650931665734052 
8.75714811461884 6.155671423166421 31.069764298538317 1.9936953545604295 10.171709999594928 0.9380356097046783 
8.84748962862558 6.195392107694101 33.710116086201495 1.9937021632131182 10.270442986385074 0.8667390718291486 
9.993702977890976 8.000108598049769 22.57414778445613 1.9937029808486668 0.00010859804982388255 0.8024347539438411 
6.226596183391699 8.911325528368723 18.596493002184822 1.9938594021187657 5.317421422291561 0.903175523257204 
9.558244611823177 6.756021687434767 39.50376744532312 1.993892753487157 11.18468040595817 0.9768355470101668 
6.759024332269098 6.439262528740496 19.419483045107903 1.9939714296081736 8.056900616337696 0.8775645457136723 
8.706882530815399 9.864573774013778 4.655117316084784 1.9940707788621646 2.409685751307876 0.8901093076725971 
9.621402121438924 6.839172444170057 38.384165518258996 1.994107683597041 11.290320436208667 0.945404184541171 
7.1624716642891375 6.190261142536896 36.33562929448979 1.9941435367922933 8.532841011904932 0.9926982797374674 
9.899609790581415 8.606779150971747 6.04933610457428 1.994166064932098 0.6165552624331241 0.9547816390214117 
6.9040211266868035 6.333998432529716 33.56105914449812 1.9941742435309668 8.236967011831608 0.9861842248512709 
8.785885661991792 9.832797627829924 16.795652658848567 1.994182393439295 2.3246577627236213 0.9322696261366044 
9.960510509434547 8.365248374075723 34.31902824142301 1.9942436742705933 0.3673218347711096 0.9511222699092249 
6.070455731639246 8.503872903279255 38.176123494885516 1.9942489779921933 5.75572381752991 0.9886406760656575 
9.28291791717266 6.473188448292639 23.789790245164895 1.994249707692012 10.791285880678375 0.9266508532078772 
6.763022594640383 9.56431294744066 12.772782194311539 1.9942888704750623 4.466948446089976 0.863666748143832 
9.75613479363567 7.054877782036137 11.333225357530985 1.9943082560894956 11.545967378668115 0.8117837006968401 
8.328432019839706 6.0328826203886425 19.360597736674706 1.994346603984634 9.728071907289975 0.9826550555295493 
9.964418995339535 8.34421602379679 34.288727180376824 1.9943486807199093 0.3459483389391771 0.9485759602057435 
9.56633626373084 6.76545707217239 34.34390045860414 1.994368454355278 11.199771086835947 0.976708811533398 
7.18884236591861 9.821967801314756 34.29389727610858 1.9943779422056007 3.9681329295008183 0.9126300354182181 
6.005719499291075 8.020840249700914 20.519899704352547 1.994389388137491 6.244718421190155 0.872738473545478 
8.680730888466911 9.874653025203934 0.9418456264281971 1.9944218479096163 2.4381372582529934 0.9026807128584879 
9.195307768093464 6.403434891012521 12.11432764113215 1.9944374664804048 10.68029500908664 0.9401682713130262 
9.494714645680915 6.679517318172387 35.47040763735146 1.9944539064665454 11.088362133861333 0.9623764646091006 
9.27047803760916 6.462411023120195 23.780214943985413 1.9945661949079325 10.776541000965844 0.9083697118150447 
8.710705422581185 9.863780050629272 2.149104127298024 1.9946875130731514 2.406575028189902 0.8950241783818685 
7.250520072890392 6.1514461879918745 37.629910195093515 1.9947108454685867 8.63151418383625 0.9916616908512692 
6.290377412318771 6.9723426245452025 31.607701133921587 1.9947152863595625 7.346181292807346 0.9247294636709674 
8.439581948172886 6.054255455099504 24.382583065689587 1.9947817231891585 9.843407196569578 0.889686871775144 
8.349880989058615 6.0360561029345625 20.68576352358535 1.9948664961157703 9.7522870123176 0.9670688952811769 
9.988447743699112 7.8393055240413005 6.761515041737255 1.9949303606957653 12.373648367310151 0.9519436101950395 
7.2890560069175265 9.863950388392222 34.24038910947469 1.994931680957413 3.8605553208459984 0.9204068851906434 
8.438388690931136 6.053802087737209 10.061666187909541 1.9949613926169998 9.843029958951034 0.8920904612778562 
6.791038909985936 6.413082583527453 11.45397958531499 1.9949671184939093 8.102278948675375 0.9159459327351959 
6.765580269016787 9.567220232420429 24.47373124694888 1.9949865486134541 4.46470164955991 0.8812023200586488 
9.995083836164863 7.984986027218472 30.280459105026857 1.9951403290758747 12.520822286919678 0.9635355850161773 
6.972538392345946 9.710262249848764 3.5121568041661106 1.9951627298195027 4.21333752461414 0.8906300203784797 
7.353437014442314 6.112479842503067 6.745464926889838 1.9951882215095673 8.74365266163282 0.9533568976276071 
6.78729899416358 9.584382641100362 11.42430301137707 1.9952223141737435 4.437547185653548 0.9207034105747626 
9.503016405455266 6.687794056300442 35.48974568803773 1.9952300002125392 11.104376258742088 0.942324915720718 
6.182329068271191 7.177175824901209 16.00131881750626 1.9952361361951314 7.116355739933846 0.8976177957884126 
9.253227154688961 6.447427566388635 27.803874685597776 1.9952592470302448 10.757442506809594 0.8772699205662674 
9.63212516305844 6.852282192811261 3.515939138915556 1.9952665768830633 11.313783791009223 0.9520651156200444 
9.445320914502823 9.375572092447895 6.6528155947001295 1.995282217487229 1.5177661003023317 0.9381050977719295 
7.5324393505043155 6.060264151010866 20.050584259299207 1.9952914886829007 8.930640571996635 0.8952425580337208 
8.003259236460641 9.995318970398216 16.192407459106178 1.9953216322822003 3.1309846528532965 0.9634449365023587 
6.774465834376624 6.425380293110081 19.420084205772064 1.9953348622314704 8.083136414492897 0.9239367084554734 
9.860697991325939 8.720584747992412 18.095413498157605 1.9953544532146823 0.7372449051331458 0.9194525909429995 
8.502991392125674 6.069060956437049 11.454643215080694 1.9953761376012111 9.911465237756817 0.9768934650162518 
9.630740147018416 6.850047184629894 4.675652650436604 1.9954209843226787 11.312034405825175 0.9507488272779039 
9.994384269077432 7.934486521805843 10.761880410793395 1.9954600042518087 12.472319726463583 0.9735639212354503 
7.594518880358793 6.046057995290919 21.390818557181518 1.9955711704051124 8.9955831833936 0.9153609122618395 
9.016069243214787 9.717646026921019 32.90191490747779 1.9956714611389887 2.068743109747075 0.9358497795552934 
6.004690540616318 7.961536973096376 26.94418293550769 1.9956801455004227 6.3080794925284405 0.9124002790650592 
6.285110087126414 6.97905582469283 32.99757723487976 1.995789172825931 7.341668804106391 0.9199917594421114 
6.99037674886803 9.721706582679316 2.313086800208353 1.9958989618884992 4.193707206121893 0.8898598815475743 
6.920793794432608 9.679018214387803 8.759932805687448 1.9959429346504798 4.275440021648286 0.9165713901209289 
9.99595133707286 8.00387222442759 25.00770795145293 1.995955093203489 0.0038722268566058204 0.7810120920112432 
9.995973515120507 8.00051147012797 13.331469291698667 1.9959735806528638 0.000511470133568892 0.8600075912615108 
6.7403261325517185 6.451700122845253 16.653762262889856 1.9959986878576639 8.042715233057669 0.866308940012851 
9.291570955298237 9.521811087251358 15.972060597924383 1.9960121537333295 1.7306496988273175 0.8110871684726616 
8.8670335209526 6.201987113933502 34.81961886564275 1.9961456522299783 10.30352450446822 0.8383828082455993 
9.809220522138261 7.156574881729716 25.62556128821361 1.99615751579265 11.671446427770553 0.9248397817702932 
6.604249817996209 6.572773809259147 38.35105529373564 1.9962698139530795 7.86159058798072 0.967099005156691 
7.573182633439309 6.049865432012771 20.03494939583075 1.9962960445927214 8.97718553565594 0.8797944136555429 
7.44805579662361 9.918517844246672 25.191930970127757 1.9963349223849447 3.695065076573501 0.9157626845309341 
7.023697012488771 9.741331428605157 39.51130612081239 1.9963473314209181 4.155976881975787 0.9253260310783601 
9.22560441422075 9.575885872089938 23.82365247952893 1.99637733457632 1.8162773617280923 0.9026705320909696 
9.4975336004368 6.679762709451527 31.79670026001807 1.9964051161505207 11.10126034679334 0.933583625774881 
7.93207119508793 9.995250004275572 38.87576863063175 1.9964059963089806 3.203889124829862 0.9193769910422446 
9.812859576764009 7.163694418689715 15.399107570428747 1.9964635910518627 11.681226450575764 0.9315981640442796 
6.439972438186947 6.754128616859575 39.640052642810424 1.9964672541628656 7.6175056665639005 0.9519160496980462 
8.57362442038431 6.0876870207373095 29.71756404741064 1.9964934025229788 9.9900785333122 0.9857098474581935 
9.931953748336152 8.503529594829832 35.61327173171366 1.9964937612172997 0.5090265536083862 0.8611697173756576 
6.989405016596734 9.721912351586255 7.400537871182742 1.99656814735314 4.1958474230342535 0.8585903975817611 
6.003444435086783 8.008117417871123 16.749566600025382 1.9965720663824862 6.264298695875397 0.9171114375721136 
8.734837149594744 6.143555534186696 32.39646024650298 1.99659001577023 10.161237005843333 0.9413847562811544 
8.334498675791329 6.031482933632107 11.482216020458075 1.9967345353571173 9.745473148537988 0.9670626313191382 
8.341672453408814 6.032631068776865 16.67725182368084 1.9968176123423151 9.753143376910147 0.9772102582102037 
6.210882140178992 7.113210873944833 10.862727368759366 1.9968319084039572 7.19210925593741 0.8785215125267114 
6.811863008882833 9.605118093839131 23.18159148251513 1.9970161754053781 4.409426449787427 0.9251065161800108 
8.437776010479684 6.051533033017698 27.07069740686751 1.9970406497547106 9.852192574785606 0.9470270882291927 
9.077641574758646 6.318566766883018 5.328104448880559 1.9971302113479086 10.54953085308592 0.8847054223017192 
6.002845921220064 7.9948096730123694 10.021621439070515 1.9971608232392224 6.279456103155939 0.8842013601335379 
8.25852086081545 6.019638030360195 8.707516464612382 1.9971646317398097 9.670664913052589 0.9651320071000398 
9.244926994241395 6.438321966371461 27.791200580966006 1.9971683708963555 10.755557615984326 0.8863342558870356 
8.707732184730672 9.867644957248885 39.6595666666596 1.997243733659176 2.4138142644096714 0.8689124495693046 
7.343221789897564 6.11380839346452 4.181179382867185 1.9972672314515787 8.74266910578043 0.9407136538228917 
6.00317345223948 7.957785499384794 8.705156841074675 1.9972727219644753 6.3168349548917515 0.9007610851801227 
9.424836775550883 9.399633982981346 17.455393381902326 1.997281933848718 1.5508402606252023 0.9024476957092793 
9.85781732817674 8.733281745971414 8.620347125757412 1.9972950067149937 0.7508424300499748 0.8757730920408983 
9.488046376718449 9.332281273965652 38.98278010313981 1.9973120467829857 1.4584867521271683 0.9141531912352788 
9.835620995034473 7.2125069684450835 29.644767842594597 1.997410751988407 11.740632910655583 0.9432519529034847 
9.288507211330531 9.52632082260478 15.970113778150058 1.9974749277945185 1.7371720260055277 0.8483477580895395 
8.464245288756818 9.942803244372573 21.821599186505914 1.9975004717089528 2.669136699379443 0.8773137852487691 
8.832806688168178 9.81562552405748 38.12700190112545 1.9975142110800246 2.278645388200392 0.9510843114048235 
8.450570553045003 6.053953981245524 12.712715376921906 1.9975257020577801 9.867599666859137 0.9511492584908903 
9.79999692317114 7.133675120261962 28.359467242467034 1.9976255206316038 11.655376732598674 0.9039383681037488 
6.104789228099772 8.631616933783043 34.163923264892304 1.9976896207790003 5.633283126477096 0.9777750419038657 
6.16846351884209 8.797695395903762 26.419665854410567 1.997709645183293 5.45541345872782 0.9378137953325059 
7.831775180443687 9.99064447839017 5.263887881694011 1.9977399803928502 3.3064668910173403 0.9035426221401125 
8.143050924752764 6.007258420714749 3.5580490885142098 1.9978695074716222 9.55791169132162 0.9623639590621939 
8.514138168950995 9.93062570792365 19.37877061581993 1.9979123306261397 2.6183244928762246 0.8547151563647658 
9.293222063510056 6.4769681883136165 24.993815135446567 1.9980113125200043 10.821961191904819 0.9131265566940079 
6.186175127749898 7.161793175960085 10.798176308598677 1.9981369690439585 7.142301991760565 0.9091482313599499 
6.419232892171294 6.777780786411057 35.624840496695114 1.9981602676610075 7.592540123270114 0.9517040735890209 
6.02081558834889 8.275240208755402 0.8150917247900153 1.9982312448359094 6.001510526423303 0.9431711473583924 
7.266363578267413 6.141284184912607 2.729996903595506 1.9982609640756617 8.665377345556694 0.9852057391308783 
9.794309534103121 8.87961911730207 23.196917086885342 1.9983184169938029 0.9108310330743254 0.87981196513179 
9.6647046017282 9.105463079010729 32.181463053775175 1.9983218034318 1.1714073322132688 0.9465085110068218 
9.773192605795364 7.078475949328592 26.949716743775085 1.998353970950387 11.598254668302816 0.8503845642935486 
7.523747971335837 6.059209445081301 18.672976348827817 1.9983703292604114 8.936218770433696 0.8952746611497613 
9.82766813880369 7.1918456858248625 13.970960953896132 1.9983703913734372 11.72414995544924 0.936695310293415 
9.334974339477586 9.487069479635025 5.55214761047381 1.9983823769052815 1.6771253363250018 0.887688382745117 
6.682784324473825 6.4971723834820985 12.616948951730507 1.9983863442339573 7.978986822854976 0.9378430690648166 
6.99594767007903 9.727867997125195 2.315925219086438 1.9984115934184228 4.191064287031484 0.8785732732698613 
6.408300876689125 9.208497509968584 38.90154340545966 1.9984925145591306 4.9806386507803815 0.9532154525713653 
9.613353167592853 6.820440435836765 2.150532950679761 1.9985667886740366 11.295650390260716 0.9216364525226415 
9.74354624212086 7.023074319294636 7.287568244272663 1.9985838196171346 11.536747824532013 0.8277196525686438 
9.555585267129928 9.254800002388414 37.551013565053935 1.9985916464614908 1.356599404094128 0.8935847837776264 
7.603988958340636 9.958984574995723 22.46413774902073 1.9986108451089994 3.5380597749941085 0.8919244861128689 
6.928629551660876 9.687198380110146 9.931345168184613 1.998617775218834 4.270155073162599 0.8982110979017855 
9.760519420114107 7.053916654591134 22.058000964434626 1.9986251086832028 11.572191197265951 0.8632668697125184 
6.16270504955601 7.213319237682253 23.851843581652595 1.998629369524979 7.0874357348178325 0.891899182129527 
6.012483589234476 8.210494629901088 2.1672411049338294 1.9986319001455641 6.0680015692448634 0.9196922417899634 
6.715605899210495 9.531328481324902 16.798348758353285 1.9986583309459653 4.534395894190645 0.9252205351609554 
7.339960424474869 6.113442836998814 38.856779203277526 1.9986871117137066 8.745924589309984 0.9470103088746508 
8.440659321392431 6.05042453877242 7.4457059471215175 1.9987558921866297 9.863224730815896 0.9347319960874317 
9.968046074595575 7.650832066258751 2.745153760707211 1.998780527642841 12.207739757012368 0.874856199324871 
8.479889274334932 9.9403543498279 11.30956835484685 1.9988168296564184 2.655110739180305 0.8573823596652934 
7.659110685919535 6.030414752285228 14.643195739126845 1.9988675725194764 9.076877777523444 0.9635482097063712 
9.202251176421761 6.403104685206857 22.63336551343788 1.9988703153571015 10.709393465886112 0.8814536198613703 
7.468585271258419 9.927021174170305 30.22550382006376 1.9989527807390053 3.677829859108117 0.9038249078949501 
7.423068823615218 6.086059122451701 13.340183239809548 1.9990045685378213 8.834830654819914 0.918214934138466 
7.554099704828145 6.051303085282335 17.37685325392322 1.9990614644538816 8.970672086168266 0.8544116967741102 
7.0396670314132805 9.753405607976097 0.7511573972406893 1.9991674858892141 4.142012725682729 0.912355289766789 
6.662130080637832 6.514442806346539 7.392880755238128 1.9991938617226912 7.955294160214354 0.8933829919777034 
7.324654536346831 6.118281630728381 9.264192003878325 1.9992387342514037 8.732293079283151 0.9453508569765476 
6.122908283238798 7.311841711730562 5.560275318741255 1.9992586483112784 6.9833832940215395 0.9158740085343171 
6.768066380634927 9.574726633617306 12.78216268895958 1.9993559996022752 4.467882591796958 0.8514531801809518 
6.0201044027368695 7.721557987651142 33.706227476141436 1.999379036176684 6.560584493184372 0.9069811041758093 
8.004432756312188 6.000574217492925 34.34447547008636 1.9994306962439463 9.426527939966318 0.9007827123160205 
9.935764828604952 8.50071613315264 36.91249607429027 1.9994754606304355 0.5061030736385108 0.8522104107172269 
9.244374885842689 6.434899850854094 26.325848160620943 1.999501771285173 10.76555903682892 0.8489466663210717 
9.216375327429251 9.586969250219642 26.46790608952722 1.9995100245613466 1.8332169906933498 0.8951994048659352 
7.094930733485988 9.782975074232258 39.49115172479887 1.9995375696699842 4.080095025815398 0.9150115751926318 
8.882742714637892 6.20583747246808 36.40296217124779 1.9995634212112403 10.3369885548366 0.8218093407413497 
7.384377935990695 6.097555728634923 8.184035261466917 1.9995711368553186 8.796969427150296 0.9440908147510516 
6.2099113096089855 8.891014698370444 30.16970634260945 1.9995811341823546 5.358372617179398 0.8969333386373664 
8.410500262586536 6.042972202462437 25.701944716591058 1.9996170298130453 9.836412949841467 0.8775477812083565 
9.38143598049438 6.554255216227903 30.32913107526437 1.9996358038424633 10.948094903468897 0.9283187858148665 
6.777367105640838 6.417665211049197 17.98564818327582 1.9996536146775634 8.107659912039304 0.9026558628601098 
9.999573941479701 8.018533866983292 16.002491128414135 1.9996598339892764 0.01853413235304302 0.8011678672628653 
9.836620287783129 8.790871272656876 20.520792176398857 1.9996628344324672 0.813092282832546 0.8631180661344833 
9.999523424672581 7.975919601452635 26.27333804426791 1.9996684203658806 12.54020625748749 0.9738566850218363 
6.198183429397552 8.86728293802626 22.614397014804524 1.9996806366740236 5.385111410635469 0.9066615773956351 
7.4573639946402785 9.924679399809003 12.107935626475019 1.9997111357298336 3.6906652380362885 0.8939144585325898 
6.157595298323763 7.222363467829496 25.179211096874454 1.9997934045607986 7.0812381227204995 0.8788729160583109 
8.654855928769473 9.889640184079227 18.110516768660787 1.9998940753778693 2.4742644974744508 0.8893295181202819 
9.089704492130135 9.677007589330797 30.343086169814917 1.999952583148335 1.9890888850551391 0.9245291750550567 
9.624504061336895 6.833409515427746 37.05967916212935 1.9999867009544297 11.320726407135062 0.0 
