75

7.001260803986198 6.996357307704822 25.805545366368847 0.003854715793539132 0.01944936137615727 0.0 
6.999117286316674 7.006902053200958 29.98262581911589 0.0069582700318114865 0.011815123587945564 0.0 
6.994110447233592 7.005569224219292 0.872472757239386 0.008105744271382616 0.019325245967842686 0.0 
6.999018566586588 7.009644136831363 10.585141068099432 0.009693945882199406 0.016210332380513837 0.0 
6.994506391976036 7.008676680003254 36.139417113797904 0.010269591277153878 0.021927962335146045 0.0 
7.002835649088616 6.987948432703919 24.783073713704553 0.012380677689276531 0.06120361474257763 0.0 
6.998124660781499 7.01661630664971 30.99165674946775 0.016721798463730342 0.028145832414861793 0.0 
7.013098722286913 6.988761808000798 19.407534205651558 0.017259011702893123 0.09620324361770294 0.0 
6.996753123595124 7.019248673846788 35.11140597718642 0.019520595565929888 0.03392491704614109 0.0 
7.0226192829117915 6.985934668145705 17.001772662382443 0.026635793955035347 0.15253971141844413 0.0 
6.97256697868113 7.001122184627373 4.978349622315356 0.027455963960848595 0.0851329573729438 0.0 
7.028626843274735 6.9843210614333175 14.904485564912704 0.032639320925136994 0.18872411788425136 0.0 
7.045464787140017 6.965885519255246 15.963092893209888 0.05684051958041236 0.32054986779381833 0.0 
7.045944388607077 6.952924674653475 20.453363739202487 0.0657797316881058 0.36084325045887944 0.0 
6.9902772114884595 7.093452577699583 9.487411446132171 0.09395699492393816 0.15732752770856662 0.0 
6.9017079234449215 7.063936045278121 6.035702724978108 0.11725677037730242 0.30075037917166814 0.0 
7.140050432775703 6.972692192593417 21.46949097375147 0.14268791142215353 0.8690572724362138 0.0 
6.8148172645449305 7.0331777673930205 8.332197083429755 0.188131363041382 0.5576799122671163 0.0 
6.823564566684415 7.131726667881765 38.01200648382079 0.22018487041686263 0.5505218891444299 0.0 
6.956848731137611 7.467854077955035 31.906806493616294 0.4698398346921956 0.7812348506327957 0.0 
6.377792797263944 7.0658743320944595 1.9976414382607288 0.6256846096601064 1.8996495311463484 0.5509743737718761 
6.985581701699215 7.756781161819617 39.06343723736806 0.7569184990545145 1.203383968393032 0.7243868556552969 
6.233610412756112 7.044782514564519 4.284691233174904 0.7676968627307129 2.3669828728896745 0.5510748883374635 
6.2203866833933334 7.0661245407240045 39.06783683416547 0.7824125371671957 2.391817967642476 0.5689672601574751 
6.912106538645021 7.780349248029859 0.07282336174987591 0.7852835216975618 1.3215984874582505 0.5083807632663523 
6.1561017196297 7.04836644189643 36.950060174163106 0.8452831598427053 2.6071424920391175 0.5203423952142309 
7.2786373375309 6.196805224182029 24.149836291693454 0.8501532883942693 4.290136633820861 0.8902488654087322 
6.856891803027501 7.858527927713176 4.221324985280866 0.8703735742221259 1.5109405920217225 0.5112368949676493 
6.133254028010887 7.110181393123748 3.2194519222811877 0.8737210764025554 2.634400181666373 0.4875924392374932 
6.967855599406618 7.882011602852955 36.96610310311012 0.8825971504920846 1.4185318731082734 0.5935518532818315 
7.839833522644707 6.681801918624732 19.8842235695155 0.8980926259293749 5.317620181470555 0.8003431586127169 
6.102694843091723 7.123538597800763 6.676018574805042 0.9057694683310784 2.7216338475450996 0.5754191776943839 
7.912086662953935 6.917726342730776 18.84116204743451 0.9157898423868309 5.67169254853142 0.7836717348981723 
7.931713068035099 6.969599936994286 16.441314202651824 0.9322088848418744 5.826835714649773 0.796823332957991 
6.791006914519216 7.909671317837071 8.883017426435455 0.9333702460836274 1.6769146292311747 0.3919278880080667 
7.934229540227636 6.960319132676027 23.945540915420793 0.9350718716042759 5.835537058096567 0.8315665356677713 
6.168952335165579 7.4495795315611915 33.88750451576718 0.9448608238389002 2.4998197390798955 0.6930994572783118 
7.008789890614175 6.054154459060326 19.891278079115693 0.9458863829723277 4.466174584942759 0.8141739307904291 
7.0203897719011765 6.039319384293041 25.134120241815964 0.9608969706442434 4.548511598103908 0.8163547064255143 
6.031666048095288 7.021075525928293 9.000648255447935 0.9685632763039023 3.021754083953488 0.7401109333393993 
6.0402002657564955 7.144934605748912 0.07953935257753741 0.9706809825053215 2.904005629719994 0.6862862353535997 
7.004723858540259 6.028966011162396 20.894412026744853 0.9710454790159813 4.580667891939773 0.8228232712944966 
7.972469934730332 6.969760163938739 20.895803632471683 0.9729399887143233 6.082917534956773 0.8973831654223045 
6.027239628604364 7.0355761344177505 35.87993772109851 0.9734107054567911 3.0224758618678127 0.7310265907821814 
7.389609207997325 6.1064511806652035 26.07756891224554 0.9747947617272634 4.994419768888678 0.7391396605654905 
7.349761895653173 6.088974290911077 16.49878421493539 0.9758592246179132 4.956347787479701 0.834861247979275 
6.9841211297298065 7.978957889838723 5.2143717297661425 0.9790866604129305 1.5538252962329322 0.47903145324893476 
6.135877720438816 7.462367089514252 9.956703855158125 0.9800462435517496 2.5974000587019326 0.6301623717821582 
6.807968795499767 7.963738896056716 29.704042248851003 0.9826844067524558 1.7368719357777485 0.5079651107034978 
7.030084801215517 6.016187802283646 15.521507996788799 0.9842720841513588 4.668362410704584 0.8344340017620245 
6.058293772721169 7.287990280767573 30.76483138398754 0.9847583563048943 2.8014477114580885 0.6492087651798425 
6.058602385800618 7.292191717746581 29.717968880533327 0.9857004960635791 2.800019895826976 0.6088711437889874 
6.854049202775353 7.9753316283998394 30.724552344328544 0.9861913711686958 1.6955946785193508 0.5289865814911945 
7.403554079609358 6.09917481300903 21.911560664931905 0.9870875911927321 5.067277356513272 0.7097091893991402 
7.361679062148668 6.081495836727951 18.889886150078173 0.9871482370671723 5.022129344419735 0.6689002447800779 
6.066267639349095 7.322916064713848 34.90120367817984 0.9879933735491302 2.7749120978336084 0.7695862504496093 
6.011982874633497 7.012130913754552 31.753777423343323 0.988091594482013 3.092050075779489 0.7750493266562098 
6.880003869225006 7.980815366126108 1.0736975343568993 0.9881284601862557 1.672441594230015 0.5265521086071597 
6.018922589597902 6.860112748784969 15.074710250985788 0.9910001656174352 3.2536748601773544 0.9207091345081168 
7.884475403056681 6.550213123287291 24.98600343660091 0.9922726304172922 5.767815739918945 0.787373158870635 
7.401616204990753 6.0917345032286345 14.555180361615633 0.993097069141033 5.09331701050379 0.7119648532614595 
6.036762525600609 7.242860197788774 5.527382020118722 0.9933818539500912 2.875454178136935 0.6700639012385557 
6.981129253393228 7.994154720663905 34.88730648513175 0.9943338039591265 1.5807677664531017 0.40316126680403974 
6.055336116112774 7.310771526497416 1.0705589584833248 0.9944691021859 2.808151043668135 0.7060764529224199 
6.005240486840495 7.02225843570132 10.907967236551247 0.9950085059843498 3.103651120108144 0.7969271829517431 
7.990604969846065 6.905032679746044 14.477130401945505 0.9951467219460349 6.157579203455437 0.9147069958812094 
6.666959142208401 7.937923084594086 35.95437925156995 0.9952969032268959 1.9030002474017902 0.645325591383641 
7.193227578955013 7.976487438903511 25.564245577337886 0.9954218279730224 1.369142815973369 0.652779825734104 
7.892530819858078 6.5583960880035175 15.476756231516063 0.9958038358467646 5.799287345384878 0.6997350297014365 
6.523038691476441 7.874150395812062 10.820478603751383 0.9958067103242934 2.061595780637431 0.7300965962827777 
6.988048771474836 7.996437851519278 9.941124648793988 0.9965095201771111 1.577265008953316 0.43322183733650693 
6.849077898387889 7.985164072000663 2.134319909643935 0.9966572778623265 1.717050514169487 0.6302913698765684 
7.996378105733574 6.946802344509425 25.961678409515827 0.9977972339783864 6.216122029910533 0.9733506916325565 
6.530871580950245 6.118111076446881 30.0329683669529 0.9989041731046083 4.2188743120871415 0.9476953123528579 
6.900386486576553 7.994655863667366 6.532450456924394 0.9996315016967187 1.6699966086988969 0.0 
