201

7.253156541326234 7.090529752775854 4.445943178173231 1.1768225364725722 4.736549592700024 0.0 
6.973195762483121 6.377348066923972 38.6382703020961 1.9202411926885605 7.9655535173878675 0.6936868611133283 
8.85278209427567 6.278703328213938 20.089888097466698 1.9209631783610457 9.93593990193471 0.7939717834325354 
8.458602224442226 9.868667817902091 11.72407174236426 1.9241193866094486 2.559340504205215 0.8879746511887672 
9.887296044617244 7.613444714406198 39.93092259612971 1.9264764075504233 11.71521090066862 0.5495332457409499 
7.525993476509546 6.131405748812838 8.412460194527796 1.9277776479358848 8.605520541426799 0.7209423885343573 
7.480980686765939 9.860202639880045 28.59471602245842 1.9312521608859488 3.559083072901956 0.8561618310962663 
6.091251309726559 7.7041515508033935 26.809780959934578 1.931540283688801 6.365130375567373 0.7764289259214693 
7.169541650292544 9.74974403712533 30.122729186464078 1.9368183358421827 3.9006207392915986 0.7603287935377895 
6.139942423678406 8.550662288250914 22.221070325471125 1.9398564748282507 5.535899313544601 0.6994323418993902 
9.900032201765212 8.393898362334035 29.91211664788365 1.9404325001386122 0.39665502185034107 0.6302650501286644 
8.163375859296773 9.93365336404935 24.122615503930994 1.9405429662082532 2.8846282819800155 0.8015586374116969 
7.9454898450123235 9.942798720117723 21.607410208278033 1.943563280134671 3.1074593651867133 0.6817997747936895 
7.997288944205316 6.053462450699712 14.455586521725309 1.9465394372217317 9.170139937176746 0.7425315315519654 
6.491106364096025 6.769987573670074 18.473088234470843 1.9467127608862969 7.447185519479188 0.736909623758912 
6.05272294068539 7.992336341132107 6.28712821138344 1.9472921397161245 6.125262359176487 0.856287341193973 
8.64993180684023 6.163618932903317 38.58079310211157 1.9480007128165406 9.842374196262583 0.9266017790103845 
9.044750375695708 9.644920456034226 35.34851022593547 1.948657654437068 1.9582848814503766 0.7681782795133323 
7.044297367193694 6.301324902055191 39.842954324323685 1.9490676260024196 8.185910617533493 0.7081953692526917 
7.711757552748779 9.927958763547478 5.802622056546319 1.9493867503235198 3.351392796311602 0.8575076429247115 
8.025312525708896 9.94989807540775 31.82988573438712 1.9500623652685056 3.037837563804307 0.7616163784797029 
6.051800842384553 7.900859949911725 3.833047284295219 1.9507200484090599 6.227550551278063 0.6710312719498276 
8.956023368711442 9.700805656456511 23.522127150101905 1.9510818953997884 2.0656309835933087 0.8218287605591972 
8.228204544323647 9.938516401460086 35.88993749771328 1.9519024444832582 2.837313538937929 0.8491753739690444 
6.060363200107501 8.21894015446969 15.71062010541839 1.9519543300847038 5.912843533234705 0.9437728974715391 
9.933726109414367 8.275480850621362 35.30970664885579 1.9532502055010519 0.2764024106476377 0.7216006775223979 
8.46251844623144 6.100963466620341 8.93110785107541 1.9545493261145854 9.677544303066815 0.9749055096777883 
7.098952484873882 6.265251898974308 25.46254190976625 1.954798608176095 8.275314065154236 0.7084943743185491 
6.277172715660701 7.076160678485211 8.632029129424158 1.9548946119013242 7.103707583246363 0.7784135362215691 
6.493222630782293 9.24589067805285 16.366016239850154 1.9551525828041245 4.79146930867595 0.7905739477327575 
9.860991655699594 7.399328372580454 2.5744897459975427 1.9555296844002021 11.676412996729896 0.7251279314255865 
9.948703549774239 7.814571417780323 13.550347393123502 1.9575058835177757 12.113665183486505 0.9433645536821992 
9.479501673209763 9.282330485280069 21.643146509230625 1.9578806589036781 1.3981766883451296 0.7523916012911808 
9.957877532785291 8.017282256691912 24.52809572927437 1.9579538068559752 0.01728248111133368 0.9795947424144448 
9.66911743832492 6.975969821194935 14.297273910902227 1.9582111300939615 11.226202809239151 0.7340266134313218 
8.552611107973947 6.120624823926617 0.04599335716130071 1.9589359583960508 9.791484326697516 0.9403087230914011 
7.891225295643862 6.0433172622507865 3.225600153717238 1.9597038736792662 9.126056303556666 0.8224010167186586 
7.121349511811911 9.752143248389801 16.959199343717952 1.9601103650741545 3.9900412523251756 0.8108884808451648 
7.95815858665881 6.040285766369502 19.658478327267687 1.9601608559922712 9.195195826075269 0.8132185346559875 
7.3623874841416335 9.855435041001359 4.51835442780164 1.961934991724992 3.7312064751007377 0.9114679355581539 
9.587745581357074 6.847363302581288 19.612900794264654 1.9620161536937533 11.095690722984433 0.6354460128569681 
8.118926732159968 9.958427005298327 33.37732767963438 1.9620346334109475 2.962957118491765 0.837121047814347 
6.307264726492214 7.005184519519581 37.96190226803349 1.9634180773286598 7.2114711012292805 0.8161241870433922 
8.86090643419559 6.235231137496658 31.9493023827078 1.963560293574071 10.144249113953574 0.8533655247192354 
6.963543538916181 6.3320510683007925 37.25170370832871 1.9637453079457425 8.162082815249697 0.6450400186501806 
9.54902795976628 9.20777083874513 34.546867014711694 1.9642296248302533 1.3007859897807865 0.7320061085521617 
6.260232965208198 8.913573068862554 11.022662691770613 1.9650458232568548 5.223205025971419 0.8858435125315488 
9.769411737089412 8.854806628069468 11.750366344527656 1.9650730945034247 0.8843579225578004 0.8234118601352245 
9.252334683571538 9.514346999763891 12.30217602266444 1.9650926175043566 1.7289263969929252 0.9370222417917367 
6.387171332539241 6.877241067931228 28.664734587378646 1.965147304942674 7.368762261194496 0.7833756337702668 
8.724649591696009 6.172570747852946 33.30663516752501 1.965862330466691 10.006061196594707 0.9198762858891896 
6.03398727053445 7.972462009236903 2.694166088789281 1.9662055826784366 6.204555905133219 0.8160897667375855 
9.879392796035765 8.579062434850243 16.94598527319988 1.9665783953979101 0.5877744441731103 0.9277885387288589 
6.2844617312405315 7.038409242709999 3.307609463694117 1.9666540967042945 7.183155954965738 0.7851289473429691 
9.908390054812545 7.5187145541361815 25.471036296945854 1.968143359033525 11.879993413102035 0.8336946038864312 
6.920491615137825 6.352895709939483 3.856499998731863 1.9693376793540263 8.13775345795585 0.7883992688295641 
9.442787562917447 9.341177873867565 17.545173372758605 1.9698715798399604 1.4752686805865967 0.8798523159619048 
9.76988307973828 8.865146503363121 25.245774679844324 1.9700163928823784 0.8956879329970242 0.8608667952953999 
9.554954553482608 9.209770318970861 22.85542512996104 1.9701339771850965 1.302628738582622 0.7861233573416406 
6.447151520979348 9.213364458812428 17.613249222336393 1.9706830563806896 4.883961658251948 0.7859602832170479 
9.961501213418154 8.19490374624667 31.261847560831846 1.9711606937390624 0.19522274053407251 0.8703824747704038 
7.126345225082577 9.767084369112485 15.745881442363924 1.971258438992131 4.001571179398869 0.7897599559592388 
9.079870502747777 6.35074547230885 13.718632231770627 1.9713347761895996 10.432510829403965 0.9685987442082433 
8.804347190089908 9.800339902792066 22.213070045039686 1.9718514568270287 2.2688663044814614 0.890812032309367 
9.973029632361767 7.974975021552799 7.30338511543092 1.9731883284988 12.37288226456474 0.9101770335420097 
6.086255563324448 7.517024807022301 20.18411162230192 1.973748415056607 6.6886433306135515 0.926888177115329 
6.7163601298201225 6.500551254064174 10.395688515826265 1.9738484891206647 7.904037234868749 0.9152156160320563 
8.065876118320881 6.027238118413118 26.261734399571232 1.9738614704196547 9.367491395704533 0.8811281926941222 
7.94282214013187 9.973438174596891 17.547989058017627 1.9742663286941309 3.1583561533194064 0.7975170549614709 
9.97241193043563 7.914363227432142 11.474248998060432 1.974270113267348 12.319041318291074 0.8712378345282693 
6.608457875216491 9.401466231825713 34.63140880112649 1.9749676159357044 4.646390396823339 0.8942595046524734 
7.936971154566763 9.97430708089699 16.307251524771104 1.9753129081329488 3.1658538060522012 0.8051369828294335 
7.883586391703362 6.027906034509174 27.38123603050579 1.9755269517073082 9.192970349611496 0.8666769250630875 
9.958589025056252 8.267719602466368 32.57859309110241 1.9768016477673098 0.26854482710517225 0.8630494424306858 
9.781335262754599 7.142452565645851 6.657585122209603 1.9770035206090004 11.534871231047374 0.7722218833723687 
9.692891261641154 9.021254720180389 31.925001023612595 1.9770791656460565 1.073185468606031 0.8759471801507773 
6.035728398745302 7.7751656025545 37.36450008345753 1.9770972231456854 6.436555948371819 0.7907840415763149 
9.910714935792006 8.510016343388948 22.215273820007184 1.9776117506685906 0.5158460881051514 0.906699617492661 
6.598294761395712 6.604346242162716 15.732031026754893 1.9780361441834262 7.763450727453098 0.8580676180997229 
9.954454437328726 8.305292007655604 36.60102068926135 1.9781545332790165 0.3065171063803387 0.7729706042807638 
6.362637560966768 6.889954085651265 28.678632552257042 1.9781702880993786 7.393143442458733 0.7657376719058417 
9.749902227744492 7.077325583462894 9.11042836174019 1.9782532410177476 11.469830980244303 0.7289138246260874 
7.178426057522875 6.199450301531588 20.297609585502084 1.9791318701926068 8.47922653707884 0.7981381465717696 
6.45385787418755 9.235638312824682 29.48360095869232 1.9792315461643373 4.883466637460277 0.8063017206416392 
7.746186023818877 6.037102510440199 4.361137067269283 1.9792392702816513 9.072430488839554 0.8759336526281835 
7.201965792621133 9.811637334677787 23.433297082954926 1.9796182532360234 3.9309788523647686 0.872095298812787 
9.528159204705128 6.74144289667446 24.75198931407237 1.9797061744754407 11.07493649155101 0.8322114812262507 
8.845402494596234 6.209726784284026 25.4887936277968 1.9798443284206846 10.203259398422805 0.8470518669785736 
6.145085337829567 7.307480765765558 15.132972154630789 1.9799725487287716 6.927745235814438 0.9596800333454005 
7.015609187930199 6.281440376951407 34.5732999731723 1.9805232765257672 8.302768875280538 0.8571920440897423 
9.403294515510954 6.602199837815268 37.95725048743188 1.980676851651167 10.893224827981179 0.9507066151790572 
6.255881949647511 7.060695801540225 4.5243394671573895 1.9809694976979129 7.20202614818929 0.8679152321725419 
9.509052452069252 6.7166079467658015 0.6203752451650075 1.9809933027148068 11.050818561131074 0.8095242878754476 
6.952978735654112 6.317977394020414 28.019962983580484 1.9812757443169837 8.233400654126068 0.7432892814601497 
8.06969814934755 9.980058882960094 22.890444767024007 1.98128519199323 3.042482969204819 0.816379680565729 
8.272027279255267 9.962810406984126 1.2093719463691386 1.9815709763781393 2.8397553925552366 0.8699386379460453 
9.935796996107127 8.424597889373059 23.55425317301654 1.9818156770490667 0.42791517493910547 0.9461901362595638 
9.267521641510298 6.476418718862373 8.469186610071162 1.9818958176276402 10.714727024566603 0.9744797519367849 
9.564745886801107 9.21689101911772 30.388241865107055 1.982234457038404 1.3102371213939268 0.9138780831941098 
9.892161521337805 7.40889650661331 1.2524776239118474 1.9823416866739563 11.8551868740822 0.7700542308530186 
8.851706535168853 6.209762074440524 19.087276432541877 1.9825125099632581 10.222725551845638 0.8479747877787126 
6.782100632407115 6.434808025213913 5.141562660429543 1.9832056846222268 8.034235398719755 0.9210615773374426 
6.784545868860619 9.567165571961276 10.416166331778758 1.9832641465131424 4.423602072433002 0.982051550342649 
8.07109067548468 9.982019895839738 30.66088535214182 1.9832944188005575 3.0442456802892135 0.8247506560032036 
6.028054909485013 7.787485494299478 38.53444662678818 1.9833632685767124 6.443842734848911 0.8323043852264591 
6.110283662105239 8.602270400440112 27.310011233596043 1.9833702309333667 5.619008545121224 0.852531907139217 
9.052605434613675 9.681041123277938 32.56344975342567 1.9834004787560662 2.0059344270152 0.8144358186458793 
9.818607716200816 8.791769193229253 12.926426174254416 1.9834899749613177 0.8144649041669041 0.9015111894322713 
9.953277078916752 8.345094437138311 0.6491686179437579 1.9835275439391722 0.3468595364527278 0.7910440260340639 
9.851041860549667 7.286929080682915 35.93844889349553 1.9836396107869192 11.73417838978609 0.8314556902747691 
9.679462409155832 9.05619455232172 39.96249522796957 1.983970996794456 1.1137827401027174 0.8327183621190276 
7.193652972426396 6.187220141095491 13.81489598163764 1.9840278087079932 8.519132487554975 0.826942788098632 
9.977615664237387 7.840540697468324 12.492067968483724 1.9840340180049765 12.306421915147942 0.8268315957576585 
7.156219406288896 9.795884280150098 18.202247798185304 1.9842293310032735 3.988354956094903 0.7394465932386789 
9.627673796585448 9.135069518006667 37.266719511626434 1.9843650870741472 1.2083788295611875 0.8546366842358097 
6.685795729371398 9.486993757718711 37.329657815124335 1.9845108466402654 4.553635584766965 0.970009040161974 
9.967792962163152 8.263224845346343 34.29711271670263 1.985320241458904 0.26400221274225366 0.748686810476732 
6.333074820138522 9.078613610783673 15.0255762412902 1.9854588579529946 5.097231785754552 0.9494808665068817 
9.066946124949915 9.674705312264777 7.001397438333058 1.9857018699879168 1.9927448201223523 0.8572287658842805 
9.508678672780967 6.708711565834935 26.1286253145182 1.9858341214493713 11.071565340324995 0.8534873557951471 
6.416000511954595 9.198160371937686 29.471263784112068 1.986112447725443 4.9533620852621 0.9203672171330931 
6.842442625484654 6.386041686218224 2.3592973951397127 1.9861521880057886 8.123762842577177 0.7905714418365372 
6.203330558826906 7.152878332872644 5.652914482250793 1.9863625549636892 7.115503850899577 0.8997212285524152 
9.081740138781184 9.666036133393877 5.933662682754871 1.9864133823613708 1.9763235636203476 0.8747087356695344 
9.986481023328805 7.979279144347654 8.468431940688298 1.9865890893449545 12.461386146192188 0.9797741242051905 
6.199668773584142 7.160057195746216 11.051229161625816 1.9866294166818683 7.108404840002773 0.873579245310841 
9.726183720162473 7.015719400147944 11.922372065729036 1.987087953513653 11.455484921699975 0.7431954411491529 
9.750452423066479 8.940815025810043 7.61194333481491 1.9872635955527531 0.9800629572318407 0.9140900558971993 
6.1105350706633335 8.61899273713794 35.31798171860004 1.9882730516261444 5.616889303611462 0.8508554883359892 
6.011663854539686 7.954195083592914 4.971738908628431 1.988863674994101 6.294008476980799 0.7791515560415267 
9.651966638303666 9.10774487498988 1.2733046928768488 1.9889928310918215 1.1748862004443925 0.8251989208072462 
9.675066761137732 9.072719370091031 35.95871512497955 1.9891142504232737 1.1329988983961687 0.8328340037815676 
7.985085627035906 6.010924968820925 18.460016027942828 1.9891309454585817 9.35864423520834 0.9137575593844266 
8.725513508738977 9.852408353595477 16.929026525392928 1.9894186487094754 2.38232995711485 0.9351711211100147 
9.44896496752743 9.364294442018643 16.432115444202122 1.9901755705577167 1.5032001008973026 0.8631167866055075 
6.32947676478706 6.91808673556088 33.857818712827665 1.9902723911956421 7.396476377203028 0.7933403598053339 
7.176919407296902 9.812220306576986 22.26657441080728 1.9903778791110154 3.9750310676357667 0.737095491577797 
6.899155551893076 6.34111688686672 29.476088814777768 1.9909172966164612 8.215537020047366 0.7729639070111191 
7.215976087413779 6.1698946649307445 15.069728769557045 1.9909743928428512 8.576398737943233 0.9310639399684542 
6.13029499092883 8.684377216872054 36.70527086367597 1.9910220983001083 5.556355127892289 0.9508524081240337 
6.891440866994918 6.345271391933325 6.394360630007888 1.9917404744904028 8.21020860604458 0.7761508355025487 
6.204357064273442 7.137956575762713 9.74002510456215 1.991846484520188 7.149082911027538 0.8062227570825077 
9.026294132695305 9.707312582853717 24.74544353147626 1.9920331077508322 2.0509098702918642 0.8817646395137988 
6.008008489708466 7.9750214159804145 9.188106346600541 1.9921481136534938 6.283497117281412 0.7250006630912335 
9.550516047723207 6.748980095229179 31.289846351619357 1.9922727765996255 11.16526827605367 0.7550035909402707 
8.17839357752437 9.984475070253085 39.94485863195513 1.9924772452798374 2.9511431551933853 0.8454112600609835 
9.780007887478678 7.103611312525686 7.835778848401347 1.9929728444006038 11.592469903217065 0.7085613261149581 
6.4086215400603095 6.800098196384411 20.823943098155894 1.9930503608990826 7.54897686163045 0.911098511622093 
9.690144085793065 9.056932537297136 26.957996362296356 1.9934125060154109 1.1140212862156176 0.78840958456569 
7.266615007979677 6.146391598795512 30.50999062494529 1.9934185841253977 8.642737310463058 0.9600531794717154 
6.006876386938929 7.964965653354028 3.9293974267648792 1.9934314992962585 6.297585904070306 0.7775295183256032 
6.486966032017795 6.702035355956802 19.756986658612362 1.9934853913320152 7.676173953388677 0.9161742144718388 
6.605141675074059 9.424248336084638 5.0905933085929505 1.9935177625130567 4.676333315514542 0.8533078747024178 
6.333256410307232 6.906260160642592 26.149017977549256 1.993564904882583 7.420693645295859 0.8564274191014775 
9.583515657399182 9.21112103095609 29.25415646509294 1.9935736727927835 1.3016545773303392 0.789773336491283 
6.059403217757552 8.457454522564959 30.114953275585492 1.993785472779073 5.802095486981759 0.9111170867608932 
8.78540690103798 6.1673257135942485 24.20845848559722 1.9938803976795885 10.20322289029155 0.7288812309659699 
8.9259324637123 9.766179292272778 33.99341379467904 1.9941765768881894 2.1695279005318717 0.8892452779562836 
6.064444979493915 8.48108469100346 17.00260714334651 1.9944462182080027 5.779861161509576 0.9144138454460145 
9.428356064031298 6.6075542652045876 39.24183108905544 1.9947697035008594 10.992212353847172 0.7478723521584919 
6.162933972764678 7.222143375781371 13.752916716192864 1.9949617831585063 7.066408183934335 0.8978100728565345 
7.85815105196885 6.010050456124759 39.19107188188636 1.994998824868533 9.259241737091276 0.7841250462188087 
9.402873712108162 6.581233996590559 28.766119801134913 1.9952322232147635 10.958124459289094 0.8368153960131336 
8.879252061584806 9.791298319524373 26.23299960887711 1.9954532962041405 2.2239297008157664 0.8782380980229093 
9.637529585632663 9.140454698223003 33.259692535008185 1.9955300204510067 1.2139573292293342 0.8244129749924024 
6.509619868401195 6.672925309934024 32.71826118924986 1.995585169737982 7.7211057122399325 0.8766788771064714 
6.1157460899775415 8.657594208825103 37.90335686067238 1.9957061258900912 5.599579994950783 0.8066950911695796 
6.547403940779894 9.369150105465648 21.61226385016372 1.9961481213974015 4.76232700117469 0.9089809331452976 
8.045799379025267 6.004216816071768 32.583507088840115 1.9963086185181418 9.453186132979534 0.8958622606664333 
7.617386782251504 9.959305179902316 7.251006403514765 1.9963140189829596 3.5207979885240963 0.901982798529883 
9.421020762377076 6.597476014284744 2.068511038912476 1.9965904781935968 10.989908752163629 0.7204824748794406 
6.938746515069038 6.308811075605297 26.69738449164572 1.9965918304133727 8.289809690438425 0.8395291858862748 
7.158235558878555 6.189450098099961 20.325763860641185 1.9966617944976905 8.540112763865288 0.8379413943994817 
7.99624178279675 6.003230427163336 20.86815591669084 1.9967731095952939 9.405813378563188 0.8395114144023619 
8.01820224325698 6.003214365549624 24.891752818354455 1.9968685964797412 9.428224064665727 0.869071263134853 
8.839589000248315 9.812025761641266 29.989011246582486 1.9970846377130789 2.2704897875938137 0.8833391181448801 
7.764120909276617 6.016848712012923 5.726084679331866 1.9971299348027631 9.174822126170977 0.8488873486102367 
6.041168147187605 7.610395797625312 21.628366798369363 1.9972014575651755 6.666511945933896 0.9266678692116966 
6.348206957281921 6.8772962339149935 27.33252345737434 1.9972190671915078 7.466715074057223 0.9012147588642736 
6.242419821121617 7.051331511677006 39.29105021629315 1.9972631238580485 7.263124774626082 0.819370665222575 
9.124954910685362 9.650551836213225 0.614141039858346 1.9974596153869948 1.9426327776495533 0.866914676611367 
9.122945820529306 9.651993649377502 1.932612931805572 1.9975210470550313 1.9451647050233145 0.8540062352026356 
6.002417861814953 7.9774462471574985 10.366917271711948 1.9977094559928443 6.298543582939828 0.7786295302564399 
6.784087479728978 6.414439002706661 9.208709441794184 1.998110841042027 8.1086951406065 0.7540569294248118 
9.535082876839597 6.7207313813589415 23.643821791628294 1.9982511447277929 11.167095411695762 0.7419881687017684 
6.0017491886325764 7.995444066486138 14.401010963031482 1.9982560050355764 6.28226232287243 0.7254301917649814 
6.297579318517824 6.953474826951446 36.714810997745836 1.9983621079680582 7.37949370203037 0.8441317464351769 
6.501559317526974 9.322247376804091 22.854019180804613 1.9984150230508997 4.833322794177441 0.8079635327827117 
7.940983941534178 9.9976654538186 17.598678758249036 1.998537005045718 3.1983192253138455 0.7443832869080611 
9.696468975363445 6.9433000685958035 13.124427935537966 1.998654980080436 11.444519311679933 0.6931502424759727 
9.65525923970316 9.120194093305505 24.227500815557363 1.9986790530996277 1.18911379855561 0.7084698687024195 
7.126454400244242 6.202167937300807 32.07986532368662 1.9988201621261183 8.515162408113211 0.7717956701214754 
6.18441257829565 8.836113989563351 3.3006547555849153 1.9988607478747968 5.416962524231913 0.8937799766923253 
9.97833824121882 8.287121787023242 1.7729048783998884 1.9990650607852123 0.2881182382929701 0.6381064158681263 
6.027464116538136 7.674269347760756 28.076761569503 1.9992494264980722 6.608016542990009 0.9020971996456627 
6.003720331633938 7.8901604597998585 36.08956027947358 1.9992991869460395 6.390878508129933 0.8589682837639739 
7.122918990448072 6.2033254380308875 19.08413951389967 1.9993275316824741 8.513638072501045 0.7875551373287738 
6.549920951447435 6.623518543898946 14.471575960966426 1.9993575083114046 7.799411340088278 0.833148112176833 
8.997676560987102 9.732829440715282 31.322335867227906 1.999514038698575 2.096287679268226 0.8937377572391731 
6.216309867291876 8.90371561247385 9.736456329076873 1.999563051706374 5.344102576546735 0.8934043223391803 
7.530663656220408 6.056016493472034 9.826137744233435 1.9998371126782204 8.950255246807568 0.0 
