84

7.4816076498222195 7.530605651645664 28.233339487211985 0.03570692450656976 0.07540985645699205 0.7938611088124097 
7.305016806889334 7.613902037182101 34.27150794535928 0.22581434779451892 0.590030113924537 0.4357770093265799 
7.399646445107452 7.2887563375000015 13.430316070164757 0.23386902515293628 0.9983614111533905 0.6042825213347783 
7.283568886974024 7.630483129061964 23.167539099687456 0.2527217316644217 0.6568375121640271 0.07774587938106672 
7.253348430201737 7.6254368403234 32.4088786242166 0.27671537325249096 0.739140362536971 0.3327439362639439 
7.390231522163185 7.827829472477494 29.29423771647471 0.34571850073648536 0.6547552103410146 0.09431234500713845 
7.441318666867645 7.886627498224293 24.1462378154566 0.39105539408294154 0.6731721994458111 0.04386583080892336 
7.496958710987614 7.897172044876839 38.27847469586538 0.3971836888273581 0.6269359982053615 0.2875872687974405 
7.485842620839052 7.102211611069137 8.236946113076208 0.39804024137380845 1.861560081344659 0.9386130898650241 
7.0750791080671025 7.490343036860883 9.082908430877069 0.42503061223648286 1.3449308431493021 0.0 
7.069806863821708 7.656588397144084 20.14059321790745 0.4578057017284378 1.2784244495267254 0.0 
7.033404215198229 7.564438451963532 19.12972732421226 0.4710243523282409 1.4151254804549538 0.0 
7.434526925044609 7.030773066234447 9.920318275551757 0.4737727713948292 2.1669183010017363 0.0 
7.495652477292219 7.980452248404092 33.3304361669311 0.48047191796216704 0.7590711058981139 0.0 
6.980376467867047 7.5053336257759895 39.13989736406387 0.5196509046564268 1.6271977450726771 0.0 
6.917353058773325 7.491858349999713 4.0016147634618875 0.5827038223536272 1.8387599624534978 0.0 
7.4974707765556525 8.108870595902545 18.424184931122028 0.6088758490250283 0.9589491778407018 0.0 
7.493021921035795 6.8904796778101165 14.407436349892656 0.6095602650669507 2.8655068445952967 0.0 
7.470662194709002 6.882019259578051 3.4015183631223422 0.6186767349365514 2.886096616480243 0.0 
7.404810813261066 8.111664607010418 27.174707348694653 0.6190271179368694 1.0679338976378014 0.0 
7.496821623912516 6.843950807265312 4.550604201692963 0.6560568918641039 3.0884168792050577 0.0 
7.097316985125542 8.185936050786498 35.15318628801602 0.7954004502368337 1.6716485530722105 0.0 
7.478776913385922 8.372843573688478 39.19876807621492 0.8731015539642024 1.3926898910490335 0.0 
6.625391125600535 7.510162137749223 33.518172696909936 0.8746679096788303 2.7376879129928673 0.0 
6.61474363283821 7.541523440621617 27.6962041572668 0.8862296721062479 2.7426339788900176 0.0 
6.478959573087826 7.312558652586162 10.145483499945207 1.0381029872364829 3.4497718120678664 0.0 
7.499254877815972 8.542323507628943 28.18884552580088 1.0423237739603624 1.6380234777154223 0.0 
6.326787480298448 7.5058506990902885 38.37849341738672 1.173227108050405 3.6799509403032094 0.0 
6.779782379437191 8.50674224355302 37.443140346714195 1.2378381824468496 2.713068307849378 0.84453853045469 
7.135289668119879 8.690279396193823 32.2531666318715 1.24490106722729 2.3256258146771174 0.5776630246649667 
7.4955569730326905 8.804484465272118 22.986783566321982 1.3044920316448527 2.0535343271984896 0.7238528979872016 
7.483070817123225 8.809715269307901 19.919599404446267 1.3098246767759236 2.0743974452729157 0.6752914037154237 
6.6134366434383764 6.516648070075455 9.435161927124089 1.3239998501828252 5.2678056255939305 0.681628242070282 
6.497927620977354 8.394586186682966 23.237822158580457 1.3432920375719046 3.2411021244719445 0.6656642838900324 
6.410954229651217 6.707615878302715 5.16930981196451 1.3468085558952154 5.078275815707442 0.8114083297432766 
7.325625790954229 6.134979221260398 8.558303420493075 1.3761134005492455 6.309937365658817 0.7696655096512101 
6.480685418200025 6.544243385614539 4.152431273327032 1.3973091721632755 5.442270265512572 0.7451966693959596 
6.552501624075357 8.52915120925153 39.72226387486739 1.398894343359685 3.2383134668629987 0.7629797300598385 
6.113798368806201 7.758353848083081 18.34220409194309 1.41007151348564 4.170048699960955 0.8754345014618633 
6.446950540896348 8.444736519265259 20.077081678362845 1.4147226774714303 3.4099880527295943 0.6994869013365724 
6.206077523465809 8.075642485550038 25.262686116893796 1.416191952544076 3.8562952429053006 0.9017398153299022 
6.088587459024431 7.378854037304659 14.2912720951647 1.4166021689594053 4.5716810836111295 0.4086898080373937 
6.518435215130682 8.524699378914814 33.41022680126016 1.41897083974406 3.3128681611721085 0.6828809916002543 
6.338695826283217 6.679272708789372 12.419629390271457 1.4220480548947543 5.342379194688271 0.8232647828832532 
6.463000303333962 8.480671910123723 28.299899929501123 1.4272651352118042 3.402749178941662 0.6913151536421105 
6.518801445247008 8.539009422338552 29.342620005776492 1.4290875353027352 3.32632414352243 0.6950215946423204 
6.41753087897815 6.5493935534284144 8.405883000651173 1.4406220927881384 5.564003516576458 0.6728877852476934 
7.47861107153254 8.942974702108557 17.844270931291494 1.4431332153291554 2.288258065333955 0.6226055230520888 
7.470416576800349 8.947711781796992 38.36497662788596 1.448014013082064 2.3041205744979703 0.4801542361160298 
7.494624888847999 6.051054397596259 9.603903766804486 1.44895557231581 6.822667148567701 0.6214242794530379 
6.426984437137036 8.480378085572712 34.44477394460468 1.4534454199650377 3.4901268741386513 0.6746014206765425 
6.0464687234158925 7.480632142252858 9.227273087368772 1.4536603062345548 4.586176969691669 0.55090470596383 
6.045005844826648 7.469233856426683 13.28758499175332 1.4553193969637697 4.6027891618283245 0.5617576890563041 
7.4162293115396904 8.959045356999447 25.029304318021993 1.4614482139394358 2.3794541157805 0.6410715126565043 
7.489435023746667 6.037110590654043 14.950168528924642 1.4629275589378299 6.883318639749119 0.6083456236416982 
6.039918950380487 7.62421437783984 19.332342570319604 1.4653552071495026 4.479185535385339 0.6772028982386886 
6.376762332937364 6.558865605958662 13.58080335182412 1.4653998786528777 5.625679120551932 0.6444617372109963 
6.4587052899428885 8.532952104249334 38.65306263853027 1.4667258512980728 3.461790498494926 0.5946229304996562 
6.452395867888502 8.531804174009928 19.070461093177954 1.4704061585566746 3.4757352541521493 0.6924393089520651 
6.033305586419664 7.629394552180662 29.529594816987085 1.4723910665858435 4.496091272113532 0.554122074512002 
7.360651529987893 8.969227872167691 34.28008349282214 1.4758213091187957 2.45777105249866 0.6672563833689269 
6.397224216973911 8.480912844346113 24.231595689693478 1.4759080038511834 3.56374544761353 0.8211264547681951 
6.075327794169458 7.88559368266448 32.72595995009425 1.4759313609300482 4.246654593386304 0.835559489310145 
6.024253869924736 7.530569659975617 34.322028389985704 1.4760627170087122 4.606615942295416 0.6346425384055656 
7.447691478466491 6.02292639112412 13.908931080464278 1.4779995356774092 6.912589277376289 0.6783106140470005 
7.472933029431177 8.977773319096057 29.11269629336431 1.4780211783083324 2.348738721495618 0.4333731672264511 
6.021429615740107 7.465586538519215 4.4747096189367355 1.4789708136205857 4.680740410560819 0.6304284050119912 
6.020235384839946 7.527653729380807 23.418218458263283 1.4800229880067588 4.621974007569754 0.6012929919087812 
6.017587929836688 7.478108238500971 8.221184966565765 1.482573706426565 4.679535221625343 0.5951446459222401 
7.499530722159156 8.983817458355192 39.99403059980648 1.483817532563003 2.331244407632502 0.5110423221352729 
6.017154406842576 7.567630456150301 28.523069627334245 1.4843870559074166 4.595685593745951 0.5709800129999744 
7.49523010627111 6.012865205924182 12.804500599077087 1.4871424436270757 7.003223761703236 0.935299124502762 
7.443957849131747 8.986931712656057 24.028440298125915 1.4879874464444296 2.3933806238754833 0.5377076132577336 
7.474733376647284 6.011861450977177 2.8274139136873586 1.4883530304814776 6.988430582644868 0.8568067018317043 
6.026433814129659 7.712732737935459 39.356663001080975 1.4888426787038258 4.463873892395072 0.5896838276806168 
7.497596298448951 8.991148994312557 33.21025355004484 1.4911509316700626 2.3446981087561634 0.5273560849387312 
6.009441558210488 7.549636214713969 24.432164872259534 1.4913846660741523 4.635677727746339 0.5586344153158385 
6.558758040635888 6.342657246293733 3.0800528576752697 1.4917703159749478 6.011243158613622 0.7157502546129406 
6.041651653575564 7.1801009982329855 3.487496050822706 1.4930221936898378 5.012866231170872 0.7709767444006143 
7.380928355416499 6.009514898452391 5.121129214910795 1.4952337257028443 6.926925076313651 0.6616931531719892 
6.553577910531494 6.342098458346642 14.603258411425898 1.4954767639776807 6.022512402386089 0.7129131733453045 
7.353898009864071 6.011355306353892 3.8900309744832455 1.4957970502185094 6.902442231062918 0.7003697578902415 
7.4081801235869165 8.994477261881565 18.891822354266168 1.497295286837414 2.4438234605302 0.6263478346641886 
6.543593002807141 8.655189623249948 18.059820029393805 1.4997257782487496 3.3928784691553826 0.0 
