433

9.903187856815922 11.018289575688609 5.339907536221176 2.2111628424955634 2.5428859056233613 0.0 
8.44133982951617 6.857409269742115 38.4521460258406 2.2142258745376537 9.869529745796513 0.0 
10.085371911475843 7.069744044999993 30.051678112077212 2.2144796765908037 11.569819601026428 0.0 
11.193535817062925 8.681590191053516 17.776426705702754 2.2165252507407303 13.607323660739286 0.0 
8.125135388381544 6.956922408649964 25.759344553687185 2.222510772288622 9.574139147519656 0.0 
6.834119429822691 8.501124099629074 36.103432080923255 2.2225921371773296 7.485641914949191 0.0 
7.623678334164225 7.252656602412523 20.369040618150798 2.2242909604953924 8.99773429977871 0.0 
7.618035885336001 7.257007707191498 20.391837972132606 2.224375630825172 8.990951913067295 0.0 
11.219024424137825 8.822669585503908 39.18696051991488 2.2260987109347985 13.809472214024417 0.0 
6.916899536886385 9.785434180308764 3.8045729067232017 2.226255688599461 6.191273732272322 0.0 
10.316092125982836 10.795672057981184 22.6675261801061 2.2263280584604788 2.0889933926359685 0.0 
7.791650574502288 10.872250088730356 12.924239976732267 2.2283241974298704 4.777372676741656 0.0 
9.208419258424147 11.218563685199602 28.83867391850726 2.2283319798828236 3.2915313476449732 0.0 
11.224295282588962 8.865269586181327 37.587937397933565 2.228372004077248 13.866461599575787 0.0 
6.774622271578423 9.1476405933776 35.317549223301405 2.230269889266247 6.858850860167653 0.0 
9.507509543344511 6.8249366745228315 1.1738470625393802 2.233487498604269 11.037043437783112 0.0 
6.942062289673672 8.131571142961034 20.172690577772727 2.233668798036356 7.909222260115715 0.0 
7.289943235191906 7.56208608338021 10.514704899749745 2.2342539180842422 8.5812218487922 0.0 
10.027284289467644 10.987024699141921 34.951175255254974 2.23686838378727 2.446338503512832 0.0 
11.182922639621452 8.510792064491964 31.142541245136137 2.23706854046449 13.562722714065389 0.0 
10.531348827347298 7.368236610941727 18.527583156053872 2.2377848397218356 12.231848985467856 0.0 
8.074617495460021 11.040862308012548 29.046505109837433 2.2408595984521202 4.4738687177456224 0.0 
8.59942561066174 6.794306581940701 26.63220428168703 2.2417723559415723 10.16136608791685 0.0 
11.027859729598518 8.042949007695738 16.98442839126953 2.242356279630414 13.100355277650284 0.0 
11.17988199244936 9.549909631968236 24.948352688016683 2.2481739488608135 0.5555463157639196 0.0 
6.90489589005788 9.821402607950954 13.193981242694669 2.250369630937324 6.228913783443687 0.0 
6.75436603331358 8.8373397394528 16.161936485363192 2.25151732675924 7.236152382564338 0.0 
11.122283662382564 9.75383761782651 10.063043420548944 2.252189844943425 0.7686742720978241 0.0 
11.254136078299801 9.027496170007497 9.287174357453104 2.2543037725333086 0.027496851827223168 0.0 
9.9152954976223 6.920822932070356 17.78317692330244 2.2717269043113792 11.64732608626993 0.0 
10.680320322460776 7.463782687763436 30.82956268473906 2.276716938156788 12.618835376739503 0.0 
8.456639780615298 6.7852267664460175 15.349755779563857 2.280451885937735 10.197738884334186 0.0 
10.15766871612928 7.034896110581077 21.06853907399953 2.280752102380662 11.962008912166311 0.0 
11.13964202618292 8.15481357167486 24.58463149342918 2.300523440183376 13.589158470226753 0.0 
6.925673486216269 7.860688632289689 36.88481292021658 2.3666138000062666 8.623598115310072 0.0 
6.89253469755668 7.861954143238984 36.891767221205264 2.3951113487880775 8.710376357225865 0.0 
9.915893901067548 11.746112260823404 18.393296539993052 2.894821961201994 3.6152688312250625 0.6699524349730048 
9.915089785094068 11.774322808491737 18.42102468617624 2.9213449574641164 3.658081092586354 0.7383563967087284 
10.166460173748206 6.32036772830539 36.72129010337586 2.9225089304308245 14.971886035668915 0.8033363979381408 
11.67540862849473 10.179463363978112 8.086697947275944 2.923857923427642 1.2140493933537613 0.721000028896849 
9.885771835833452 11.787532272233467 9.304940526481673 2.92488083755541 3.694489561943074 0.7604343002225362 
10.423940178310595 11.55697242858239 25.48418255793569 2.92672404437756 3.110177909794494 0.7790305472098693 
11.112881611860923 11.02650431351845 12.103912852124395 2.927625050864421 2.2382689331053385 0.7487911538673886 
8.76221087507448 11.920328362787771 7.398256490556612 2.929993415425292 4.840473826726768 0.7609426296394226 
8.731544230385545 11.918563170646445 0.47500642673241344 2.930883737252829 4.872653981515576 0.8021559210299822 
6.845473365724473 7.011480513032687 14.638054240550368 2.9319268012437423 11.39623346220242 0.801496577694898 
8.446131067009484 11.882274692044044 4.732870658851056 2.9350090622227487 5.167511600408282 0.8286425208572833 
7.158291274208445 6.713363677089498 21.13256022028648 2.9360852685013104 11.845196393118652 0.9087702415036155 
10.87061007237088 6.736926406761784 10.146242353868665 2.9361001568862584 15.864125208794349 0.8190668441828454 
6.330711247020037 7.776535586815596 19.436663507372728 2.936318718585225 10.48667306705228 0.8394212854795381 
11.260357483413676 7.125578959296385 6.5866565281242515 2.9364383512440106 16.417205660673172 0.7873533578548888 
11.824677822724745 8.188276827233734 3.2485876303693715 2.9389963102050203 17.643844169374148 0.7046176096208034 
7.000588752972405 6.845595615153817 26.986338864711286 2.9392352046382584 11.65197176869082 0.8417322538164276 
6.123059599970395 9.609843048644533 5.285282018950497 2.9408663025208357 8.624703401290105 0.8335322558903467 
6.057829828096187 9.061637770472162 8.338172450011484 2.942815749446317 9.18348606121781 0.8157747026054385 
6.394676692405483 10.370945623313114 15.135063304370213 2.9440111139696157 7.822820553099184 0.8217796110536386 
11.167585548333436 10.993137764192726 16.82971731851866 2.9446604653839357 2.1893416047556915 0.7975430138701302 
6.213468069408577 8.047163199248553 25.260381912763805 2.9449377190480295 10.22209186513263 0.7666318492490817 
9.717782144771771 6.142808353482122 16.342356151321894 2.945972727688549 14.60765008230414 0.8636561024598378 
9.678477247549218 11.868295603477646 12.433040459573903 2.947448225901714 3.945224181661139 0.8045442856260072 
6.210580094239603 8.046742683074738 25.2670290119665 2.9478064595430773 10.23151296134612 0.7733077078115451 
8.730284590375021 6.064435724418752 1.0595009765098524 2.9479287675006716 13.621693906575445 0.845746085707365 
6.207133888978323 8.056495825712593 25.266284061487895 2.9479316886575084 10.221604064593311 0.7793088232299341 
6.1426887743691765 8.273484831792908 1.9518941242858645 2.9482285748820267 9.99620983615927 0.7808987757862901 
6.7741758049412475 7.063630787883797 4.698880818639552 2.9502235632135507 11.380660716552928 0.8398841298636897 
11.655254218176072 10.28597793030877 39.7909112021121 2.950273580599439 1.3306341436184397 0.7993141581481618 
7.626497425499206 6.388727830740658 36.79073950790571 2.95046634688632 12.475062515961554 0.7389404364793841 
7.847177105874064 6.283762752095329 35.56611763130997 2.950753363486288 12.720728692866217 0.8140053467891099 
6.1207692020275815 9.64980085290126 6.653708117246147 2.951645496400964 8.617700251428356 0.8758995323114556 
7.615945511522213 6.392282054349922 18.663877653230244 2.952253327738146 12.471624743587782 0.749749514414898 
11.237055203046317 7.073293213095965 39.23290208069312 2.952391407686094 16.45127156945195 0.8021585898609088 
11.946549786772717 8.810688322360589 24.689673253023145 2.9526250282115107 18.36244856940933 0.8340327664439081 
7.838982634122637 6.285095936036631 17.20152063831103 2.952738627172007 12.721223114663854 0.8331553435657276 
9.23493351132058 6.0561121330784555 23.312083753749917 2.9532472852352374 14.152031973075857 0.8491399616649493 
7.804229773126824 6.29881323601632 1.7866721608647396 2.954027144322974 12.68942614827585 0.8581083335305824 
9.823675780307791 11.837192549054398 9.280002267449333 2.9543363639699955 3.8059226175214285 0.8057427304161701 
8.017371631513395 11.786352227258641 26.51890722418733 2.954541799484962 5.642692594305487 0.8309876820676148 
11.347363489655546 7.205768981406335 10.9109060781783 2.954552470451577 16.63577578540132 0.8565234639779206 
10.3961765736923 6.395683113294014 12.78598405919599 2.9549577782616687 15.379073307259041 0.8175735270283989 
6.099935544172213 9.568163118992642 38.37600915294086 2.955195962662909 8.712299052248671 0.8387034599797436 
10.236087576948554 11.684643768444397 38.891939132642364 2.9555413482700477 3.367259043101779 0.8345579351850513 
11.584840874817198 7.566678095311188 21.844558282314047 2.9556410523922745 17.07440020381876 0.8779917275683896 
10.8978732343202 11.266610305890461 5.137963009852903 2.956255248167495 2.5829131567779378 0.7891803664971672 
11.952374105260533 8.847422125627043 24.702801846563403 2.9563140674091297 18.42242341963083 0.786256884132763 
7.8444196442428105 6.278752518226577 35.592991118983235 2.9564427638075648 12.744674886096654 0.8389632568690496 
6.2095557457261865 9.977568815419685 1.9995832480909215 2.9567245264127644 8.292507304171327 0.8440586335622617 
9.559393157470687 11.90442045451119 39.61059600587117 2.957799668876853 4.08331810602483 0.8764401106291214 
6.135855007298444 8.261442313961536 35.40251458584889 2.9578360324439696 10.03877186976489 0.8226353830480695 
9.676499957255793 11.879703841277077 12.456309227683583 2.9580984442092273 3.9640300037433533 0.8940815594875549 
9.228113417847005 6.05045558403436 37.09049027869813 2.9583522429142715 14.169246582828855 0.8558278004834444 
7.3687955990474165 11.46808021751238 3.0485152307853696 2.958419807559949 6.374833005756582 0.8255867151363784 
11.914542088693011 9.508015238199324 30.073285103283737 2.9584852659774654 0.5105455066925089 0.7525091299183738 
11.95038837197357 9.219869425467333 26.705788823898736 2.958569605355301 0.220072315754674 0.8049403544765058 
11.183398658259108 10.996576131850452 25.993518813941122 2.958639205980109 2.1915623895719385 0.8406693471577354 
10.612956574852198 6.519184048079568 25.09498374881901 2.9590668629927546 15.650164243077995 0.850317109814888 
7.572975017853048 6.407230583627316 23.025974760312955 2.9595360356226514 12.45742460244714 0.8037721773260244 
6.088072777585854 8.466204977224042 18.6979107567523 2.9604488299879375 9.837254864025429 0.8682521052012621 
11.959863467521371 9.064989897558641 36.93571537260218 2.960576875062075 0.06499511824753057 0.8927710164484005 
6.672553986110136 10.829761890281327 17.684500638181397 2.960579930131545 7.328451978918778 0.8950763634186785 
11.921353061498701 8.518427257855132 1.0035627442642365 2.9607796297436186 18.119405288316834 0.7773027997568138 
7.525176773016373 11.567580371290864 4.275316427764935 2.961008698718823 6.194966306397987 0.853527362435744 
8.470422985282056 6.0865432485790585 3.881841340652244 2.9611960517530465 13.421866267353423 0.8775636931189748 
11.950624776954266 9.25142545670193 35.77927687018375 2.9613174998054763 0.2517285100654796 0.8756245816387996 
8.771993308129614 11.952542375387965 16.49999531876947 2.9613330663738733 4.879883675127456 0.8589947602883021 
11.791981183469273 9.9872417848069 9.347321359903297 2.961385701072256 1.0065082508078582 0.8478621989035002 
10.84948266448031 6.686614117965911 28.315470609666917 2.9618136952563097 15.95471780559874 0.8584550309208031 
9.262810078077257 11.95023996102701 3.9064111289684433 2.9619225116095818 4.3894208481594 0.8881570060241307 
11.805343377525164 9.950730077315562 27.426302610217633 2.9620667017703597 0.9678609413327948 0.8407225446119109 
10.879536859950782 6.710527863443016 3.2946983273360715 2.9621514937599738 15.994945749978655 0.8332295437177948 
11.962147940540644 9.016785162998941 23.517321151569945 2.9621954971517486 0.016785252825401997 0.8881488701240079 
6.825851020870287 11.012173934592747 18.861305719207778 2.9623922303613384 7.0945344565717114 0.8516393938408703 
11.612347763262315 7.602456055558967 1.3992820161014023 2.9626828910407244 17.159710536043512 0.8892327207704963 
6.433830666552041 7.518683667975056 2.644959514329763 2.9630260078933786 10.859830436442408 0.9065329314289636 
11.585279282490461 10.448687809876926 29.552051390463294 2.963505582744932 1.5136476542327486 0.8481454690206124 
7.2842265256023495 11.416922489234377 8.90213419201002 2.9640163519139833 6.485670247816575 0.8471467867096766 
6.775907315975845 7.0405777287834415 23.708061619987333 2.9641059198465287 11.452741914344088 0.8497483449448606 
7.592367007106176 11.608889978143223 24.0340905345018 2.964411840608414 6.123238765809404 0.8635137666420153 
10.41162760449537 11.606811867079406 20.82681513091918 2.964483193428382 3.1853101531107413 0.8744797459273013 
11.652259619418961 7.675597798403837 12.731734005819021 2.9645441943734268 17.253821916815117 0.8697071793745168 
6.035465923720308 9.023499057336961 21.374095764557467 2.964627210142819 9.290151760602484 0.8658762026986287 
7.538874461584809 6.420393246551997 4.266455244898964 2.9646684201515034 12.442805857651233 0.8406885542616647 
6.217761366389597 10.024243880192762 26.39847961579968 2.964781162323219 8.2683380770081 0.8772624418784525 
11.89888358341823 8.378176904181979 2.0991728030234142 2.9648254573759347 18.00207317526138 0.7883957955729599 
6.191795700666026 8.049112791003324 11.712298732296361 2.964826786008131 10.28227140626997 0.8486959291279869 
11.79397789512639 9.992087565305363 36.50739571172427 2.9648862061955104 1.0116009280001634 0.8398771578093817 
9.738843499855692 11.87139593125797 0.9283307703687598 2.9649290567100968 3.9105874814604356 0.8717727510065275 
8.619631019166254 11.940633420273878 5.991636022703389 2.9651316115835655 5.039037846938015 0.8949361858813535 
9.964714833972558 11.804068514661378 36.43319110102345 2.965379393231487 3.675409628391126 0.8936490093871314 
9.785248562420428 6.1404376013248125 11.98583068278893 2.965419433520381 14.76893762780135 0.8558445953058167 
6.047365856181967 8.724886234886805 20.110533434643344 2.965423405012311 9.591662335663035 0.8338028085876245 
7.671767332329415 11.651383500623185 5.372324063388035 2.965474074552695 6.035363413531542 0.9042299623779967 
11.615827716038261 7.602524381385679 26.51483109730256 2.9657195997962136 17.179000795364058 0.920996089176231 
8.845927226550195 6.0380738389304405 6.710863359466444 2.965930714488586 13.822477062400068 0.8809566225939565 
7.225791321314466 11.376805213874652 7.496555480587098 2.9659769824165547 6.560839035062578 0.8835904588233966 
11.959275346788479 9.200647138813217 22.443878825265024 2.9660697652658126 0.2008004877584053 0.857264879370005 
11.961953181627463 9.156867039006544 2.9232038515632155 2.966104165075751 0.1569402570700582 0.8840329073640542 
11.48249168013382 10.623512511597744 19.206548685292006 2.966236305024948 1.7179597706549075 0.9033412882909805 
7.64066096761575 11.636503626245036 38.63273823981573 2.966303082317543 6.071527783825811 0.8851898754041865 
8.530519587597459 11.92902372124401 37.862003225278514 2.9664105948502417 5.131089626467993 0.8918277295845654 
11.449806395610077 10.672837493957795 4.389921029358852 2.9664687183860554 1.777268849857343 0.871514542302971 
9.469929528444093 11.929165480740602 6.674773934981715 2.966621677138157 4.188041105011202 0.8992462111679466 
11.72293146580085 10.178286817227962 31.014505022995536 2.9669370723191255 1.2116896912154687 0.8208483568895352 
6.384200941003835 10.400188111279453 33.231255915327665 2.9669734518551953 7.8628357833562355 0.8784525984917604 
7.169807203809372 11.335338114369213 21.411662153850628 2.9670540574201922 6.63289628283507 0.8564300487798951 
8.777149472493862 11.958768939161876 21.22744765828441 2.967149472635123 4.88384806675748 0.8696495705493308 
10.931570447148383 11.252457956806298 10.777215340885355 2.9672430368065577 2.557590683679269 0.841485182906755 
7.34875421193153 6.534515472656777 24.458764493941842 2.967360208532612 12.232225221595169 0.8277117166517252 
6.1100011236555805 8.326697011005118 22.12498472084325 2.967394550824247 10.001563374384613 0.8628535511835683 
11.618977244879895 10.395369494914872 6.746276780560052 2.967507006990493 1.4527002966697502 0.8797601873676297 
11.872625321384108 8.255091336914598 27.473897414945625 2.967636290618656 17.89324726132493 0.8560898131367591 
10.818733842164216 11.345216746602835 32.39507002683162 2.9677995850764276 2.704167263178075 0.8412360319308135 
9.468004120892358 11.930678834499668 6.683137650052572 2.967811700252656 4.191861906737568 0.8998047906808964 
9.82189154936775 11.851807985727584 1.9824826291315745 2.9678804737357165 3.8291591160139475 0.8467495206133379 
8.01263212405278 11.798917552987218 35.37776304549146 2.967968124975817 5.668625386686198 0.8599425882258389 
8.49512437654145 6.075237121708609 36.37525127951609 2.96801908507914 13.47911771577725 0.8799028052439911 
10.420054327255615 6.393717536064505 26.121484054900144 2.968040190795108 15.467276523666769 0.8560316347370102 
9.211465896874047 11.960549240539725 10.1143875929669 2.968091917579555 4.450622673009153 0.8832187732227204 
7.43120202958527 11.519618075153218 31.841664835215198 2.968097423707011 6.315196826231855 0.8658654816428272 
11.807621948760767 8.036840894148689 37.64603396121832 2.9682345713146567 17.66905145933518 0.8627141600267585 
11.862709142545281 8.21462216632603 18.422452877554093 2.968488163432483 17.856719638118935 0.8573624062240573 
10.045620950191285 6.221597334113476 10.561852020046206 2.9686435530868733 15.057948502568314 0.8969816935487391 
11.968421070878943 9.045607787158817 32.56918747243256 2.968771416644875 0.045609581307211045 0.837912743028679 
11.199943728322834 10.99346016273249 26.007068625430293 2.9687768235737106 2.185607013234941 0.8807947026301788 
8.743286134896442 6.042334331068162 21.512320675496632 2.9687856469799945 13.733037903316877 0.8994814334184347 
10.133328028417278 11.744222930162909 37.75250953085535 2.9690388866480144 3.500926614525831 0.8287718912913332 
8.554539082304498 6.06451044238055 13.538873622299697 2.9690965582289435 13.544388624472589 0.8770801557010038 
9.717943838191314 6.118786374517276 30.089656535720756 2.969315629983477 14.717700109853673 0.8829406982700565 
11.267127905407854 7.082448857740063 39.2585218531127 2.9693216940340754 16.57217313614767 0.8752109740848212 
8.78031852351888 6.038722466444627 8.067735012051088 2.969414855126967 13.773155474631285 0.8834726074915712 
6.693534383288625 10.870281120031335 2.5248501337820315 2.969467142269372 7.30562841588112 0.9250842612701072 
7.340309433652751 6.537513943369214 10.628141641962031 2.9695808382872997 12.23269416507923 0.8390064969211994 
10.396534018531222 11.620728045359579 16.40124376220823 2.9695997630403372 3.2107071272611023 0.8636009341630018 
6.0375737494591615 8.790986390005513 29.23229351985335 2.9697905614801137 9.539058758717744 0.8778835235468396 
8.238064805104202 11.870497990635313 3.4179414586107555 2.9698996541065643 5.435658706304412 0.9111444418757023 
11.458019649581168 10.667000297372555 4.386085105946535 2.9699748465546474 1.7699172956210134 0.85656183309476 
10.930114019634846 11.257414852387457 5.112954452969703 2.9700609328043175 2.564351897242453 0.8597498305212576 
11.181116163335169 6.983770615328053 7.685141089897236 2.970260703974743 16.446483633494893 0.9062554043961933 
6.081228488852737 8.448966479810794 32.44235718974751 2.970330802226746 9.885813548092138 0.9001533959689401 
6.781342970466248 10.974975741265444 3.850003432932205 2.9703481602813024 7.1711234469293785 0.9375016409212872 
6.0294229904222405 8.987637721470927 30.467604309431493 2.9706027327400033 9.3447860361216 0.8887649685053008 
6.1759044785509545 8.07817130379694 6.620598346198612 2.9707378981343986 10.270150871962382 0.8275395806437742 
7.806152893178307 6.279593060494927 1.772680624752006 2.970839078606227 12.771182833365266 0.8420973510296897 
6.383104009491134 7.593641966119941 18.198537605150584 2.970856365528353 10.798237071575251 0.9252327092802111 
10.393908914124893 11.623570745871374 34.25585206539204 2.9708762208259225 3.215740784570599 0.8505548281251533 
9.552951730736673 11.919013932968975 39.632217748681235 2.970925437871447 4.11052374691932 0.91342751502008 
8.211684348141986 11.864475197650796 36.50632937273674 2.9709694924251444 5.464659824766731 0.9033423239080268 
7.80445006472042 6.28006752018319 30.952238463416002 2.971089420146998 12.770509063652597 0.8436130655566619 
7.277009596129025 11.420643172329234 8.923810523563908 2.971230267006515 6.505186330155805 0.8700178976404699 
9.949995368872111 6.18466505494486 15.245252880090717 2.9712963591212347 14.968878155252213 0.8965422688140144 
10.176051570387685 11.728673266588386 28.741667159366237 2.9713221117888695 3.4581930404581556 0.8434963844412706 
6.028668893189412 9.030516243327321 1.2473163310441535 2.9714878070433066 9.30468748507959 0.8736026221386248 
6.02909556430469 8.940958569213512 34.664977122847084 2.9714910493863806 9.394259767253459 0.9288344228070747 
6.948221630660388 11.149507701656711 33.76910047963882 2.971561514822037 6.93246556450503 0.8951239403528692 
10.814292438309337 11.353515561454271 14.284895487089202 2.9716481201033655 2.7162693297397524 0.874778127191445 
6.060930562066616 9.440330245207958 28.41910269430496 2.971871445039124 8.894452020259795 0.9069220270964463 
6.18258748556385 8.054251531892048 29.9448083415029 2.9719107391424053 10.299018588268819 0.8716794675761952 
11.869220568673835 9.774646392944186 24.229455614602905 2.971952843805309 0.7836974678789552 0.8118956399880355 
8.73365401142242 11.959999362105206 12.069168718100848 2.9719583458209184 4.935045071075685 0.9093286970519744 
6.214409132359837 7.963939937618678 34.345254136419165 2.9720257291520635 10.395176864076419 0.9196873494281597 
9.774273844543046 6.130577647893267 11.99292448517609 2.972050575127083 14.788769353046554 0.8892791855304764 
8.256755855523789 11.877675374269609 3.4183667910404267 2.972108244659986 5.419793987982743 0.8902719932255544 
10.392233588472083 6.3741392994349315 8.015626941217043 2.972113521324837 15.45470604174713 0.8943606691052013 
6.826163361975995 11.02688407213398 18.78373191652176 2.9721750908528133 7.106954908784758 0.8948930039514269 
11.967206573848225 8.8273209639037 24.729893101868313 2.972226926295378 18.502276227716184 0.8454312659889366 
11.917653761540317 9.567940138224193 39.143268577054556 2.9724164366448464 0.5714538843234749 0.8459293531212495 
8.734660004422649 11.960602997023651 0.47996087790176745 2.9724695825589853 4.934837955757061 0.9095206787895995 
10.903470425272758 6.716921190445399 37.35517940782354 2.972481877240857 16.07328282682699 0.8605842665889476 
9.234656351116385 11.963269319112394 32.77219790710009 2.972545821465509 4.43436330192926 0.8839457578615251 
6.110303123940126 9.696912095264954 24.913489741258566 2.972546804347542 8.635071342288132 0.8713829915112936 
10.639670944358762 6.520564247996367 38.59980156371951 2.9725615980309286 15.744685645147452 0.919029385088315 
11.962215377824128 9.248429586307273 35.76166738281894 2.9726145400926978 0.24871968784170306 0.896412833608812 
7.620531597503309 6.366787103368354 3.238268758661988 2.9726660142831385 12.573860284158474 0.8827192149673301 
9.436301681426471 11.940484293895727 33.80569890910306 2.9726767466145754 4.231586209658889 0.8905017684704868 
11.077515542525779 6.873326509323633 0.8228251385247347 2.9730137849296616 16.310236254600202 0.8791802516816148 
9.685414776752735 11.892951348107479 30.617003903016226 2.9730390038995242 3.9784023160538666 0.8777495536203841 
10.602585840368842 11.504143016914421 1.3728538808993918 2.9730478679146692 2.977512630520952 0.9002847270427902 
6.43987635436781 10.511797387743217 39.86891057068129 2.973174132558043 7.754558087791885 0.8966163965760169 
7.387002464287093 11.4976545878763 3.02008906483389 2.973220390511848 6.375229046555145 0.8720460081000524 
6.674492676103565 10.85267479863714 2.4989142574461454 2.973279035509636 7.340675425256981 0.9442550934112387 
11.421265865688508 10.725757693127532 3.2840637214703037 2.973342901136223 1.8411890053622635 0.9105532201839004 
11.016203782839389 11.185339997220067 33.598349710698265 2.973346363507904 2.454890410147442 0.8913427698110796 
9.919390086638964 11.827663629077316 31.825148659592635 2.973375141252223 3.7358575828914926 0.8617556537491953 
6.2974782782443945 10.239909293778679 22.95150764998612 2.97338169654682 8.062167282655427 0.9552643463044737 
7.363933751495555 6.51707289117739 33.4806370667949 2.9734894984212756 12.279810406887059 0.8868856653090218 
10.8417441936783 11.334490090198004 23.366012855466174 2.9735274769506352 2.684629263984661 0.876330390942824 
7.331420410419408 6.538747654954708 24.43989217968447 2.9735367750804556 12.240929354384914 0.8525777013834365 
11.877568393463282 8.249916119617497 22.792831889384054 2.973722530208315 17.926175239779376 0.8741451696821791 
6.55817784972168 10.697266178371443 1.1358380905375185 2.9737531662586663 7.536011272214552 0.9051869387242474 
9.466317693534195 11.937006736284758 29.56840685876044 2.9737956823368226 4.202977129674192 0.9343268075042074 
11.931356481757101 9.502018217524546 30.083168587006405 2.974033139335516 0.5044333660250615 0.7715427967660908 
11.48957299404446 7.373034191143789 18.874062657215056 2.974053031783839 16.965025015745614 0.9432325624521245 
11.923185158776958 9.548125887079467 34.493121156050755 2.974130706707512 0.5512772082651445 0.846806477654855 
6.179585887497831 9.944525490103727 17.306600020861843 2.974367860143916 8.383085406156894 0.8845124626140929 
9.423257809377775 11.944206254931332 5.2906710660491285 2.9744743476412836 4.2475940176849605 0.8823163788500564 
11.236109015446901 10.96150275295867 0.4013058831366578 2.9745044257535325 2.141856184299783 0.8690136387795555 
6.117029451009914 9.73236481413013 29.698888128368885 2.974538183873264 8.604813723834368 0.9057256124611762 
8.521083480838298 11.935742893545834 37.85389082157132 2.97454994399671 5.153422280705541 0.8989479242290505 
6.109307430014592 9.70150682215093 15.87256769617408 2.9745949901949933 8.636787974595201 0.87150854429373 
11.020159938088275 11.183836529578146 33.608943060052 2.9749265811741923 2.452267915930207 0.8969142586875072 
8.086532734563717 11.831431409214986 12.888734657114284 2.9751346641980443 5.601795289561323 0.941096379905277 
10.848862604940054 11.330919121310872 32.40358573955957 2.9751431700068425 2.6782875833975623 0.889304632658221 
6.105195688584834 8.312909126667513 12.86422911452479 2.9752287087893987 10.040306246888942 0.9129065045559409 
11.956312741405432 9.337223587879851 1.6703795171562206 2.975483956135317 0.3379497099451072 0.9165893963473617 
7.4074985286150135 11.513489129104517 22.78965791090721 2.975514835871254 6.354340412563943 0.8818536097533395 
7.667417703853481 11.660473169491294 5.37887203137187 2.97554920335493 6.0556861006602 0.9054398747252466 
10.841584167191671 11.337193145406797 3.873130672959178 2.975551048761812 2.6882560866709184 0.875669984480121 
7.1736615105045995 11.349189393225604 16.955703918475024 2.9756012977978146 6.640426058737766 0.8730380012717649 
11.728550710136036 10.187408386788004 26.38821482825613 2.975723047395094 1.2214176412521205 0.8600228272057047 
6.194530195368207 8.007508361057237 39.68041662955151 2.97585289926637 10.360795748125348 0.887333518579076 
11.201876847596823 6.998013424324032 34.92884884306879 2.9759388268527474 16.502475184862465 0.9086964652439806 
6.3983898361740685 10.44513871767524 24.263913873921993 2.9760378623005526 7.840529396704795 0.9034913694361011 
6.182790345821081 8.040746975138418 6.643716949695005 2.9760437834993305 10.326208564302842 0.8919406271178716 
9.432689347603667 11.94451494571743 15.637841483853897 2.9761364782353303 4.240675912306326 0.8703746836376869 
7.1650948592826555 11.343211482575805 26.08348368007099 2.97615808173995 6.652100916080737 0.9004741040719907 
6.20528760702803 10.023469924648799 10.195837543627697 2.976223789652204 8.305285498445002 0.9076160520701094 
6.821896278219192 6.9717519100686065 28.057608342251427 2.9762268289137097 11.581629093413174 0.8848303971673821 
9.843266557105721 11.854356689681618 9.284197044743443 2.976314936001085 3.820207880503556 0.8802349917280655 
11.736196143362207 10.171730037519675 12.848952309540529 2.9765282823746286 1.204321228107979 0.8880126178611186 
11.791693743911416 10.032687446554688 9.336055159208463 2.976574763392609 1.0546139510747032 0.8711469696050874 
7.185153763170042 6.640685324379204 25.6023215487103 2.9765806896396283 12.075083983840901 0.935069760401057 
8.003202627187676 6.195130320569099 20.504351766154976 2.9767262086117965 13.01105733003303 0.9011012642943776 
10.265550623175258 6.305675014691866 2.5915817461876856 2.976744111655379 15.334733246234421 0.9100090103263252 
8.443890376682361 6.075579055173531 3.886675231132166 2.9768264604585566 13.46856808857844 0.8924854716735171 
10.65745346418607 11.472811696875748 17.686822801979915 2.976902698132399 2.9182657695311995 0.9286718255267403 
8.924214623974972 11.976157491155721 1.5586609560205318 2.977122240584281 4.752246243209186 0.898876690177913 
11.495101455304287 10.624226723949457 32.90079273158257 2.9771872166615854 1.717998240325679 0.919543367595866 
6.625537834801712 7.203860744159067 5.847623018526775 2.9772784217017643 11.281512122844287 0.8803900914577408 
8.538769205901149 11.941454681903114 39.11142347230434 2.9773964282766885 5.139979096474285 0.9088217015631945 
8.727558118693992 11.965007127073747 30.24206721846339 2.977497580567896 4.94986574432135 0.9009098509952 
11.36555649175122 7.191782403780211 5.165781446280818 2.977500359520586 16.76492116634578 0.9446942605197945 
6.022941254088888 9.05494757269391 1.270525308779611 2.977565786401837 9.299348108283082 0.9103376537126568 
6.53569925239384 10.67127111936486 11.73197172493434 2.977570373488317 7.5798603123550325 0.9131707242324886 
7.327508766953649 6.536513489407817 5.3715907857679355 2.977581688633673 12.255596683323533 0.8724392385865951 
6.82772672479968 11.036523291553701 14.512367285077175 2.9776162108623447 7.1118492776232465 0.9175778238103725 
7.99833870093202 11.804106393204163 31.027152856809096 2.9776396730395405 5.698850540193483 0.8790787930506231 
8.574851178501623 6.052806581235357 13.553712394740508 2.97770055042999 13.605476551658484 0.8993174716483852 
11.958563328672668 8.66290232514345 6.693915935691614 2.9777057967771725 18.37165541899231 0.8737244010016435 
6.490943880896033 10.603771549089865 30.096763915382148 2.9778256816817112 7.661504910499396 0.9318587507252808 
6.628229675219687 7.199226453488096 24.8964736079595 2.977932141491065 11.289309117606127 0.8837773716334612 
7.572484471084822 6.38644351894583 36.81734564935161 2.977999003518006 12.544733174614333 0.8961488484694284 
6.526454838631018 10.658470393262716 11.740970423039911 2.97807819082389 7.596936034746992 0.9206088937532467 
11.725268222903486 10.200999677863164 26.38127150534129 2.9781684158212007 1.2361935936128639 0.8809324972823636 
10.149400290464493 11.747525435150989 14.965428908946805 2.978257383860819 3.4982018585286667 0.8808555806167432 
7.633779984057801 6.353556063464874 13.931318565483643 2.978291899929328 12.61553231940946 0.8909156445317479 
8.26989232719309 6.1125571693627645 37.77377576559494 2.9783188738094992 13.297371723930663 0.9477544294752108 
11.933658875316342 8.486155781549487 26.008311477794535 2.9783200428357866 18.19690857212248 0.9017532137910527 
6.032258582508254 8.74902477701952 15.35159142332595 2.9783347165229817 9.607987667370455 0.9194125606342153 
7.7989678038592825 6.274457747833244 21.80192914518213 2.9784322897310993 12.799309127498582 0.8918662921691566 
6.852048130609992 11.06353992592264 23.517544652854838 2.9785725203682447 7.077788414328275 0.928853861024475 
6.023464457233597 8.888383659936535 5.983076170561738 2.978627543806181 9.469276887579063 0.9283764821215489 
11.027256306085192 6.817670043726588 26.868000067406037 2.9786460294251977 16.266283434327928 0.8968222744711556 
11.87237150191682 9.78882053796873 33.51479773952515 2.9787171544383284 0.7983441273614389 0.8655855515682475 
11.937925077691826 9.491641449334066 21.235451061669416 2.9787774466773813 0.493901386548373 0.7904132972125308 
6.032659724217087 8.738472667065258 33.61872622627979 2.9788428723508336 9.620175360972056 0.8961248289522147 
11.971827517072748 8.793320844768388 11.217017209832882 2.9790057174228504 18.51079963389279 0.8701168383398972 
6.082180183234232 9.600864987586819 5.249948361858099 2.9790453531993615 8.753931529276404 0.8946200008911571 
6.159774300688168 8.101017410175313 8.071536435827 2.9791025024055955 10.2723442110582 0.8799474022428038 
11.586152492972634 10.478905682692213 38.60725269069815 2.9791520161294 1.5475739574939098 0.866523276241013 
11.325436301571767 10.862184815040042 27.081322425486285 2.9791586527127896 2.0115938149082417 0.9030191890293913 
10.581009879879591 6.474900165112267 6.9985220729172255 2.979214899336225 15.70580032597842 0.8810386952291435 
7.572420556027668 6.385070709016766 27.722866021983485 2.9792345100200586 12.550539677999865 0.8945707467339348 
6.257038493934793 10.163052607149684 27.559362261593506 2.979350464573311 8.165082477882809 0.9492940528680212 
6.978346299962023 6.811370829117044 31.32700594827341 2.979459905841507 11.818412101412953 0.9545647121814741 
9.817704293931609 6.134933582118922 39.19192501088305 2.9794707401120917 14.86875875694291 0.9114273140143437 
11.724452689676287 7.793929588356761 7.241614510002464 2.9794711436974266 17.47886595886513 0.9073816762657845 
7.156844723880976 11.340996182588832 30.433051463686773 2.9795107817863062 6.6674560156020775 0.9215821123920083 
6.025727454432625 8.822928803924237 11.097065476690602 2.9795387870936594 9.53767275710423 0.9261348954618414 
11.815662454465015 8.024813361615093 28.694041023710767 2.9797557009205344 17.728865773875263 0.8923246843179459 
10.38898511769263 11.636310757098157 29.872982112319328 2.979834570100005 3.2357632054277907 0.8921101599312656 
10.424492862945502 6.382658968465618 30.83207023641061 2.979874828232914 15.527556677949757 0.8800046263396698 
7.191620753788564 6.631390506604731 16.397982995831505 2.9800245687461113 12.099847811297991 0.8938899429205209 
7.419046080626774 6.473830105656678 19.721857616527274 2.9800922184167553 12.376897381554578 0.8687280344711747 
7.587850814256692 6.375656031694936 27.723667005595303 2.98015881905221 12.572488316159603 0.9105972574250926 
11.98013084776814 8.98413426116653 10.090531578311335 2.9801730807937954 18.70911390031557 0.9149450371615498 
6.437543789665128 10.521722381366597 34.497137641434094 2.9802383857395998 7.765622792480723 0.8972308333833403 
8.819086792643654 6.025114025142839 12.386701879395325 2.980381880229075 13.863694237323159 0.9050906003741553 
7.030045166046847 11.236524029074172 15.669216886196068 2.980396245542124 6.833774443406078 0.9783607617807303 
11.916938419955741 8.38757365797727 2.118902286999642 2.9805361548247045 18.110441192494868 0.8468714120440577 
11.980479154552448 8.979740586741567 10.065466265148245 2.9805480090995444 18.707075888851456 0.9178505463146239 
10.17919334694475 11.737438690391446 28.746280215170387 2.9806152943865123 3.4695931266310573 0.8486952150574442 
11.56937905439876 10.510748222568877 5.513802808205135 2.980615526561266 1.5843037008848988 0.9171411056463179 
6.122416703174437 8.22303787853722 31.127187253514833 2.980630095861852 10.149967168163123 0.8859589988139769 
6.960821491937166 11.17391822657381 39.26071756018011 2.980632389875543 6.927658013601203 0.9199406995927333 
11.615281179823002 10.430017962143737 25.199437149984256 2.980712502337339 1.491482489724735 0.8820934956791838 
11.980709156783652 8.994696826407306 28.20020439806472 2.9807138743905077 18.723074444086286 0.938382709508212 
8.10691112497659 6.156148531968114 29.79427442410089 2.9807883036065643 13.139612607699238 0.9170488906766989 
6.399128457033164 10.456335146224706 24.271013019366038 2.9808463296761905 7.84305111179517 0.9245381774308224 
10.485858805028842 11.584141850117966 25.501501544181863 2.98086656695882 3.126835625590445 0.9322690134388956 
6.376872852027063 7.583994206737344 32.004920885255295 2.9809173824489053 10.84035462439449 0.927999053964487 
7.1698000766306755 11.352922125743746 0.5333158856660134 2.9809183634100966 6.65304925107549 0.913052085308982 
6.171424091778746 9.940849602272477 12.520632888309848 2.9809460985844707 8.407703241156412 0.8748574397259473 
6.194812823209503 10.008635081483318 10.195094245299948 2.9810098665433302 8.33617355947841 0.9046643928749672 
11.827871961426936 8.056780640363248 28.666482688962468 2.9810271033015083 17.770633752664516 0.8480194215428605 
7.22513997128574 6.6048790323450834 12.097811041597652 2.9810623226004194 12.146792981684655 0.9250480335278746 
7.534556006486564 11.596061248516508 37.33459415255877 2.9811172577028384 6.214718032559993 0.8804124886382934 
7.96318567374604 6.2049291317079405 11.37028330996906 2.981175121642535 12.989514015037493 0.9346705102556957 
11.901884310284792 9.683090698271858 15.25397289976916 2.9811986603281873 0.6892137517097439 0.8956826076473512 
7.1937628317938795 11.371758276870406 34.941690752045965 2.9812296174083186 6.623264063079379 0.9098685995330413 
6.117505796278534 8.23865445603073 17.449851165986864 2.981345312406751 10.136045812613165 0.900941097488735 
11.320419606143895 7.128082848443793 24.609443398581256 2.981345496729173 16.708543236038057 0.9589905549855593 
9.662940877553437 6.09329371043963 7.356812182850042 2.981347356632756 14.717797779842087 0.8912610229298802 
6.164546373458448 8.078676486691698 29.95149334563994 2.9813812712302323 10.302941422756192 0.8783708436906832 
6.501070598516607 7.373650736058307 12.447161800111886 2.9815533001980445 11.087034130847456 0.9146441104019892 
10.15250660872573 11.74983693453967 4.487804046760033 2.981589282532895 3.5001418531595903 0.8744200019489164 
6.8515348859855365 6.932564573165839 3.581303458037368 2.981642431658449 11.651582280445883 0.894490654221874 
8.523645138332427 6.056421860995945 31.62106462844769 2.981872937376259 13.57334057510553 0.8991839565726207 
10.211615722563856 11.724626118180206 24.098254067625156 2.9818786264758788 3.4362168364058405 0.8522519541907978 
8.753917199340492 6.0282421165806905 30.582775937780184 2.981929184679817 13.805647252688658 0.8983457514006689 
10.850657815910523 6.661841983373794 19.22343756173629 2.9819318004112945 16.048539191183753 0.8395805279371195 
7.755441340496439 11.709854921449107 34.15336049632435 2.981985907452827 5.967948249641584 0.9418772693877552 
11.032113512852664 11.182374952456312 33.62329936244835 2.9819868816322974 2.4483203978571844 0.9105731645609457 
6.027981515298919 8.755923768641988 15.358800152366918 2.982023990533755 9.612654240575619 0.8968622920797401 
6.10432429852054 9.712450038925098 15.883240810915972 2.982033337523735 8.64892596548399 0.8774598985961033 
11.942634808672215 8.516249051659315 1.023486181763218 2.982132558628122 18.25139342034658 0.9075763494920465 
10.170375721034157 11.74288927997831 10.327503010766684 2.9821503869869095 3.4816346726639082 0.854607768727232 
11.807090162762695 10.00677214847701 23.179109726545086 2.9821712460601795 1.026949069280544 0.8911724320583557 
11.941614501071514 8.509650828488587 30.48386617278195 2.9822035783822862 18.245151731642878 0.8923768816695395 
6.06666579156815 9.537816710304908 19.286827141976758 2.982230103838349 8.828176759407253 0.9104846284043723 
11.233887939568437 7.02425414737565 12.035592486644973 2.982252001543736 16.578434896613874 0.8934811191725714 
6.2081435549736135 7.951480688110644 34.33580555006859 2.9822567221888012 10.440455034313832 0.9432078433508075 
6.031344621439853 9.28474785286 36.07075240750409 2.9822803517379923 9.083927760036687 0.9020818015169308 
11.205885811842524 6.992954953665965 21.06503099003958 2.9823081720208156 16.53674931804414 0.9066466984883835 
11.94511066325517 9.469605996295366 30.07460354721386 2.9823156456981295 0.4715686028467907 0.835606277979877 
10.795742134955583 11.381096995573335 9.611081373387307 2.9823334350107817 2.757568012787331 0.9067214971881337 
8.322274684419522 6.095517252976263 32.805613915079746 2.982504255007393 13.371022625809225 0.920507147938237 
7.020098304000895 11.23054445941127 20.080773113855905 2.982505542531387 6.850027457134434 0.9739447238120239 
11.982502888784042 9.01713599719129 10.062602263572856 2.9825521158908335 0.01713609146861117 0.8566985704046955 
10.46786476642342 11.596348877112339 7.3880646776222605 2.982558375654999 3.1502944562085666 0.9168592359662737 
7.227780938413083 6.600955573967852 30.134299813669593 2.9826455639797245 12.157701957040537 0.9358095054436304 
7.02927748020859 6.761118173366993 35.95640196011788 2.9826731439499947 11.902675267091812 0.9292780796205735 
11.982537400737561 9.030288220787481 23.51319374150851 2.9826911880241354 0.030288741350858572 0.8624108068518346 
11.369298829001103 10.811917932413538 8.848477558776281 2.9827208275176855 1.9473396175395017 0.896644796967114 
9.939633414372908 11.830860553881044 18.423635936212463 2.9827307000340806 3.729349354446846 0.876093769419195 
6.260099407089193 7.821077647901037 28.495198858226097 2.9827693795048167 10.582646094612308 0.94239443697893 
11.167450427371808 11.049168082584261 30.265008187556496 2.982772399261517 2.25901475191721 0.8965051670332848 
11.615697160605595 7.56635632127213 8.56045792617418 2.982818437913469 17.246083090459145 0.915843739077438 
8.785283892176047 11.975082024213053 25.62110287262795 2.982820151761536 4.900304913055688 0.9177929389879332 
10.587394006943327 11.525371605071935 8.500095460166179 2.982837822776021 3.011556369554647 0.9200820514932796 
8.772465224142245 6.025795631319012 25.840420496217163 2.982895187717079 13.828806400425147 0.9150232209434914 
11.06033070633493 11.15701665247679 39.257214864709205 2.9828984995351013 2.411136278440001 0.9168682811737084 
7.442661958571922 11.544269614767872 10.125745423525274 2.9830537453941557 6.3242610605254725 0.9092169604365965 
8.946028198482935 6.017304726469833 24.745739769470546 2.983183542810964 14.00394650730577 0.9690294603153032 
9.928293441975947 11.835091501301084 31.79619821718672 2.9831983734182317 3.7420295593313853 0.8883470033148838 
8.023523588354463 6.181123544025974 25.129937229064602 2.983214819040835 13.063256958908092 0.9546695927928949 
10.158963963343163 6.251064074903427 3.8625324006584236 2.9832609990771304 15.248581085809434 0.9458330599973798 
6.103691744302235 8.284940003762188 1.9806079414147888 2.983272081162333 10.09431580690024 0.9106017148681426 
10.384435974996226 6.357364864026808 21.804650454407962 2.9833175209393636 15.498218835564323 0.8790140993419872 
11.471229621287605 7.328353275469961 3.9296080680996965 2.9835178251120396 16.971576368118036 0.9606471220487952 
7.797316323694812 6.2696035237171035 8.503095710286843 2.9835403370742335 12.821706271694715 0.903595933351592 
6.156435571451233 8.096778201561932 8.086340753716506 2.983566368707352 10.290770304980686 0.8722851159696576 
11.368733029966318 7.185935535898713 29.010827467890145 2.98357605017343 16.7964144454083 0.9362960252060024 
11.08680605969305 11.132398521432975 39.286569617804304 2.983602350344492 2.3755551725062674 0.9391938262167666 
7.128792219643376 6.676001514474423 21.137376723314382 2.9836869001274824 12.037700096112758 0.9555546770706047 
6.651056921133057 7.160041345435761 39.06403314361191 2.983786426382213 11.356517060624423 0.9251955609000027 
6.118011037585017 8.227128747854671 31.11989433222918 2.9838214343144744 10.155736794071437 0.8774799732465156 
11.823097838002884 8.03391042786609 10.505596910184074 2.9838248045625004 17.76410551573227 0.8844855354308148 
8.74391342733109 6.027016246249252 25.812681703098313 2.9839927501197456 13.80533258397396 0.9116674348851536 
11.977161333284595 8.797269201647424 33.647840846594846 2.9840558609056895 18.546488864773195 0.8555014163472576 
9.487890103325224 11.943954172929317 6.666563986786073 2.9841083970309517 4.197336205448936 0.9109943544182759 
7.985212550882618 11.806335974441405 26.51709273451229 2.984177469308782 5.722974294226333 0.8994129076796202 
9.308869596916587 11.968331520207693 19.26862809331317 2.984357961397721 4.3783948445829655 0.9383735006655511 
11.973259469111202 9.257347914506445 22.46638987775365 2.9843759514780053 0.2576679225406764 0.8996037090268029 
11.976852866901545 8.788082909832717 11.209373503502881 2.984386343000003 18.539356837017273 0.8748835586012151 
11.71480231272536 7.760336444882139 25.351559620847297 2.984445899504028 17.473424997084607 0.9289113562501146 
6.633723839546512 7.1812638175244 5.814671571503659 2.984470500604153 11.33172474332861 0.8718175222860822 
10.985782548553189 6.771847290718547 17.851209165272984 2.984626748190912 16.237366660433388 0.939515889730396 
9.300491477907478 6.0304932660537744 14.275394206846116 2.9846717359279213 14.365935641492571 0.9285065728809415 
10.393366895756422 6.3604933500258465 12.784854976196485 2.984705456397277 15.51479197150521 0.877499926583903 
10.167229069581797 6.252984841072694 18.5311177322896 2.984713718977617 15.264368606942647 0.9436854042416276 
7.178955810700245 6.635130781938692 6.515506522857457 2.9847626970860333 12.106749897493634 0.9115456331041858 
8.997860594470112 6.015217205118583 39.77536664520925 2.984783561613158 14.063321758866136 0.9212867440275895 
6.019653777181361 8.836020143412838 5.985567395245475 2.9848539329815953 9.541257641540232 0.9209405039376171 
11.66218972298335 7.649906871413961 30.94291059612948 2.984963245504608 17.354113476439796 0.904592134434399 
6.490758500148534 7.383297377014738 1.5299244321888779 2.9849657076328837 11.08601318168979 0.9291384126681085 
6.384741712212509 10.439069663787054 19.826756386746354 2.9850456293117764 7.87619376194062 0.9175257818965689 
11.979966667939586 9.175751903371264 2.9403992834773334 2.985144899928574 0.17585359760562014 0.8602635883989672 
11.740524654109429 7.8164851412281 20.600086759416456 2.985160431319477 17.539372960746228 0.9018960677762784 
7.820149618534661 6.257721577352504 30.933495791909145 2.985320396534006 12.855042008625226 0.949407914028784 
10.033444119548918 6.199168606377038 33.333587100152194 2.985408388099387 15.12368880906951 0.9172062243302227 
6.547562993359984 10.702442047236811 7.11265425354641 2.985423955778694 7.567395479960831 0.9189996983612564 
10.003441193265715 6.188221417036392 24.323874452098458 2.9854636202699516 15.092030510268657 0.9095387055135535 
8.286338936437108 11.89893045992438 18.583911106655016 2.985483197930126 5.4102247178883225 0.9116462689572187 
8.41156932580446 11.926982848598351 4.735242453707897 2.9855450514643267 5.281991721921173 0.9558257378681914 
6.904639468794354 11.126819525857712 10.904480879358381 2.985615020612011 7.012444587136606 0.9406088562286267 
8.053895021934402 6.168217586929746 7.348120357913359 2.9856500572730393 13.106844103289301 0.9365348063741226 
10.742101139795913 6.575268704726858 5.783025963307857 2.985672158083535 15.929769778054464 0.8992686531630075 
10.45457782751193 11.607420980396364 0.07042171660851437 2.9857060848818406 3.17063483424268 0.9151671825349649 
10.202376695158343 11.732975259541652 28.724978657647313 2.985776864791919 3.4525435005497833 0.8564461722632454 
8.207495292376876 6.1213097093381705 39.13965724118236 2.9857865799744445 13.268069626465888 0.9496999088165607 
6.25014729665239 10.163303119665862 3.1534644558773834 2.9857937032441626 8.185200035548675 0.9169256950742699 
7.999013363545199 11.81300531825845 31.009093109597863 2.9857952319125 5.710830422841614 0.8820672925634727 
6.022047682407454 9.21908615646541 31.472175554201954 2.986000460450333 9.161513907531557 0.9168956762715762 
11.750598242144822 7.837730835612261 29.70897470373842 2.9860777451661833 17.568261332425188 0.8974855756323785 
