125

7.00919656313924 6.997437816331399 18.254151028854942 0.009546808824193231 0.057390384991893306 0.0 
6.9968007849246945 7.010069554748188 33.016731750221986 0.010565552987175764 0.01984656849769273 0.0 
6.986733681173109 7.0019918741784055 12.74238511743394 0.013415020609723882 0.04014526343762892 0.0 
7.002285551086247 6.983954171418066 19.294795571054536 0.016207786975667826 0.07867059127443188 0.0 
6.993627011955848 7.0188871058674565 15.092590033600231 0.019933332502604317 0.03779808644606408 0.0 
7.020737025857343 6.993463041346924 24.605859998158444 0.02174295448737651 0.12997534029972257 0.0 
6.98503104230714 7.017334254540042 1.9011710435584277 0.022902970874311923 0.05228984622257826 0.0 
6.9758976953708824 7.019575921356704 3.9295958845331036 0.031050568197677264 0.07636750913688761 0.0 
6.968577347264038 7.010003974105597 7.275454169892583 0.032976697876990535 0.09343520670306837 0.0 
7.035554669660227 6.995629367720269 20.581061927812314 0.035822296983478275 0.22069658087706578 0.0 
6.973901032635064 7.028946956384464 8.320895273816177 0.03897540739286798 0.08981891066484948 0.0 
7.0210477815225865 6.965704359144365 23.460515928711658 0.040239285390291535 0.21177262841673272 0.0 
6.994790791337618 7.043950394548297 37.30892816394302 0.04425802792532796 0.07474165958940127 0.0 
6.942460381947342 7.015996841254438 9.361730526808543 0.05972191034926466 0.1714273339563963 0.0 
6.999001811667183 7.069456944730625 2.9081216701921164 0.06946411700483024 0.110112202524288 0.0 
6.973764302395143 7.066821637765855 38.324949491215435 0.07178748569579829 0.1396214122941979 0.0 
7.064483516613134 6.964120317434405 25.72973651208204 0.07379346540042697 0.4261889400689096 0.0 
6.9626473835157725 7.069073700638043 8.322061965138673 0.07852639096540537 0.1622764696809309 0.0 
6.9670451896054555 7.092288116222434 10.383234497216996 0.09799548930448743 0.1875408271678385 0.0 
6.91063645799934 7.048540030283961 13.866346685964096 0.1016955120881533 0.2688833979973406 0.0 
6.952443186568104 7.113129794587518 39.33992536698655 0.12271919543091114 0.24160244818237242 0.0 
7.69559120469939 6.876817364860841 27.188545646544007 0.7064142450821455 4.314715991813637 0.6530385647332342 
6.950206333024754 6.157547969070613 31.089999312588454 0.8439222912613992 3.927067502072388 0.6342255455211426 
6.909800140486986 6.129901745932624 37.81528839787141 0.874761102465846 4.031854109855095 0.6499987360106767 
6.55190859753484 6.243806202219954 38.79950524079301 0.8789851902985629 3.6719227031558077 0.8378003833872109 
6.13890593677505 6.823170909635124 29.84209198140396 0.879062860619492 2.93970129964989 0.6507653423359446 
6.841007266742509 7.868974052585632 34.73733870632664 0.8833994528500606 1.547504461136577 0.5631944793798288 
7.868002288346246 6.832213303608728 22.15887250470098 0.8840703298155741 5.385967050582076 0.6867074639575973 
6.937168041708416 6.093933521017151 30.084865180711084 0.9082424342206946 4.217109454787194 0.7431057067803802 
6.996675915691701 7.911241663174003 1.3971954512067057 0.9112477260551118 1.434708672568027 0.7950674285148301 
6.100371630506393 7.168307105810315 34.91593431853403 0.9152368464304592 2.706030900943225 0.7325897940810474 
6.871141037578726 7.9092626790470115 4.3973054355681285 0.9183481103067819 1.5718234334856032 0.6347985317352786 
6.219792287754114 6.513862954702263 32.140807700632344 0.9192678070392624 3.4002014859594905 0.8533004200774519 
7.250853665770425 6.113991429783916 28.079951027514518 0.9208358964152119 4.593401778134132 0.6235400092477313 
6.079907000448914 6.9288701075783345 28.683880951229668 0.9228383333059105 2.970382639135953 0.6659520084184 
7.916342129008186 6.814707396191975 20.10909352441874 0.9348883604052458 5.687549127323733 0.8711973357083623 
6.873678762218086 7.929637490897551 32.58997091256244 0.9381806433715463 1.6003967789867959 0.6009709445819648 
6.291909492614826 7.6159616999498025 31.79498582474659 0.9385099799437644 2.276509375289119 0.9155228304923396 
6.943548260369749 6.063147268166564 2.33677328968988 0.9385519911283824 4.366336227345569 0.8063010599458258 
6.978752092949017 7.939650142836217 33.719867402958755 0.9398903470544697 1.4976260220615742 0.7081731323760497 
7.939503286295462 7.0456384839151776 2.5399723398378526 0.9406111290932344 0.045656409884061944 0.8271404094823063 
6.72147093599331 7.900061450212212 8.85094594985479 0.942172517989436 1.7627155182149128 0.7543777156065323 
6.825539884506513 7.926242186891288 13.2809667975528 0.9425290025644606 1.655993093174474 0.642812308556022 
6.144997440896114 7.405002246535244 7.841227433118675 0.9460740963438279 2.5536597028153647 0.8601721704441567 
6.054511559286761 7.067976642719402 8.827162714182407 0.9479289084513416 2.9099714561746417 0.7614450202090188 
7.50704926426214 6.193558873262794 3.269550883725863 0.9525997308848821 5.023706008899511 0.8205159939970079 
6.0631080257453895 7.173542887767849 9.842812284306476 0.95282931594148 2.8188845921606287 0.7947315895623144 
7.322345963715401 6.1014399037609985 20.938250611092002 0.9546293348083612 4.827393713027137 0.7954428223215343 
6.501531331690609 6.182339555123515 3.25885828908158 0.9576218545969748 3.9884185664648744 0.7776776207600361 
6.042082932129372 6.986769454735579 19.576340556458618 0.9580084322415212 3.0229032186824254 0.71662356820681 
6.962689584275848 7.9574410695438 32.643220016943154 0.9581677665057855 1.5424062590326333 0.6197907045409068 
6.0917746132948825 7.314700301551615 11.200178959414984 0.9612021810484714 2.6990932776455008 0.7903407323612494 
7.590069930346765 6.240962378760515 3.2861824322170534 0.9614159522060834 5.165872371431325 0.7848783579541159 
6.947559442807821 7.960561421687083 6.869248184309797 0.9619918174663118 1.5635597774161845 0.5392255918972398 
7.95857311659185 7.098919068284599 38.52182085644873 0.9636635314895474 0.09909361242302417 0.7707373215076762 
6.979758580583743 7.964439699139825 14.317178634239141 0.9646520866804251 1.5355148594581447 0.5879298786411098 
7.850418688127068 6.54309785443719 24.141725430250887 0.9653867182303995 5.589753421606156 0.846256198040735 
7.690464600386305 6.319135630625078 29.009317384544374 0.9696997751216256 5.337991400888944 0.9293679436214852 
6.6769118632800915 6.08519413024016 28.992878470704625 0.9701833452684081 4.242502068934309 0.7910170252684904 
6.534034115682946 7.851048705345412 3.3253747286159907 0.9702618740409592 2.010123775499986 0.9309732063562793 
7.114528791411217 6.035500938699458 19.953608023023897 0.9712750811751236 4.691821859845016 0.7019448725198637 
6.296708900680237 6.329284957483858 33.25431951045685 0.9718420852380454 3.793378036285789 0.8321102317873922 
6.991927908221951 7.9718123266507215 2.415066308476618 0.9718458503774978 1.5346440765785028 0.6652621073144233 
7.523398275741215 7.819095535526066 36.911586438524466 0.9720407663095267 0.9741755120618469 0.9838946063107566 
7.958721496996155 6.83068865151617 26.18464518012845 0.9735570047654949 5.9468624283348195 0.9168513136039541 
6.978991369525765 7.973504353349905 11.160925021551634 0.9737310144724876 1.5505433615467048 0.6100152684822051 
7.120837693453831 6.032407435220471 27.07025462573754 0.9751087732021841 4.716240966612649 0.6866875886069337 
7.977072044016458 6.988108352316099 25.051457933231156 0.9771444061566019 6.127687434519137 0.8777676741119113 
7.022596574649672 6.0230747860468385 19.890709878270783 0.9771865117997314 4.627481538944673 0.7506412015999703 
6.022750285518619 7.004202648084532 37.58521460791884 0.9772587511528692 3.065946252239704 0.7352316935074078 
6.063862958631752 7.288786854209527 32.78456506859162 0.9796685191359031 2.7845776595279643 0.7320463705680349 
6.019198492024167 6.995856845951191 18.466651572646114 0.9808102588029659 3.0854494699915502 0.7853954159808646 
7.406411327688074 6.1070657652085965 24.955664356570395 0.981071717529201 5.042228151462821 0.7510414095899629 
6.019791578240234 7.043250102770579 13.398335538232146 0.981162128029021 3.0391476118967926 0.833057524696149 
6.050036633321467 7.247936040739977 33.85602943065656 0.9817854543274867 2.833719971171705 0.7252999619693934 
6.9811395569810255 6.0182228334904275 8.593150974460343 0.9819583091916055 4.608507912593174 0.7916879071968008 
7.977242315811015 6.895934796313292 28.229370971582384 0.982767577014033 6.070650133741738 0.8219577783692943 
7.666975110101923 7.722431822183002 3.282655752298396 0.9832413412779832 0.8114601637499357 0.9729078184469824 
7.962402234501585 7.202887720818162 8.446028858331786 0.9835555338832855 0.20435485006361453 0.8315397146376606 
6.0201417816862595 7.103670264968875 15.331032913426242 0.985327180095878 2.9916341346757065 0.8894921853669592 
6.785847510334852 7.962153798865381 38.790386805529295 0.9856983420402337 1.7642053776520195 0.7343222297665 
6.912533234913965 7.982248719061903 36.089719061246655 0.9861353766564529 1.6365996849130813 0.7556111843323055 
6.014648665063074 6.954776417840876 28.65048260634829 0.9863885774101824 3.144070548910742 0.8591374201869596 
7.8998633969879855 7.404194677951932 7.280930774782263 0.9864722352521749 0.41645532420078446 0.9664091451289163 
6.395114953297394 7.779304103881832 36.988008578483075 0.9865094049483167 2.200751565849319 0.8673685217336706 
6.971493547130498 7.986520059892125 13.26991724406195 0.986931834740759 1.5787793188952488 0.555752771731088 
7.374190492268035 6.085473109163538 23.022329781121577 0.9881183929908399 5.040164046208789 0.7388590249393403 
7.987994005446545 6.982365646135974 19.048839088840943 0.9881513675720475 6.191102863989987 0.961585596335184 
6.119765836628812 7.4498636977868555 14.340971748580941 0.9885289722371513 2.638508511173069 0.7484996509728497 
6.229306761408376 6.380489769933672 14.346365473115107 0.9888179777733019 3.7759672372738553 0.7624596235218926 
7.980767060882474 6.871008803031317 23.19154915044514 0.9892132007850787 6.0860502741718525 0.7939478230944997 
6.834196131935037 6.024620061096371 13.604344336225079 0.9893719967135477 4.495715758711587 0.826096490432553 
6.671959456457678 6.066365152343294 29.011503407196585 0.989588109754004 4.32895756532889 0.8062463379905814 
7.80059173404629 7.583502666974809 24.033325916877676 0.9906676975605702 0.6239424321860669 0.9732238356260624 
6.01200636454668 7.078325439622175 6.889368244944848 0.9910934860992046 3.0352048133362155 0.830277915344161 
6.9662194581308405 7.9912586803974754 37.782841535990244 0.9918341073346492 1.5917564487337694 0.587074945558344 
7.0142523351992185 6.007960725586031 24.00266732580907 0.9921416486764504 4.68961019763273 0.642337445938184 
6.041858573944802 7.257816436967854 12.38560716631605 0.9922219043610593 2.8563476522107303 0.717483021974975 
7.992229655140543 7.0154754336474845 37.49039075114073 0.9923503300684179 0.015476060975563755 0.9114223375690376 
6.990892884418146 6.007656619265289 7.525313344855917 0.992385169600099 4.667397694104596 0.6499031189338084 
7.9657788972024015 6.7714932803262275 20.10352565263372 0.9924435496377387 6.005131278064678 0.863412442531894 
7.974056545492449 7.190453776204478 14.977807025883088 0.9925012819574753 0.19164242045452085 0.7764410238604456 
7.904942706377964 7.408848824047409 32.8568401107134 0.9930149358149775 0.4213817781781657 0.9497473195286469 
6.773924264812614 7.9669468565083825 15.348334060621639 0.99302389767415 1.7879139836868108 0.7329054846289387 
7.973193673764149 7.202289537963274 13.77742662354979 0.9939954646898327 0.2037125922522387 0.7866927254358261 
7.4744195752337 6.125344841918917 18.98049240888608 0.9950354661632758 5.183522220411701 0.7518928477026978 
6.0046567583972745 7.018891517245812 3.6514337600929565 0.9955225050334474 3.1086335370389957 0.7720925656346106 
6.793092705272242 7.9738655812907915 12.269857542885443 0.9956027315322155 1.772315496399564 0.7331573550448341 
7.045047539519505 7.994606233931577 19.34043320918046 0.9956258541200681 1.518862510967577 0.7143036444110082 
7.083778121338902 6.007862969340024 17.984436108266056 0.995667947270509 4.775851958411362 0.7178907046939774 
6.872860038726637 7.987619321506054 9.879744318346162 0.9957692975607709 1.69163871914588 0.7216042714998027 
6.016989822845143 6.841092656137472 28.748327529736038 0.9957713353594134 3.287897572363085 0.880344793767458 
6.390404056933607 6.212560788400899 19.008006813675323 0.9958251481895898 4.036687048377103 0.8248225698925807 
6.977007607038529 7.996047503021441 7.882142235407571 0.9963128416362718 1.5879989862755917 0.6335660924117312 
7.004325683202368 7.996308774086766 24.499518318514177 0.9963181644722957 1.5606872162797147 0.6341512127478761 
6.98078044535528 6.0037306727508595 32.57313469145311 0.9964546972633509 4.676461388301296 0.6714827036038143 
7.968803792466148 6.764617531796037 18.00795672090436 0.9969883121855456 6.026636396365293 0.840815947177361 
7.417916118899165 6.093686855858462 24.95696657536898 0.9980267519858679 5.134297723661354 0.6898723823120809 
7.102517533483169 6.006854474702212 26.039204741619365 0.9984226956006617 4.8076546437823655 0.7985487571018511 
6.001488804076645 7.004505166613566 36.4132878230135 0.9985213592660418 3.1324421848239448 0.7880812980609667 
6.420105552045799 6.187106292538122 36.89978535920479 0.9985358032635714 4.08675314528971 0.7985431245899699 
6.198960608719639 6.403235838014365 8.068135336676043 0.9988951753879034 3.7776995869187626 0.7851878156600643 
6.037155649175629 7.2671209949874385 2.6609213334478525 0.9992111237758942 2.868704738605693 0.7168004474120179 
6.0948422299299905 7.424552294362262 1.6553619425908508 0.9997775949511836 2.7024198281651994 0.7089188636923317 
6.008226562726721 7.1274050496962325 38.584452670340305 0.9999232958427134 3.013599360649277 0.0 
