428

11.133094285614792 12.50978059751834 31.14909082129674 3.424292071495293 3.6765100024368813 0.6723620372603645 
10.008864007913864 12.886931737788622 31.01127491429365 3.4249451345955975 4.869136207168886 0.8764227200453573 
8.606000560452223 6.1926581810673795 33.655439490160646 3.426039244546431 15.240360503552221 0.8071838320595797 
11.329942403453991 6.60274999740529 10.046208543535073 3.426769145637626 18.078708743963407 0.8068356509403422 
12.775797487633707 8.490053910406527 28.774171234523806 3.4279498660091936 20.513285271618464 0.7251770448230979 
7.492286430021787 6.721481444905843 28.793006364760373 3.4279847053446972 14.009028878954929 0.8579755720064148 
11.32816128968581 12.401397764539352 2.415248895970734 3.4293268565681534 3.458614434194242 0.8219934074261166 
9.267588146603323 6.077588117600731 37.62704013957054 3.430294209304352 15.93229059779096 0.6806041050952526 
12.798852797506942 10.441358229718084 24.567638990651936 3.4305371439874164 0.9535912372400261 0.6344446563569609 
6.736179232686027 11.534526983896798 15.2495155086619 3.431909859253327 8.603896283467616 0.7587848955669128 
8.435008727032605 6.236165015623175 25.49003112852442 3.4331946080492997 15.095692128529677 0.7896644475877969 
8.638794697403839 6.176486916141929 1.581213874313903 3.4332803252568147 15.308450044686758 0.8584690050204203 
11.110290379858661 6.4642936932606965 27.051475709056803 3.436356775458877 17.869394751655157 0.7645830404871694 
8.410129837330302 6.2400343299802365 28.539297069159687 3.437323543279725 15.088994872030725 0.7995343581179228 
12.194921156637573 7.364959588976172 8.299477654505978 3.438167767459523 19.2990901386709 0.7619696591327646 
6.652574338283859 7.572619739700393 6.789306737626845 3.4384047997279468 12.848068172815282 0.7728875686941236 
12.499747492763081 7.818807316327961 33.982428367712615 3.4387343398364973 19.849607357105995 0.8541877996552077 
12.880262358634354 10.133872384925162 38.65770574661799 3.439181270821733 0.6375171372610637 0.6890854230397998 
12.68660962774198 8.205405674654685 37.962819665081796 3.4395429037641256 20.283993787257103 0.8147345567194446 
12.553567664334876 11.083236710336399 1.5574659744103307 3.4396095652891137 1.6452615537886501 0.7647514469413147 
12.743314304600439 8.353998356196913 7.917857135409484 3.439826659299159 20.44473232075744 0.6744753359836033 
6.228853144899128 10.564701867786214 1.5776764480003465 3.4400569493692656 9.724780196039038 0.9034555291253935 
11.096884565135674 12.547020738875313 21.368423235230004 3.440112744882762 3.7430845573795146 0.7512352721413283 
8.562753936177302 12.81020088741789 9.020393977113685 3.44032848710895 6.353300001428597 0.8051891800664521 
6.059931296950776 9.435418293659906 24.843126725277372 3.4406748580027977 10.873784356423606 0.8414374961984413 
12.539665812411556 7.887918590355268 27.91723923298465 3.440693930367211 19.94073055576074 0.870799232365424 
12.677107340531713 8.179109909583465 12.855474137143162 3.4407501630053132 20.263174462040563 0.7799100742034792 
9.603725119902307 6.060706261778238 4.5097793528296926 3.440857497524443 16.31839979041358 0.7373263288111385 
6.235279281426771 10.586804896643123 20.102723543979472 3.440864172507942 9.704055337097294 0.8799621052354972 
12.892968629242874 10.073310590228227 1.7551863028243488 3.441063956379494 0.5759966438082742 0.7023831285638001 
8.593433877664891 12.819788225245146 31.082506534424553 3.4413450850854823 6.323045530428626 0.8041030700649341 
12.367616617222604 7.5957606300726415 28.98452653020898 3.4422888666340277 19.610708589618522 0.8431185242803658 
11.215302804730111 12.485151062278016 34.25904732767686 3.442875335607514 3.612450352572882 0.7648606296214497 
11.948767905876654 7.079803996861667 1.0724898125936875 3.442936675348284 18.94873649271326 0.7694014204523125 
7.277114703610479 12.130120543021338 19.68535854188586 3.4436540348483873 7.825623214600441 0.8135040371413451 
8.306516135182708 6.269679429886576 9.768512978632288 3.4437442880209823 15.009495764119713 0.8367718512822574 
11.418706818691506 6.640003598275159 37.09170980298907 3.4439824729478956 18.264475736959504 0.8308169937065899 
10.936302223715506 6.369626607356114 11.059086158990667 3.444154708375178 17.711771478536185 0.7487749273017192 
10.47842725810013 6.197619079308341 26.11382359426353 3.4442763600996984 17.22285886013261 0.8590384852565188 
12.85729257645809 10.274151810561042 35.531424599043504 3.4453917730405563 0.7808184409729719 0.6796653933096899 
8.9561177213658 6.096816736242969 17.129183484573417 3.4463697218563585 15.694469176094245 0.721965500440355 
7.034507854880061 7.091318254268703 29.792190570376178 3.446795507405001 13.495362377504385 0.8430896094474747 
11.847443598727462 12.024097195420287 33.44292857061554 3.446963606006757 2.8321791977234305 0.7447786441629086 
10.081705199814174 6.101746701148793 35.49789695247939 3.4476813110616797 16.831316548892467 0.7821071303572121 
12.946386205382119 9.595504046213915 14.333311992730067 3.4477092249044694 0.09551626428948445 0.7926765884842534 
7.926954315649194 6.430702187137321 32.92406863349039 3.4489218299489317 14.619233175783368 0.8777841798614695 
8.011585095728554 6.3886088232286244 5.763975747432561 3.449077265320125 14.714417997140966 0.830633821562656 
12.670679746991235 8.142383527026077 19.680646457964492 3.449106050220924 20.27600325606208 0.8026787152638869 
12.944276896203409 9.315925812550622 19.390279124737283 3.449192172698666 21.487751905418303 0.7582602946635395 
12.871378837924677 8.76989632682642 30.688681252917917 3.449528466673075 20.93835891204456 0.8308901036190138 
6.283441685170676 10.747058184953133 28.316960181679107 3.4498407947840497 9.562044079943362 0.8221162755637678 
12.856799335370189 8.703543648721343 18.579440373669293 3.4499919561404564 20.873232619056022 0.8704366636553187 
12.541058873286355 7.87065482092874 35.93331409219418 3.450044171218157 19.980321441818557 0.8635893679361467 
7.2804685235330435 12.141782538222444 12.959644610257854 3.450410838477734 7.830888529091077 0.8525807892387066 
6.310247065179643 10.816538127250197 9.238547003509481 3.450767512554063 9.490135606453382 0.8123118943037705 
6.25003831644379 8.338798367223617 32.96266414493731 3.4511795340935345 12.026509315781734 0.7078163479621663 
10.999690134054488 6.391566145773469 20.138827771079256 3.451294181069179 17.815253092335357 0.7898072528433054 
11.92814980102002 7.0470193508247085 37.87343926449617 3.4515251007955894 18.95819218875327 0.786670780193177 
6.066454472411959 9.147751364957946 3.1375644605464217 3.4515668892415836 11.19628015579061 0.7090587969486726 
10.12264663312175 12.895427985571775 11.93533927810352 3.4520457753253893 4.796387643816161 0.8352375643586222 
10.292948002846266 6.140183583371563 37.41510023583568 3.4521200571045942 17.067824329541924 0.8897104118012984 
12.251559367809532 11.584774676786644 32.639465352418156 3.452153589797427 2.2383488508174416 0.8608544378421887 
7.989357512003851 6.395538626406658 21.516523115087573 3.452494916241334 14.705956320657588 0.8335593592319291 
12.849651637886154 10.337484956940497 17.56255197344479 3.4527593527923437 0.8459222666575172 0.652661932051057 
12.913014171484626 8.977052827970816 35.87270497256502 3.4528451282222625 21.16989842840221 0.7486248764970286 
6.331175552102192 10.872887122094333 18.43493075348269 3.453442837460511 9.43741870193471 0.7919679221697843 
6.7556254200744625 11.59651017911699 13.663521172517434 3.453541192179791 8.596678256699374 0.7747022935651061 
6.052944897311594 9.722433125642109 31.126861356902985 3.4542242799727254 10.62917848305252 0.8763136349198422 
12.36889133316066 7.575514109288626 5.056305534183188 3.4545887490454623 19.664619611835096 0.8187239944328382 
7.375719589140788 6.77569241861276 20.798127490094544 3.4546228537952137 13.991629443366005 0.8631623440324616 
12.094193714206211 7.218207191032754 13.100109632056217 3.45491236500749 19.21542436974497 0.8713598851140026 
10.135296125107233 12.896081270081154 21.06744893076391 3.4549919188866838 4.788156896257533 0.8360876651389998 
10.161058156180383 6.108523293769114 0.5137387012258543 3.455302032349606 16.947885982281417 0.7970029502467761 
6.296361232535437 10.79488622076618 36.55216244732388 3.455435092304872 9.528284280866494 0.8258645908477401 
7.890786009796946 12.559185001759538 4.892279752032934 3.456614317689458 7.103508701178637 0.8356582280633146 
11.078396678691304 12.57566523694899 39.19300458714696 3.45702946546312 3.791163475553276 0.7425798926707459 
12.956972313841156 9.473531163513922 34.694377842948654 3.4570736437005816 21.694965228839912 0.8252472388205132 
12.202522179563708 7.343797027695675 9.824099259063551 3.4572875768162246 19.39454560311139 0.8137099465954842 
6.575979605637304 7.654800139280205 1.7678620160941279 3.4575508373195816 12.808600530350034 0.8324184801562273 
12.944382269391877 9.804098788282957 23.759220446354767 3.457780399437811 0.3044921697814402 0.7263870114041878 
12.367254253417208 11.432816469107738 3.453184207826176 3.4578788956516644 2.0509758861613143 0.8888014580495819 
6.9763493711675935 11.864020845407092 9.675431333539862 3.4579483879788406 8.260494296195334 0.835938114454019 
12.800613978896443 8.468431148062754 23.726599659336323 3.4580611524340816 20.680123424075767 0.8223285165652401 
10.130980431494432 6.099678806280707 8.494380161336345 3.458369634001763 16.93171757671253 0.8455295807549584 
6.4003212671618535 11.03405424354803 14.437791915708665 3.458515674238995 9.27583359378572 0.7966698369582319 
12.838074356170171 8.592989983372387 5.002965053066248 3.459105025520867 20.816459086945073 0.8444116917697213 
8.800146796816357 6.111949262911924 35.519020243981366 3.4595783418054684 15.598162195932023 0.7440506203793104 
7.689184738350008 6.552081607661295 38.93312939093201 3.459663966299812 14.39754204894085 0.8480382535973736 
11.88132815357212 12.010186033975254 9.547612293871182 3.460022788965356 2.8086223593193615 0.8269403919071207 
6.060613951861271 9.881146402479937 7.409188423324991 3.460440574298994 10.489373388528737 0.8712107658642124 
6.057778727775437 9.144606722110089 38.05675365837887 3.460518988377991 11.2275620254748 0.7893356488805725 
12.944470214701118 9.836366084188095 33.578362374584074 3.4608549814395864 0.3368979121059219 0.7150620574727417 
7.063916253030921 7.041443249987907 21.792643167973917 3.461069966827735 13.607480845358555 0.8556175899131307 
12.733926711403722 8.266779619638617 2.8994525556404795 3.4610857373473363 20.48571415581993 0.7539956941557998 
7.337060988351887 12.202076755077355 32.556862615901935 3.4611448912807297 7.7731274907722945 0.8401324579919309 
11.395516773140898 6.602732235351876 24.219925497384097 3.462245562828785 18.321307160641393 0.8285361966866694 
10.511192155676177 12.8119976714675 35.15526398697649 3.4629233533976955 4.413403778663973 0.8318230655627468 
10.336239842844343 6.1392865174586415 10.287485099225222 3.463191041004755 17.16449027600283 0.8189509915620935 
10.366008639537249 12.85358936526605 10.149898269435752 3.46360110211593 4.56531636016004 0.8032855859914579 
12.27100707441936 11.578627982358649 10.673158421606828 3.463982461781024 2.229374696232256 0.8799853561445042 
12.799603975675376 10.555680012554555 37.56924900135505 3.4643681509331468 1.072740952154664 0.7834617133702418 
12.52018540238702 11.197606632159177 22.29397043552312 3.4645906168467353 1.7741322893018037 0.8352226210538275 
12.947329219789571 9.15165296395264 22.981969889049594 3.464884472408563 21.421574663156296 0.7819737593616728 
6.0461685474667615 9.21598131832168 35.13831030193039 3.465489621114187 11.17149433240532 0.7695285957598362 
10.684207560273522 6.243060020140826 4.256890491172015 3.4655454950431763 17.53955401431886 0.9090424634694099 
12.542166016423373 11.16099462436229 38.492136341699634 3.4660751886884484 1.7322054311230488 0.7959203559470008 
10.894634879799906 6.326061462176304 15.953855618516826 3.4668274098715837 17.77232573922581 0.7477276060661269 
11.46872499638514 12.353990763539338 17.083593007142028 3.4671517690691753 3.352523716975522 0.9088720360048064 
6.098514465505248 10.172025392776613 3.369090155265006 3.467235493864472 10.216335754768945 0.8352280019335748 
12.710095224420739 10.810350588965028 7.573500796424433 3.467236654145468 1.3437364022011309 0.8717534715961719 
12.194487707317371 7.317866149480627 35.13650666028241 3.467271570913782 19.425272444768773 0.7982467528406892 
12.271662916106322 11.58337294710307 29.464069962211056 3.4673560759229702 2.2349480881587667 0.8459923871288999 
6.363392926354894 10.978387282171647 7.789097003821382 3.467554309672365 9.366350635523577 0.8002616973292428 
11.496540386205808 12.335391420210714 0.15564731701785206 3.467797286398872 3.3196899811254426 0.9186001470321508 
11.944168902035251 11.960025844278814 1.4575448916231295 3.4678074883412897 2.7348222032853045 0.8668287984085014 
6.158014092587333 8.57407866684617 4.54131083250649 3.467881214882395 11.831961406967178 0.7483223682567779 
12.729641183210823 8.236174401624439 35.0180682506754 3.4681172580235464 20.49720892420009 0.8082404367770452 
6.6808823470915115 11.520679059849163 24.384175926791464 3.468510949074999 8.7395910475262 0.8592602214482062 
7.750060394436375 6.505281839643796 0.6396571438635874 3.46851920610041 14.510766119698335 0.9018929880343084 
12.881717053893649 8.728815564314049 36.9177188727693 3.468535089405818 21.015764862642204 0.8089242298403768 
6.097691067462897 10.174602573119715 35.43752431037255 3.468543599853042 10.217821420247613 0.8376515539114873 
11.659200590405703 6.784718713544494 26.068830886393272 3.4691352891151124 18.678512129012404 0.9347462843239295 
11.826109738242657 6.92578618264732 19.840291271308153 3.4694903504400725 18.899008520369094 0.819417104837646 
11.048353372096816 6.395135106874349 25.183009396436667 3.4695221817200923 17.95472532447888 0.8580333513001089 
6.066289299298141 9.001751194242916 28.909849128358374 3.4696716052895855 11.400272141714392 0.8293072915248355 
6.759100090268477 7.372497990042769 13.512681386086122 3.4696969777688556 13.190592677001316 0.9415802039056724 
6.287208601834498 8.189200398037103 11.506439523084545 3.46990261601566 12.245186934699532 0.8286003954304544 
9.722107144717148 6.037129489965038 11.17165032338005 3.4699861315290863 16.57418349674774 0.8084133839446985 
6.592551812803691 11.39449656780805 32.548558158427525 3.470212127041743 8.89794548226731 0.9654303316160746 
12.860296415938755 10.366714753583087 29.417593538561654 3.4702718145772713 0.8759880151604804 0.7141737785113935 
12.31461245173463 7.469998111611899 36.96195762251193 3.470295509076839 19.636140466917876 0.8753858029474764 
6.029598553878673 9.510008881255724 28.048894500257575 3.470415879249201 10.892624136019577 0.91060139482232 
10.932261812094197 6.33857356014393 38.18302869497474 3.4707335007177362 17.83183220591436 0.8192955454635117 
12.305001837002 11.544065629989205 17.35510912577503 3.470769310295308 2.1856937950147817 0.8896195814255707 
12.541677471222581 7.8280517853150045 3.9293572455075605 3.470909487660452 20.063898003763036 0.8642431118354292 
6.405884280041233 7.927160663898629 17.006542878632736 3.470932967616021 12.536607106508011 0.9450835172044252 
12.949285424135805 9.112099508763981 32.78693742224067 3.4710281946790444 21.420400881955196 0.7711236156915304 
8.615553649555176 6.143465834176402 20.631341565340904 3.471104572489324 15.462887322411824 0.8087481255170149 
9.73401746923021 12.963269622093947 4.27706291773999 3.4711670445577334 5.218301337506595 0.8910927145504646 
12.403499474419906 11.403097558748104 24.28079367268353 3.471611947794521 2.0142177443180547 0.930034148879415 
6.065518048382955 8.990702167650076 0.34009953572334695 3.4720383865993703 11.41887243165478 0.8641428886699648 
8.98483042482506 12.933643044312513 4.9780858088150595 3.472074919546181 5.971001339235443 0.8168633457172576 
6.392303365837295 11.04852293160703 26.147073850206105 3.4721321460593937 9.302942245762651 0.8177280311071342 
12.687173996000148 8.122251803925897 29.792355121615778 3.472213727950081 20.399830380374716 0.8429156770570245 
6.4849608894605915 7.777584902492526 5.0604337415524725 3.4723442522601276 12.710942012416488 0.8814856865218631 
9.172309441292171 12.95709056329561 0.12773711840750934 3.4725863941871626 5.782904804133018 0.8525069725570419 
12.68658258551214 10.880310922343712 16.696247715994936 3.47268870137111 1.4195127123360116 0.8382802660767301 
10.675731865091539 12.767736069682874 15.233737007185944 3.4728150598179144 4.255649027735959 0.8915371981617917 
10.596122432724457 6.204700154463913 2.6273366530008673 3.4728209656577365 17.480473056324172 0.9128876076014466 
10.83941915739609 6.295644898384959 39.441338884376556 3.4730296999084245 17.741330815888926 0.7859756609467454 
7.416884100178528 6.720683316502592 23.475870692189204 3.4733230600184677 14.133659363287407 0.8570840292964914 
11.566591624489057 12.291667006962127 23.684958336928617 3.473356535135602 3.242553951725853 0.9030233341468623 
7.911598404391555 12.589284197781621 31.78970777292335 3.473715083825198 7.1062190989025495 0.8807264778439288 
7.729243786212695 12.489044824804607 7.123805195488018 3.4741857367385456 7.315315863461308 0.8727264869919021 
12.109167387014576 11.794059407262461 22.99504137606187 3.474257189315414 2.5057072011253183 0.9338381981994401 
12.974116756643696 9.531904275093735 7.716637769124858 3.4742632487423504 0.0319047235152361 0.8388659119008453 
7.615796435210855 6.580990388645228 11.663749991302886 3.4743114691612873 14.380827843532822 0.8805383795171798 
6.176853274903582 8.486188183810368 39.07638310316553 3.474351530165704 11.94377708218866 0.7740387865594839 
6.888327902539125 7.20863477908056 0.782960438425782 3.4743611960035055 13.417132621767209 0.9057612207702632 
12.464231538361496 7.6876311789599665 7.147114759987808 3.4743847450296843 19.9235686785157 0.8362140173917597 
12.970954116882666 9.342158141090229 37.760085886651375 3.4745411976157086 21.67329000259253 0.8835074029176747 
9.387191197399805 6.027128640999985 31.55078493019321 3.4747030523638576 16.261323744861322 0.7682310374881927 
6.382835703321387 7.964303171124724 22.078652254991887 3.4749212944619994 12.507456789746357 0.9464849593813188 
9.200348555748377 6.038016312262448 2.6481612060086874 3.4749276312180952 16.07518661492711 0.81540979269494 
9.434086850038671 6.025546606212428 39.48737797491019 3.475078550038805 16.31000476240204 0.8272473013739584 
12.418352134275985 11.386811299892058 27.496047024461078 3.4751742490173867 1.9945212893883273 0.9419425977761117 
10.845959044717308 6.296040741495842 36.244333300441944 3.4751921788889395 17.758564065427272 0.7275907192171901 
12.669876550082215 10.924975404516902 4.765681333979543 3.4754384250392403 1.4682631311058998 0.886397784239779 
7.128573753232949 6.95915867690209 26.85246322571978 3.475562842622414 13.768321648562893 0.8584526635202827 
12.797327877405891 8.401241420688672 14.571150731241197 3.475577872344151 20.71976342991107 0.8628936873648154 
10.716524005406242 6.244214868013435 14.278531490031241 3.475639147177744 17.621405443303466 0.8154278419798893 
6.789509799510892 11.67565005550692 1.7676691886776794 3.475659691479411 8.568269591623093 0.9041752013951008 
8.953418820355672 6.0675619055674925 8.755138725715092 3.475684430159453 15.829917532805037 0.8122664672653456 
6.791836246649023 7.321317342971922 22.75451218320979 3.4757458242798718 13.274094419356924 0.9543705531853071 
10.045048563902242 6.067221366400181 22.04519310756549 3.47578006846108 16.926535171793628 0.8475826772535601 
12.93297685259115 8.955891005397516 27.704124214490584 3.4758286304756085 21.292919284194586 0.8454891964928147 
6.291658281814717 8.162365171157576 38.09109746523845 3.476021219149903 12.293307293108978 0.8831977350929642 
12.84861633779486 10.433444231591945 27.83868851787021 3.4762838651696653 0.9450417843774908 0.8148433807861564 
12.400653593036438 7.584053711314462 25.805384733750195 3.4762970885589004 19.8129765402267 0.8846585105523663 
10.043293670133727 12.933619792045716 26.24624965852953 3.476336129941327 4.915086073066668 0.9228687885501257 
12.379275080615605 7.551430543358151 20.445262388349178 3.4766575783662566 19.77602657425005 0.8729722983505382 
11.355308796520486 12.440301567055302 32.51054912001407 3.4767145461878464 3.5041780282964723 0.9157199495529177 
8.40659764900957 12.800394795368009 32.71617537201899 3.4767994630757215 6.573622052106153 0.8564490898621866 
11.759824235413127 12.142502795721382 30.122042181860756 3.4770140351105647 3.0017089344339922 0.9136427918031924 
6.8232226438556935 11.719472882179238 27.42399320019343 3.4772398377299094 8.516884334115495 0.8468600860826684 
12.965200669930091 9.789624443635093 18.490514896707246 3.47728313504018 0.28996036184548757 0.7158576638704104 
6.108890041376718 8.73051072204242 37.06083927898856 3.477318003917053 11.700228649572836 0.8645579996966576 
6.667422948268085 11.51723013272718 8.608082141160246 3.4774574278315438 8.772777818934806 0.8944757430542584 
8.311306958681211 12.768090151044925 37.74619289849614 3.477557243502476 6.675684038266105 0.852101456496678 
9.325628716965582 12.973468839222699 15.077703341669313 3.4778428833686768 5.637427247800133 0.8592768759627183 
8.973617523783005 12.937847933830723 11.61524221523468 3.4779127256750613 5.991505640903661 0.8295258045144677 
6.034918111940776 9.798919170334257 23.138542076095483 3.4779512879494705 10.627017803797564 0.8405022236136154 
8.719227160726085 6.11076174864815 38.671400586210034 3.47800835981951 15.602244239859985 0.766289847651639 
12.003392911998723 11.914551431067713 28.318121321244668 3.4780791660220443 2.6688531593853 0.8946621515060164 
7.080243955195552 11.998428433761783 31.453989314542092 3.4781265007180266 8.139510345376138 0.8773445056485311 
6.024758667907507 9.357554361185507 1.410111852194511 3.478159438021965 11.06944562703545 0.8659775397369943 
6.243108918086914 8.279110911338988 29.711166499105367 3.4782049517325024 12.17456431664209 0.8161146477170651 
8.436637660981525 12.811744823861714 4.090444339962048 3.478274463353591 6.544325126633792 0.8647754435093276 
12.974517414673244 9.336398542010505 17.5776135278576 3.478366959066271 21.69156233232735 0.8730333932732294 
9.457459579378835 12.978136126880498 38.05657009815922 3.478396269043812 5.5063935637077535 0.9276327728479699 
9.185261999777708 6.0357534136619915 19.74463375826246 3.478514685859251 16.07694523763416 0.8083962223665193 
12.623457383302812 7.967962868132815 0.9709747444036694 3.4789544117060043 20.272463545509602 0.7296877129446798 
10.399946677179091 12.86054861154361 16.985776791474585 3.478964068844834 4.554445561885723 0.8697227715609593 
6.021371553158408 9.448666775556875 36.348475089517024 3.4790071818131207 10.98095849145649 0.8704590756051194 
10.572112986295963 12.809831013730328 38.29853359332828 3.4791389157139956 4.375168893732685 0.9109265677268796 
9.047187085939264 12.949637428557583 10.09526792652018 3.479229501433554 5.919261996359797 0.8859610291107217 
9.444222850070048 12.978799958683839 6.042405637720819 3.4792470799000417 5.520968072495776 0.9278506003942304 
11.777586996175419 12.130232462525166 27.210257464227006 3.479299546182904 2.9822074381243233 0.9338460131235657 
11.992515650911455 11.927683487705153 16.33404638439375 3.479408194868032 2.6868762172440785 0.9009077547039956 
11.657873672051434 6.770156997306801 20.83719135049126 3.4797214836658683 18.725408452637595 0.9302385661252918 
8.34356100038375 12.78206069866662 5.805456622470764 3.4798381556568745 6.6449753482449445 0.8983284440526308 
8.10699739563101 6.311038558465377 16.634134981030385 3.4799326619021476 14.965622015911265 0.8540431614720617 
8.248206258793944 12.747267482685494 21.430561048621755 3.4801916146426843 6.747162599674155 0.9064708588819971 
7.6623709283908035 12.455548201433189 20.609480959441115 3.480250820819991 7.402699846232736 0.8878509905502115 
10.725359635138151 12.757433987675412 33.23569092393161 3.480284818730912 4.214615944787774 0.9168366959575693 
7.447859962873794 6.689028869299353 6.588059355841928 3.4803501877841003 14.206026559831752 0.8796095406087264 
6.043371915638144 9.092875676252206 23.890186328468033 3.4805212150748637 11.342438380291021 0.825608544076735 
12.585418366853254 7.8892755313532685 9.071605660325737 3.4805516534613723 20.194363739376385 0.7708848203960665 
6.042608559603261 9.90273464739971 37.354727150311355 3.480768703655102 10.531518706887127 0.8643973319313994 
11.644401981270711 12.242012203461295 38.42156177879732 3.4809611863978613 3.1575596166961546 0.9051736708239185 
12.923364078531467 10.133138765846567 6.863625143224034 3.481420157205581 0.6366818129333751 0.7476045042075564 
6.753490324928492 11.640101435100174 30.46589061050483 3.4818600701032234 8.63382622415016 0.8956619457731179 
10.427725127337752 12.85599849611385 22.053861620084213 3.481867288943146 4.530236002698366 0.8280567367228661 
8.307178365845031 12.771381328430012 26.494357745524937 3.482062498995195 6.687087467263517 0.8512725929478834 
10.846671896937185 12.711138694491545 11.148291007737818 3.4820880105564913 4.086925217881154 0.9191294738401861 
7.496960805619398 12.3484015571441 15.599040542214539 3.4821771128082806 7.603949610686467 0.9112135283440083 
6.136317746464265 8.599016518657207 2.0679591009754823 3.4822592574941655 11.85119162780866 0.8305424101587257 
6.465436594403165 7.791668193846293 23.716544074558023 3.4823803098604618 12.725766760617812 0.8797572834646988 
6.735916524870085 11.618331786736206 20.37286496757757 3.4824541656974146 8.663273309363921 0.8709985582342619 
12.973369902537033 9.753282531056104 39.80542018165582 3.4825924999041047 0.2535063489935503 0.7933625270853822 
11.409348007391465 12.412655969047961 29.024670246709725 3.4826964563912925 3.449749753129378 0.8926561218697356 
7.1033691646360495 6.972923443047593 7.5288145324380835 3.4828085341740707 13.769206971605875 0.8667915222891996 
10.684134819656457 6.22458973626788 21.140979837890043 3.482884963199984 17.620931380372298 0.7971697485077714 
8.026554908360362 6.344133103964692 29.653410718564068 3.482891945433918 14.891375546557867 0.9145449702044198 
6.662594134967195 7.479773373132794 39.05472671227065 3.4831290051942956 13.097698833147653 0.9454408464176819 
11.415562731103895 12.409114617925413 10.380164441187908 3.4831492125692125 3.443059205729522 0.9074734642142708 
6.891325680442458 7.191349239424882 28.10926999983235 3.4835398720013333 13.467549037624046 0.9476531312089768 
12.24546497709512 7.355636512339851 14.833731135611146 3.48365794929208 19.578514525888558 0.8185125002398577 
10.747040054346863 12.752836713169705 6.158243631124456 3.483684196320054 4.19682163081238 0.9113898654085422 
8.586688209218622 6.138031076906238 6.6174718036761675 3.483815934722804 15.492985057704118 0.7758409913562883 
12.228606171679507 7.333813017113391 31.97339278483905 3.483914132833196 19.552377528535708 0.825915905437776 
12.907707700557788 10.225350874233913 13.548128237193083 3.4840501809234525 0.7306957110418644 0.7097379199696835 
9.324030269660147 6.0203798267243105 14.79001832512192 3.4840668616234995 16.242233654110414 0.8107231396808232 
12.035656823025887 11.889458836430196 4.49417850056129 3.4841166821953684 2.6330260810316233 0.9036285676879368 
12.191426154882278 11.712571525852509 2.4439288381057125 3.4841422910377395 2.3973023280051002 0.9331981288175116 
8.97760083057395 12.944759027280176 36.92468212565099 3.484144894840816 5.9972585711454265 0.8409650439589036 
9.724974898355596 12.976990569353246 32.91710375474007 3.484261345574056 5.24793340547016 0.8921129659321216 
12.711743010403362 8.148866817273062 5.926994233546353 3.484372833429376 20.50544662841567 0.8252340902784937 
6.759751026881798 11.65237629760185 3.3175241192262064 3.484492525627456 8.626823208457154 0.8626970271505078 
8.915845726375496 12.935228659689296 33.699464995716866 3.484541886639399 6.060431213988011 0.9301409348463202 
10.326475671333524 6.114574124200489 16.822338969912913 3.484848690522887 17.2563888357594 0.8566183116053063 
12.867301370304762 8.60208343700549 25.38533285665416 3.484963797883159 20.988512870327185 0.8088859185435775 
9.778819827104215 12.973861476296884 36.15047205102448 3.485032862468589 5.195158687488323 0.9270879983277697 
12.984440070927658 9.565527978439514 12.777149074392426 3.4850561722653333 0.06553184014008195 0.7854130567359207 
9.948301638114476 6.043757906420003 38.48103038484159 3.4851949397659747 16.873141410969517 0.8514503999735992 
11.137941065937415 6.423591623643281 30.429638476913297 3.485274656838681 18.129126266545896 0.8782094656373023 
6.037651422356372 9.899681464225134 2.3081807086717916 3.485341152018837 10.548959477355421 0.8453913500874476 
9.355901871676771 6.017589773609837 21.308668919257457 3.485390258701749 16.28037543678006 0.8430601591562357 
7.459667774608516 12.32577260402436 8.915152533632991 3.485390422840115 7.654489829713345 0.8741107063328101 
6.459734823359629 11.204411589339557 37.563088263339 3.485431280367912 9.16890778186518 0.911823694959566 
12.73001745631301 8.190272033785805 26.962747923435018 3.4854555101981073 20.557071220328538 0.8020865246201611 
12.665481850787526 8.040993404840533 32.98073245153236 3.485538063539692 20.394910112862632 0.804917416770535 
7.690802363264851 12.479240515474402 30.603484056297333 3.4855516260431756 7.377319421879765 0.8750971256386603 
8.36253064126136 6.205246780941641 31.86804941400692 3.4855753207418574 15.266694500720604 0.8761288538248609 
9.69690522925542 6.019981097205642 25.430435222202163 3.4855850632446477 16.62244275169176 0.8705695767795458 
7.932438278435908 12.613540362535685 9.800340314523218 3.48588343753084 7.1014866797832 0.9016957740137108 
6.2896229451568395 10.85827581924943 31.485406356769218 3.4858907090471365 9.556017193806142 0.8465820583575667 
7.733993397922108 6.494508356315292 27.80912557314285 3.4859373687490893 14.575199285987587 0.8962490270366931 
12.931703984716249 8.887329345707679 12.033537442342343 3.4859658015173323 21.287099624108848 0.8106758678360205 
9.024315526491778 12.953359898947136 25.819383540636615 3.48596762893647 5.952918375864051 0.8748835873793773 
6.029362590225762 9.826693412927542 14.040146845041857 3.485979434273054 10.624353856651418 0.8571696418091261 
7.3803733870917565 12.267672044318205 24.701266648439912 3.486090291867002 7.75433945022662 0.8590936892056701 
7.42328216341738 6.6998597568603895 1.7031340993049966 3.486193103376569 14.20363880279038 0.8599114843761787 
11.852524778866846 12.072963502973542 18.090118364408163 3.4863324601673296 2.8940848060054947 0.8902509492482049 
12.447305046686074 7.637609752790395 1.9676278642889073 3.486417139575045 19.941059428287275 0.8207853257541562 
7.087863469428452 6.982693646506688 34.82043270534572 3.486435704190676 13.765572929645074 0.8795488486202538 
6.016876649138984 9.652221330705077 18.20968479636319 3.486447993421799 10.800729668499585 0.8983853706308195 
6.01366936797967 9.534396602110652 11.54071041623699 3.486500308618951 10.918766596184184 0.8788488955110793 
11.717328776497201 6.809334739400212 31.152607489807608 3.486578042677533 18.833248296297807 0.8818366809344107 
12.728775265090666 10.81581646850386 39.49524627379427 3.486597580915708 1.3492406625434548 0.8554212098481949 
12.940544650007185 8.934948514630365 20.32382674952767 3.486636010513786 21.33962553912278 0.7922158267523084 
12.838230683604275 10.506549892486719 34.34326085316916 3.4866784742820895 1.021082549013137 0.7542596393035867 
12.11950838219119 11.80111238713067 7.447189988838225 3.486680711303535 2.5131359131404594 0.9096547231452948 
10.251614273531407 6.095157520629671 19.35937953416746 3.4868146388216337 17.188787050766017 0.8438952949255402 
9.990363334542378 12.952213606535464 34.0637098855391 3.486866069267947 4.985162184415529 0.9277772932204277 
12.120087914442754 7.199250467566218 26.95784570642877 3.486876695612171 19.396070331054105 0.8041650748711763 
12.91043656145247 10.226316389749103 22.734202806784353 3.486920279804213 0.7316738777698184 0.7044425494739284 
6.758138741245558 11.6543015105745 25.427677012494854 3.4869496928866157 8.632388503806812 0.8737722604976335 
11.288629212782292 6.5065910819047 35.33481887083431 3.4870749076770124 18.31057735826576 0.8378097299833145 
7.918366472214705 6.3921893173639734 14.904662920068418 3.4871265900912105 14.791097957555031 0.9089062068496007 
9.667777930220455 6.016909210186455 1.6231427689233762 3.487129318501537 16.60055250314713 0.8251540240660815 
6.024754392869086 9.210315446108991 22.32297269384719 3.4872982623580886 11.245689349750855 0.8381678307469727 
7.781295830490235 12.534383534826041 13.86856434938916 3.4873238247564027 7.275083318311612 0.8690998165960557 
9.903101978795506 12.9639773507814 39.12500723603975 3.487352906150361 5.073916077046611 0.9533215871713809 
8.103017429822808 6.304636178776137 26.477066331247304 3.487393045150669 14.996621423167536 0.8483418763306697 
10.659575490244942 12.78904098962166 27.043072437114095 3.4874641143656513 4.296015534560876 0.8966186063495571 
9.837371099551463 6.028852394585959 27.069984359694786 3.487504115751577 16.772375482346185 0.8735777918267511 
7.653097668690686 6.541589854811411 22.499197379727377 3.487583519939064 14.488472577599723 0.9156313109123067 
12.617312741718846 7.9360675615839416 17.96770884453798 3.487624320595991 20.29164215106934 0.7797429216790029 
10.82443101895874 6.273594100296455 9.235871500008354 3.4876657743571053 17.793763517320087 0.7696166548327823 
12.520002893486014 11.245421731416192 6.679833388758581 3.4881104479594423 1.8279484727378694 0.8966790788593055 
7.837969881630174 6.433090632055309 10.665018521008669 3.4883057758108476 14.70588685902166 0.8977798379463651 
11.802729386608105 6.879707489791089 18.137879698905202 3.488337063273193 18.953428251142466 0.8159831287421353 
9.921535419126085 12.9628975793862 15.930796204739067 3.488459796944295 5.057091767149657 0.9475273427181551 
11.217919305336673 12.536293127721121 12.164729522484514 3.4885989590514628 3.6836374749894745 0.8549807862411157 
6.039945402412604 9.054038209674244 17.375845100571468 3.4886759288756273 11.40718404233543 0.8826044166729592 
6.153461129624215 8.51372824567166 28.024624720951472 3.488847142584771 11.960440832933884 0.7786263872162503 
6.204673649270896 8.353112309154676 24.551638927626897 3.489201503671304 12.130263164990144 0.8617591940533684 
7.769929243662254 6.469496381991901 19.91707536132767 3.4895697443517646 14.634042214579306 0.9039398775391905 
7.483207594561259 12.347850049897337 3.7265051659981907 3.489656360350634 7.631849183418517 0.8893660996666284 
9.158269561113165 12.972984230622602 32.00166687926948 3.4897563179991584 5.823975361803406 0.8875708721223878 
8.672084901947091 6.109819326404605 27.294700701691227 3.4898092224652735 15.609453785746233 0.8087410412342726 
11.031541824252738 12.635846622948876 16.205709056434998 3.4898645248913707 3.89634009697561 0.8543880690527265 
6.504846412969915 11.29117232621838 12.723917072028016 3.489877263187023 9.082851256087341 0.9362045391697137 
10.455499381426051 12.856623402894288 32.14459650144978 3.489971308873923 4.5141761179119655 0.791148594492715 
6.353932006902227 11.010754626744012 2.6203829714222664 3.490003346620555 9.40174389492708 0.8099508819072229 
12.178660650511311 7.262673362989629 3.160799075856552 3.490107929745702 19.500358125460778 0.7775653777089854 
6.101367145780664 8.70481375107648 34.06312028652636 3.490419236747372 11.767706083400412 0.8152759986037982 
9.532512517610112 6.009615312052821 16.2007713979054 3.4905361097770475 16.481276887104848 0.8758434278069932 
6.10399431891488 10.306992465954517 32.43315823027497 3.4905717907056064 10.151594681649833 0.8731098047192023 
9.682008456202375 12.985930599358442 10.904539008869605 3.490678905552996 5.3010545741471375 0.9261993610517874 
11.592437119253786 12.294131206524666 3.387742052540574 3.490768152900739 3.239501644070188 0.8834820189229099 
9.559779676201229 12.990279113358236 19.93562443664736 3.490791013342315 5.423539102904222 0.9417551971292343 
7.240490215361559 12.160953166595256 29.56631870992156 3.490853222593322 7.940952023298479 0.892961651000699 
6.483989571342601 11.257882306555182 19.39322777120295 3.4909123606114703 9.124821628129311 0.9139441462185153 
11.3806083371844 12.441051643101689 5.414291671588721 3.4909128441252473 3.4974924829375027 0.9040398133385144 
12.64888718155219 11.006998346808382 28.63922482659529 3.49092172633918 1.5582296487906824 0.8605816854775539 
12.958534888628042 9.0253464191248 8.797032747801879 3.4909539667109653 21.458182305752814 0.8128752945390222 
7.02733585201978 7.035671763417172 33.04480839063233 3.490985769997661 13.70317467873678 0.8643696624806066 
11.836355569369646 6.906067049549556 7.452351823169096 3.4909949152006954 19.010529521343052 0.8523072809654441 
11.340916111910778 6.5336273900528195 13.236104190191199 3.491180114536852 18.39088890518893 0.8629146982482148 
6.401000291030417 7.89209666718029 28.77551221550518 3.491296653664122 12.639202872771012 0.899405334750406 
7.235869831586342 12.157641303342519 14.622480192899054 3.4913239203421096 7.947688373320673 0.8953150221730123 
6.022164634410133 9.807249340227866 16.660980401409248 3.4913809570452266 10.660849460185055 0.854065937303117 
6.6114228211705175 11.461332953225888 35.600485577367586 3.4915190206361855 8.886274541736991 0.9187854903042377 
8.658519148832319 6.111381899692329 22.22371512611504 3.4915358587038208 15.60362759272033 0.7413097782423176 
6.012200021885638 9.337756810447651 33.26402701222919 3.491571500039867 11.131397006037519 0.7960823719458249 
6.224708064805091 8.290111069175163 1.0540035612569767 3.4916140230107446 12.204740128988846 0.778645139208575 
7.824911001178432 12.563620880878133 1.7850796960663757 3.491660930807223 7.231769434041723 0.8547930870912582 
9.056275414136298 6.036615633680849 10.425494152871948 3.491693396758059 16.009289826370193 0.7938314760397146 
11.292395400445834 6.5033042848114455 32.10521671731942 3.4918285297203298 18.337085662567134 0.8544101146076061 
11.721979256684971 12.193944408396941 6.3973890536546705 3.4920664788447873 3.076902463167521 0.916383608162313 
9.058537958202106 6.03593188437636 0.5432174273490915 3.4920848563614113 16.01341574618487 0.7856954791882149 
8.131202145412786 12.712747906792274 14.870192087161243 3.492185086635687 6.892028901901746 0.9510440062949389 
12.918429267927213 8.7854012254363 6.906564375779126 3.4923215872008866 21.22322191619306 0.8021365402293053 
6.007631496318872 9.504635700348372 19.910618172486615 3.492371580347899 10.966973198717064 0.8296172893486845 
9.378924975637997 12.990281941644877 26.995094140517196 3.4923813070305805 5.606919019544435 0.8861587091722494 
6.566239322511482 7.605154048086206 16.07150153642162 3.492476613273447 12.974771934805545 0.87659545886364 
6.588451766431632 7.571084591486446 18.708224161983736 3.4925388715941414 13.01567465379079 0.9086105958809424 
6.12886729133464 10.41310775263333 30.407241440161727 3.492606692336329 10.048504209118498 0.9129707479617751 
12.844185376496778 10.507692879401738 21.637614374436076 3.49270966035997 1.022224093142217 0.7172001632815586 
8.832998538395444 6.071560123417964 3.6928017498446337 3.4927197049177128 15.78793020577223 0.7821579807740394 
6.724222231214771 11.619955634954131 7.08807322476293 3.4927287492526604 8.694657922521344 0.8171216203263328 
6.073957561417824 10.179412900532812 19.12596839414705 3.4927594650042106 10.289055309302086 0.867086805828244 
11.84635191122592 6.912547985583933 36.16654153630412 3.492889236465894 19.032610258036435 0.8108300073277838 
6.056852886704661 8.91205895726194 32.05305409056193 3.4929839268925837 11.564285929768612 0.8609584776542079 
6.787363478466016 7.29934663338814 17.745938550573683 3.493031940584012 13.354426305006129 0.8832656565595461 
12.925673106028192 8.81706669799377 38.81734418279592 3.493083755702684 21.26033187822469 0.7493502253749948 
6.037510322211771 9.037905761362204 5.49138752580464 3.493188493936773 11.437627983118883 0.8283915331547054 
7.07382826019804 12.013251151849232 21.318490135028057 3.493242142091664 8.16918025635071 0.8902942988351975 
6.0631008715819625 10.126057870168907 29.14584981474684 3.493454461664144 10.345552567293723 0.889673785594137 
10.962483235487644 12.672815821848056 22.890601737368485 3.4936538828927737 3.978854619684874 0.9225661616889762 
12.904424696747613 8.715279010310946 1.9432434203083098 3.4936935394341098 21.160050279047333 0.8167633671080853 
9.227423735293348 12.983204938615499 16.65496952421624 3.4938538126940633 5.760986265385693 0.9043405167719242 
6.121695669857576 10.391203252637904 17.47498979150972 3.4938779865031666 10.075179593464437 0.9059290771150452 
7.189905517098861 12.121254820821893 37.682400385885984 3.4939252075011993 8.012198056243399 0.9074449868016642 
12.20996217246743 7.294630803655929 23.974428801989 3.493930203708669 19.56630875194157 0.7693934581532392 
6.13208501804773 10.430137049032465 38.20292411122432 3.493995743506479 10.035222293112174 0.9146439250097651 
6.064283928271312 8.864118151404924 12.298785190928413 3.4940650610581807 11.616374417205446 0.8617416330854321 
12.49576221625807 11.298413262135492 13.194339151263009 3.4941209935811153 1.8891108264974505 0.9140068860903652 
12.147474775857901 7.219701549569965 30.1393634937184 3.4941213075446376 19.469807588231102 0.7290643765509551 
8.623993677451654 12.88259883837745 27.672575834865256 3.494189745640205 6.374112939249034 0.9181809151237579 
8.491204324853692 12.845552488574906 35.97818842869077 3.494336870996219 6.512253326839787 0.8288594446792149 
8.726337922914485 6.092378831099245 15.600760356010518 3.4943432917017216 15.686578312873667 0.7771625087838514 
10.886753874887116 12.707420317901255 20.3074167135753 3.494371389134274 4.062940279746865 0.9025589766634401 
11.04887851032031 12.632376900725918 9.4175564704329 3.4943968990275507 3.884299577926594 0.8353645963753885 
6.061016351485241 8.879819766717112 18.998993089910797 3.494457333622301 11.60164444064321 0.8581991167600274 
8.744982045922468 12.911992319488853 38.92564088737342 3.4945305406063296 6.250214747315258 0.8626200998096104 
10.086271465480648 12.945021914942064 37.23863056583801 3.494551505653897 4.9001715891443745 0.9427576018516644 
9.646720014432296 6.00851986340232 9.574574511052809 3.494561532852323 16.61449641272783 0.8199787558805285 
12.1779743999483 11.745099099452283 12.322969898847138 3.4945696234500634 2.4381467607693956 0.8741491785159883 
11.265582977744574 6.484187364280963 19.130674558418043 3.4946257460655232 18.318951140312414 0.7933234217894342 
12.978844832685484 9.83204464116784 36.833210993336195 3.494655206687889 0.3325462899609306 0.6924088147494292 
12.510989429854666 7.726083533331742 13.857695500492952 3.494686964151912 20.09718956414796 0.8015058801226789 
7.4207307476115485 12.30888506358965 35.84651723465633 3.4947383198724644 7.716474319857703 0.793954143340972 
6.87872040007877 11.811424981056902 18.6530180147141 3.4948236270257054 8.453728255684155 0.8372865100643505 
12.633939148337092 11.046760423780178 18.268279173112717 3.4948594240759467 1.6023075215637697 0.8978583481388062 
12.589523855905691 11.133984954466769 11.583293524405086 3.495005649156253 1.700261449838976 0.860608417236009 
6.21647337020209 10.69772679702406 13.481536842121244 3.495153302632307 9.75784649431429 0.8627815989361377 
10.229188012109999 6.08152184414957 15.236114851981512 3.4953838214181143 17.20619160926092 0.836123772463955 
11.177745949871815 12.566433160778594 27.964403978781654 3.495403238802915 3.740630729435374 0.8489256495905858 
12.120940793651288 11.812720887385229 34.46413538213059 3.4954268046654002 2.5272159427509706 0.8584330131892784 
10.15282214299171 12.934060564078617 5.333064669236755 3.4955612865661867 4.834136964500782 0.9241616502235895 
8.655581524673236 12.892157008106928 15.829084199926214 3.495679008307559 6.343853846128042 0.8830616576609532 
7.163856014585834 12.100661378096936 7.86430531913086 3.495855878624267 8.049784962487795 0.9191766510135221 
12.974258333986766 9.11176711108717 29.561406376655867 3.4958826850039055 21.576243354668808 0.8564535014363791 
9.173701236468633 6.019246833061828 34.47760573068115 3.4960139433692508 16.14780320218774 0.7849809086970905 
12.025728939423518 11.917218707028864 39.314385603305865 3.496033889002183 2.6690441133365717 0.7774442161237162 
8.182711689223604 6.261627085195734 34.617568171086184 3.4960417087108695 15.12407215840468 0.8140535372452559 
6.153574267556381 8.487618295118885 23.002793726307814 3.49620964748094 12.010758057042267 0.8248327782975953 
12.593134821790098 7.870150179520108 24.743854062891728 3.4962685055768823 20.27217068282339 0.7194771763643899 
6.7345116957333175 7.3607993871389965 11.982672643456723 3.4962987319593744 13.285887954250839 0.9087659698205577 
12.836152477783335 8.453750241109562 31.892247964652093 3.4963626689744602 20.90576561341289 0.7914089504533184 
12.726437370278834 10.847250040719182 2.664399449571569 3.496423998394594 1.383035117628225 0.7737487386357171 
12.813752870091871 10.61543791877559 12.467420254978407 3.4964496041963096 1.1352812697664696 0.768544740034809 
11.979822258771275 7.035071621382706 24.974601987911626 3.496482567782993 19.233448489195275 0.823038758374606 
12.877129488306768 10.405928623784899 32.62412854636773 3.496528314225976 0.9163833972373823 0.7500407547454052 
10.46611339243689 12.86049760842282 28.632481368339114 3.496615401107393 4.5136222822115 0.7877348542096819 
11.137736896716149 12.589489795018913 26.176331971878135 3.496731235938997 3.788219086458337 0.8196614343477397 
8.644220031355784 12.890396039314153 22.393515134025662 3.4967334268041945 6.357217805468153 0.8893066186905151 
7.205479619862537 12.13862642701159 2.5592409516461103 3.4967375074760905 7.995477139765523 0.896925965998312 
6.234097107876259 8.250538474125335 6.1687695616649165 3.4967521795836864 12.263075471195773 0.8082916713558286 
8.482719577973485 12.845623951619244 0.9229682911848869 3.496864178472882 6.525066220371109 0.814073324378739 
6.33943305604096 10.996329727233002 23.44316766807856 3.4968823342869007 9.43955500277794 0.784489162809403 
12.3072420797232 11.585239449610253 5.535189723796819 3.496974643370967 2.2341533148364263 0.834337249316195 
6.126270890425914 8.579713760702585 7.221109303731588 3.496995119674567 11.917388311793815 0.7602417127183974 
6.89080701150667 11.828444244006198 16.20588254002157 3.4970760141364283 8.438417354304551 0.8679252745931465 
12.99631331009375 9.422555816894299 0.9232060649728169 3.4971709085824845 21.895922355322945 0.9514796179439666 
12.314816654923877 11.575340638588914 0.5076950001574545 3.497174797892649 2.2218180586145806 0.8796533113882237 
6.003320917895007 9.440472424043842 13.11702865139516 3.497185745071292 11.04626349580996 0.8346749805381635 
9.550928454930466 6.003157334691355 36.5567528326221 3.4972135098452988 16.531160661005472 0.8408864229975985 
7.16709329561996 6.894552815557757 39.81341486749048 3.4972573142763386 13.9265102436806 0.881076068748562 
6.560165799602991 7.605625142874988 33.9665106794515 3.4973248669706587 12.989092578716718 0.8514755714705882 
9.353505384075032 12.994347690700298 21.689151437251176 3.497417112098228 5.640267439717615 0.869167668554639 
7.490992550160925 6.6369831299028785 33.85011419892431 3.497567230514608 14.341831489289483 0.8447287934743065 
6.511478380490942 7.682809777925318 27.325017998856907 3.497633739183803 12.898976129189123 0.9123510209621654 
11.837448265232158 6.898032657581295 14.036327800107706 3.497699021306764 19.042472216365162 0.8023998862900672 
12.967448403576041 9.959618604142655 11.72244410285456 3.4977775361986776 0.4609516756513301 0.6607870769180102 
