428

8.271259301998258 7.1369095621748695 22.474826954997447 2.6634564235718905 11.274122810485945 0.7557592038599726 
7.0037920238367875 10.441502060885044 38.140146265419645 2.6678606393347533 7.419102517668083 0.7115650160835804 
11.997134127873212 8.54106962577856 25.578825437327573 2.674925478437404 15.82629527958744 0.6656225774023609 
11.57543516872884 11.191524625635717 32.18918484051686 2.6774403258949753 1.8309236928406225 0.6975713299736791 
11.845809278329794 10.80230622308643 37.12368678957789 2.6830621813494706 1.3597715860771196 0.6636509026151294 
11.651241672270936 7.895648591281956 35.61884843880408 2.683614013819914 15.141999433566173 0.7388239394338748 
6.920501537603597 8.67396559742893 28.654524591278616 2.7085319181682825 9.348510878565122 0.694235416789441 
10.367579923936693 12.073550200229986 29.239578244746824 2.715852639139652 3.3829936865908614 0.7026018652100479 
12.164679833338127 10.074404193791969 5.478502255832652 2.725886790027185 0.5787423994269734 0.7075177754168803 
7.358855221865134 7.76186612332088 1.878763346202419 2.757827103752841 10.544480386771355 0.6880232717690717 
8.276959873024971 12.49160150630205 15.175641820765875 3.231950916195941 6.3310261397553695 0.721199235400415 
6.3089920324561195 8.705062966008787 25.99547482570368 3.2885341319407457 11.13412445467053 0.7315754629620406 
7.666039350662242 12.316186213008022 13.252511946026718 3.3607017793395224 7.21888715998857 0.7012495355197271 
10.942513165731802 6.457052264043444 9.205411726499989 3.3675473503831723 17.359918524803916 0.7204909023963649 
12.128358574672918 7.371074256123537 28.90900952866734 3.3823946576348254 18.949483006143694 0.7272302587989196 
12.059001201429227 7.285967997891689 14.94650613553577 3.3838476406711884 18.84781587393526 0.6570679213091861 
6.279360267113489 8.42665486306893 21.65075226273703 3.394788663822959 11.75712715797497 0.6962471804555352 
12.527873193852018 11.042405020506127 8.691583937694496 3.3980920124873224 1.6009804071843092 0.6611815859352016 
10.438556139624671 6.232255219974153 19.5981456279239 3.39985934629851 16.972365089421842 0.6953623113260037 
6.862018480099659 7.352103279466327 17.796453578548466 3.4018240432766396 13.011787309315665 0.7449736855406905 
12.882289356573747 9.902494926685119 13.651920201472727 3.406153763058754 0.40343756396238106 0.6293637568591578 
8.057594902919798 12.58596374405067 24.532374986860376 3.406421097527166 6.840203682702125 0.7634439661600798 
10.14153891861322 12.845642970320743 20.978325373442786 3.4065964053512454 4.705676302764122 0.7615023207889373 
12.554043984676985 7.990605344689566 32.22482111118877 3.406678277416492 19.841059086818944 0.7125482454626384 
6.092261414620227 9.573868407795011 4.6337729763988875 3.4085391017203106 10.634367210283358 0.7900159253780458 
6.09145850134348 9.631102565278493 25.626711730055884 3.4110618626296185 10.58503202408307 0.7900609778786202 
11.505044540326123 6.7373754164191215 1.9107650927148825 3.4135462789446738 18.22903737113725 0.7033609908885241 
8.503528684624394 6.2325691492091515 24.328466169760105 3.41600050454712 15.086349451722171 0.8098381777596023 
8.30777294983757 6.298056435433404 11.802379783941348 3.4167013228856318 14.88297391751626 0.7786450961025333 
12.538594503120825 7.93541520391104 35.09458351160373 3.417745183384631 19.849189577886953 0.7207004961724502 
6.658602812888796 7.598492763110121 34.36133624267349 3.4189571139264183 12.757352318471455 0.8012229407183932 
8.330672250467137 6.286553353761457 29.84041361215091 3.419585754744184 14.921012443645239 0.7878238125773468 
12.91914779348068 9.605023053321291 2.025315993005755 3.420760365093221 0.10503955931385178 0.7132271789449768 
12.159987917122075 11.651794990966527 32.902194983702884 3.4213677677771077 2.327125317152131 0.7679794651909441 
11.854407200995574 7.014423889310354 18.213407118708986 3.423641609475337 18.72969105081487 0.8205267134578761 
12.79560575391026 8.567915445377292 16.40944797670526 3.4248793996537525 20.5751600739208 0.7083827362177885 
7.50238177926812 12.284502792944558 0.5289254796285476 3.4269424214182553 7.515657283217969 0.7780831994523704 
6.73587148626657 11.525932975722254 39.541190273280215 3.4270703031237946 8.5988668375945 0.826047729426397 
6.1012473871655715 9.940515336882191 12.005336852224332 3.4271815074893945 10.325070810542037 0.7378309906600864 
8.880066749120225 6.129239020904455 10.004384504872327 3.4272943867925196 15.527379788802836 0.8176923510408195 
7.93260544428947 12.548649131319655 29.773474716692107 3.4279712978913803 7.012539200177621 0.7228046306175848 
6.283621683809676 8.309942836663902 26.92947444792579 3.429478899901099 11.989361533933963 0.764865209848734 
8.401204516298801 12.749319001996637 31.84067834922233 3.430076601438892 6.506464855294119 0.8480170081266037 
6.9243017594956235 11.765610634263433 25.917059430632435 3.4303371513926852 8.301956128029321 0.7466329334202335 
6.294452938126659 10.721798377611362 2.9457560017525353 3.4304989784896556 9.52800512843853 0.815380560834401 
12.568689978594294 11.0373329051677 3.4659462488600994 3.4322369740500775 1.5940209400115641 0.7334707921053599 
9.308947626597993 12.926928643443894 24.385587046036868 3.432250127341934 5.5825170655019924 0.816767820076422 
8.43344523935794 6.236580228320779 20.213920279284537 3.4332852581215976 15.094475553657553 0.810679398425891 
10.578105641375766 12.760009495694861 28.177013057528434 3.433653110899082 4.296914614142231 0.7751324528103339 
7.83340230518108 12.502252422818602 25.77360434881905 3.4338123837355923 7.133946837946734 0.7666184587671925 
6.085364523891053 9.129914483266786 5.680365149580737 3.434632254608556 11.161020877590012 0.7898902141062764 
6.812075307362699 7.35995729688999 36.86022732721355 3.435800041391193 13.104118473163574 0.8365901517065435 
12.436830787541323 11.283516348651213 18.065525260790196 3.435972299154452 1.875232197568046 0.8414237769338024 
9.042588266417598 6.094479988697385 11.062782790454328 3.4361012850906194 15.73347226147969 0.7754473117723851 
12.932199812462597 9.678699464584893 29.30095096929646 3.436848709400988 0.17878008157035197 0.7128754413190976 
6.104711725254644 10.03649267206526 7.764843325187513 3.437412814283878 10.260255850405454 0.7910751038956022 
12.749367368374473 8.378345884086604 29.03210840218432 3.4375130909426828 20.45595497243646 0.8241866504553681 
8.832830699504546 12.872730406520416 29.326703950301493 3.4380845351141325 6.071959646541309 0.8553575028148779 
12.005638591414796 7.145547568822886 31.69010672692177 3.4382656967522074 19.009774936205055 0.7686793629283404 
9.455760957203436 6.061716794839329 7.910220891127842 3.438567796597513 16.159628729680342 0.8408751454941038 
12.938133721732237 9.419079234890843 0.7204046294475361 3.4390858754526903 21.527485608863287 0.6871882381057529 
12.856404011373323 8.74859329726043 38.56988965444341 3.43948541507082 20.8534083306035 0.7712361988604708 
11.05740831977191 12.567462522631649 11.114795524235582 3.440181245551533 3.7876147163501166 0.7921540127853501 
9.070912614091968 12.91339647606635 10.703695444797745 3.4402603807804373 5.8341561246893825 0.83219850496137 
9.362379029259662 12.937639550411408 1.1537299414723847 3.440393176679114 5.541814663572882 0.8134597005955285 
6.195287720527746 10.457694831424474 31.532432509138836 3.4406834553954333 9.838712573530547 0.79773518582669 
6.661802503564974 7.554620038825076 12.371672370253378 3.4409109581782227 12.877511675284321 0.8220544575527554 
12.892640816809946 10.075171937712408 21.974618565684708 3.4410513611128666 0.5778844835983392 0.7013857786979416 
12.929866177875383 9.200329960935658 22.655445538127644 3.442932489963505 21.332533125347066 0.6864559996713054 
12.406388877443078 11.346275317023784 19.30020319580519 3.4432294220943414 1.9486411374904016 0.8472678446019833 
11.504376460179142 6.700230314251618 21.268869859458718 3.443288440917467 18.365507531117107 0.7920176168839573 
9.911273761191268 6.0801187675201245 10.452001557740623 3.4445222819590677 16.64418612881524 0.808433528401931 
6.706074891937668 11.514666561025825 9.42163264954614 3.444546249011145 8.66941746765669 0.8339828274913096 
6.420223893744902 7.956823473370539 11.478076447719843 3.4447662703004953 12.422151353375781 0.8316943545723291 
12.267163654385522 7.447661192196302 1.2240958502307393 3.4451834888971193 19.448174117125387 0.8416444283118978 
7.067512113344007 7.058793181889191 32.677806696983055 3.446228089885934 13.539471281070497 0.8215247205741129 
11.610601421869596 12.224325125312323 6.003150672566846 3.4462422651934936 3.1417957142708914 0.8492455769452909 
7.780338795076943 12.487491558188655 22.848673317654224 3.4470770908069177 7.2150658855720025 0.8102765262955145 
11.98972364204905 11.884271423658067 25.51286580080083 3.4472415110419004 2.63288535691726 0.7310211299556267 
12.786471020669925 10.542121812029754 2.4024227639248394 3.4477397872825906 1.05868053676053 0.7686251610505542 
8.10042758320137 12.651882245815338 20.412453005362593 3.448646784080605 6.858274507157329 0.8029245992782542 
9.40209798524981 6.05173181281935 39.77490578843535 3.449657706963734 16.158213802571513 0.8500873153293008 
6.898034162014616 11.765267831018582 6.926977123538826 3.449878920816006 8.366856535966505 0.7803886745437596 
12.891167930863704 8.863560155534133 39.79755577345039 3.450373256756751 21.039229289582483 0.7927909067562031 
11.215473166512561 12.493702531722912 2.883328204499904 3.4503772306037535 3.6244345304540957 0.809539837468405 
10.13832837016607 6.109177021080198 6.056322534697117 3.4503831066316977 16.901574167298545 0.8419824934051545 
10.925168143730376 12.642777015070125 35.49916606628262 3.4508189758892014 3.9513846025640014 0.8357874459926209 
6.428511610098413 11.073107141008405 11.64085732979958 3.450899448896167 9.207900121307546 0.8664251323416238 
8.672469808602342 6.149790550592611 39.064295129866395 3.4508998207095516 15.426308409711456 0.8573123228402014 
6.1737709772531755 10.420161720699864 5.362560594041312 3.451158805967152 9.910707033220653 0.8253810981176664 
8.50751219949437 12.8059032413778 22.22861089872709 3.4516703602031207 6.4285704986862555 0.8372112255980487 
11.890301170079374 11.99061182057771 26.769192391963237 3.4520554637033642 2.7821733543004683 0.8394151186301475 
6.242950173073723 8.356012726447497 9.021102730742157 3.4521124629899558 12.011164647871912 0.7764264326242987 
10.362383859934996 6.156976411221894 11.367520547806365 3.4524647191540154 17.140970048504172 0.8505965247593371 
7.915580907841893 6.432406628846673 15.116344898891668 3.4526095855655234 14.623965830580033 0.8944331610829598 
11.836056397274305 6.957507345186011 39.05028507535575 3.4527421553063173 18.836425435245104 0.8287306974467153 
6.553929423087553 11.301310161799096 18.876640465006346 3.4531217967442047 8.953297462749617 0.8327616127636553 
7.121210364011699 6.9967743737816015 6.021247594997604 3.4532272829980135 13.648790885796036 0.8073425820126968 
9.619335492295981 6.048666852711909 30.2458613525596 3.45339564100192 16.393102818706996 0.8867861810769797 
6.344011438044779 8.097717097608765 33.383192078641514 3.4534998395151217 12.293481337279974 0.8824498633149972 
12.933013835634277 9.876543072394243 15.393573408709031 3.453602276033601 0.3772931074403765 0.8281469578323203 
11.249107339408695 12.478302379854807 33.15183417218428 3.453934213418393 3.5913310153876736 0.8545395944219811 
8.368186145516606 12.763275125494744 35.96173308805132 3.453978451854224 6.578611864180072 0.8327553594244509 
6.3066308406244485 10.817691758527694 12.805815603834695 3.4545503554793817 9.500852292221587 0.8281991709556826 
6.0799458528837995 9.987914161492176 28.39557361904056 3.4546824164011567 10.363653959146497 0.8075692342975866 
11.986943982832052 11.898627719676224 35.3507564707801 3.455185278873436 2.651243743125672 0.7843324740108617 
12.824819981019104 8.55728956505435 37.40964031109999 3.4558835151577845 20.759144962988156 0.7915699138854955 
6.62566379187923 11.419499777158215 17.562960578492174 3.4563402656313413 8.823350615689996 0.8800102968249479 
9.507466004697562 6.0432996714191525 21.814334830346354 3.456708391351096 16.296820542308573 0.861381484794802 
12.597160866670693 7.96483068673127 18.34393226922834 3.4567542947739747 20.12870722630167 0.8375385552801078 
12.234505478226039 11.614797828861105 28.733701107357433 3.4568613028879054 2.275630922518861 0.8248112987084177 
6.222884405501272 8.398628839028074 14.706140709366586 3.4572395135320613 11.982144478192104 0.7916791073046466 
7.360490704120679 12.21596070581238 15.482439284062515 3.457447408518448 7.737855641649272 0.901838477662933 
6.083528290102501 10.035962365456074 14.903194091414939 3.458256005809172 10.326300225720786 0.8613112768702833 
6.318737805035948 8.1435863402528 29.338350933325223 3.4583648115050374 12.258617289295191 0.8841904732982738 
11.378423185711732 6.595640220364862 24.26627618158882 3.458869670019624 18.28525576272983 0.8325623764632337 
12.947495648357153 9.216127211719629 14.413200911596114 3.4591631943820746 21.450370976714016 0.7027730831916699 
9.212359174162845 12.947356766244603 36.695935730980395 3.4593360516811216 5.721885671989629 0.8314281662024672 
6.219995319353208 8.40030849557584 39.167488540986874 3.4594439018384926 11.987271954466024 0.7458800640615908 
6.749985082242489 11.599297742572999 5.128542893952243 3.4597157484193626 8.613257060210934 0.8932458969141521 
7.3698328273074285 6.773501363903653 0.04729962571084201 3.459972109172603 14.00999957078912 0.8792500943082667 
12.69529440175427 8.172450921559916 5.804606625562144 3.4601001242087284 20.377962926830996 0.8673727992377297 
11.518744933960633 6.6894756337790255 25.49271828910249 3.4604014682567583 18.462206205882044 0.8474933500245911 
8.020690118907437 12.628557013515861 28.68947712919698 3.4606685352858273 6.964531756338925 0.817267400473399 
6.8337299071231286 11.70626088363626 4.0333066756048055 3.4607200543865266 8.479885997701718 0.8289850932032753 
9.126913086576659 6.059438887416016 15.30151865618268 3.460730358521577 15.934494210849552 0.9018769832257536 
12.453560739742974 11.306415955744681 26.2790099002654 3.4621755658140816 1.900421981227252 0.8868171622185311 
12.03982929237744 7.146673555119163 2.656933350723307 3.4624959480978394 19.167975042504242 0.8645057320642132 
12.955923304413846 9.71381476720054 33.34639045627735 3.462531247608277 0.2139508868153932 0.7005197384311826 
11.271260079770997 6.524046483026696 0.9407426971112116 3.4631866258369803 18.179183587770797 0.8514607031106609 
12.522255419863491 7.808780236492435 8.87232239087961 3.4632718795053923 19.993503899948397 0.8215274897933077 
12.085591833244292 7.195712334194782 24.687749125018243 3.4633837175400655 19.23996807636833 0.858726537385502 
11.730366486684234 6.850376749578981 37.887943444918136 3.4633853429983534 18.74413288493793 0.8615501613323492 
8.373966851241809 6.224313234784825 34.04830133612167 3.463823672750699 15.176011113220536 0.8840447574882117 
6.538178843554576 7.703551779480552 14.055718688143642 3.4640454344270935 12.77125468176558 0.8251508555745889 
12.963322634976524 9.583248866787233 7.197762905228863 3.464323028783844 0.08325688098135231 0.8292955905382096 
11.232797983388684 6.500117900349084 36.85495994792288 3.4643731702924114 18.140121525227507 0.8491866171679066 
10.594113982442295 6.2128425737552195 16.78926325918175 3.4644609034439915 17.439056812542102 0.899235385832131 
11.538621311282213 6.698723503046068 29.60374803583423 3.464552909568636 18.505894020447553 0.8726249071109712 
12.33120712599555 11.49689874596338 20.36177390242495 3.4645834369975965 2.128243605697122 0.8988140978351162 
6.557498965871295 11.32913005948213 19.88962168452757 3.4646831183168256 8.957676662845191 0.8894137531353948 
6.126468592189404 10.290020930235606 13.723431880143117 3.4648011818421702 10.087962172000402 0.9001593981511069 
12.338584105654025 7.512928950534075 13.357376799816617 3.464969131247389 19.654845584863594 0.8518765649676603 
6.090766607927229 10.119809576480725 33.96589033770343 3.4651170590214155 10.262823083170538 0.8644607642455578 
12.731813245741503 10.750598535592914 21.224595948048705 3.465344651340959 1.279471190940285 0.856887997135846 
10.221422238064017 6.110286105338098 7.101422739369362 3.4656327464457726 17.058146273557053 0.8574889583980396 
8.95669365694663 6.077193939064081 32.10933547524654 3.4656576739749814 15.785970292855904 0.8560272399787344 
7.692785568350246 12.457257157326541 7.894966732500343 3.4657457922534065 7.3451150148571855 0.7982853222658801 
10.497947094708344 12.819020161660859 18.5123483226241 3.46580340431307 4.43179277327301 0.8854034336619092 
11.369671512772225 12.418336337497287 4.608231515349281 3.465884958337346 3.469394482265944 0.9134086600053125 
7.083868045681326 11.985319539870929 30.271924256202368 3.4661948641044433 8.118104605312162 0.8275752654999629 
11.936343831556579 11.965519199297287 21.38031026182277 3.4662019831030277 2.742978893668088 0.8644598448706701 
7.677710434021439 6.55115894897691 34.84801937553978 3.4664683478251015 14.416564642724989 0.9426175324957893 
6.514549548541181 7.738319399329683 7.174862345928297 3.4664726938047283 12.738221430172711 0.8773907679780456 
10.771580567046552 12.724916467760298 22.83752668157048 3.4665549703591894 4.1432766012997 0.8850761037603104 
12.026675394415687 11.873437221932328 17.270554937672372 3.4665967165506157 2.6142852917182537 0.8284487645819566 
12.555317977570166 11.138280642812482 13.85261985415412 3.4668330517458616 1.7063453073749173 0.8332824533360635 
8.671509828759163 12.866659813415698 3.2186726544910087 3.4671017093692096 6.282695126379096 0.8952389342127132 
7.486060306170927 6.677697997905888 25.208410155945415 3.4671806531250673 14.189806464904457 0.8546874500366349 
9.288631010380502 12.961412317839192 28.417928431804157 3.4678598708514206 5.65880162869124 0.8440307410588681 
7.344403927163306 6.783192474274726 3.24804270574392 3.4680884592331958 14.016859068559949 0.8891413537049212 
8.996794809550032 6.0683906550845155 35.05738234708666 3.4683076795185097 15.839027340139527 0.8623809778053966 
12.400164808987352 7.5978026298522465 25.621074149751905 3.4683296778544084 19.778769542189995 0.8797986992576448 
8.8911468634677 12.914541798597277 30.961249914366476 3.468399895662714 6.060174128042256 0.923485807876199 
6.158465989817868 8.568333174350842 6.714092999180565 3.46898437805924 11.84138282801472 0.8857673157878961 
6.438250310869179 11.131210425939328 6.094676933187202 3.469172612105925 9.200500721050538 0.9256480728222463 
6.0314547743817855 9.433268899527368 33.22561584781691 3.469187083731464 10.965507872416229 0.9457546259251746 
8.97054807550287 6.071416587762657 28.936253725734915 3.4692223271250264 15.816796048660574 0.8982483838816914 
12.47182843570787 11.289925894557731 27.804344861007785 3.4692360771919444 1.8806985060396144 0.8967438422092201 
6.084997690495918 8.888460837715362 3.889956066886299 3.4693257156003674 11.51395933809074 0.8508173406291981 
12.233924375165957 11.635856329024021 14.897187276531248 3.46932626706664 2.3008501562634507 0.8614294048552035 
9.91349751514034 12.944636056241203 7.226558464356401 3.4693656127574957 5.035183969047701 0.8402784796015866 
9.55164882233784 12.969261544944006 18.94523354925495 3.4696459859870674 5.398456440060407 0.9038069078723262 
6.440513902629814 11.137201262792908 24.082602038043024 3.469997572750178 9.196336962059124 0.9314379735393655 
12.638364559388036 10.98069444114431 33.56371667343767 3.4701279710780875 1.5297637443525574 0.8043238202999359 
8.52784445251678 6.16870514519421 2.2148255323476462 3.4702466509108425 15.367809753700637 0.9063861817225748 
6.5183100599108155 11.27574585689918 19.90021292643206 3.470410385980838 9.03851565541611 0.918974603823645 
7.041971855769749 11.949977233741471 16.603437625018053 3.4704885540337873 8.182838865244396 0.8571203852135435 
12.052199734201245 11.85184633607934 38.3934283399234 3.4705769940727045 2.584074176007725 0.8186077213137873 
8.624550595183894 6.14163123388969 21.338014253829307 3.4705982812158176 15.4697993795129 0.8967045851348369 
12.800970612373717 8.42807353493157 15.166707888403906 3.4706531561464065 20.71701243873087 0.8418104662122153 
6.041358799069684 9.789344753634795 10.587118712906463 3.470723172946623 10.613917453878955 0.8658626266533869 
6.157558928516988 10.435457884455445 19.25187673806797 3.4708779537642016 9.956914644794239 0.8968019337621744 
8.218648635188861 6.274276597655293 6.232046569377829 3.4709008612372836 15.043833787450396 0.8972007571537699 
11.549326661374538 6.698574918083853 11.517071818839227 3.470982894600517 18.548808183607736 0.886016194721963 
11.035261231001563 6.386601194885976 35.83475195531399 3.4713512019243833 17.948665854691917 0.8490232588382244 
7.082512681373101 11.991238425801384 14.292298694682522 3.4713850016832257 8.127106344529967 0.8755046657279242 
10.481616652399337 12.82979396495426 36.44529662516986 3.471469300067837 4.457778997484596 0.902535404720237 
12.816359918360325 10.526638809559213 18.863787419573754 3.4716322318759563 1.0422238170554223 0.8504576121675276 
12.425532400875936 11.369217015253529 0.23681235059611083 3.4717016114130885 1.9738545015704645 0.9144036408620205 
6.21863330558867 10.63423414963415 16.861463623574153 3.4718661393245376 9.751743786738274 0.8806175762960704 
11.629642718233628 12.242216174151157 28.05333662947244 3.472049488861258 3.1612276657431053 0.8852061372930533 
7.721224215720559 12.482062053417845 35.206499385313634 3.4722812934976406 7.3217645954200385 0.8437262129421064 
6.588337945884245 11.392228196029198 15.736308778564435 3.472506798153964 8.908030223650133 0.8803975051134048 
12.865388444302571 10.357042005987532 6.453692417815169 3.4728029574210506 0.8659889591849925 0.8110183494527096 
10.090875469038195 6.0776911145559165 13.106010792836088 3.4729428338659174 16.959621427051083 0.8788954927762488 
6.066100670837805 10.01982043677601 29.86983971025701 3.4730214351930764 10.389037500523788 0.8331321079643574 
6.939876300308109 11.84708945686098 2.823082899313306 3.473191943476789 8.334200945797186 0.9052410980048051 
7.306764391086489 12.193153332781685 36.20630231977286 3.473234416229255 7.829507436826162 0.9321412802432077 
6.948083426123199 7.143763572399868 23.159652972965816 3.473345405049278 13.501392128097056 0.8754773199658892 
6.191547226258116 8.442495367587265 0.6879335545252765 3.473352242957046 11.986422154839115 0.7648742824238235 
6.029661501759941 9.35355559966896 37.27679389662748 3.473427018774884 11.058580626145325 0.9002517943372614 
6.569200851829498 7.635821317036937 26.110381239330238 3.4734342960434477 12.879873893761147 0.8246648803810188 
8.651126193525785 6.131716617693607 36.27717035512228 3.473603270789485 15.511411244520964 0.9119354177540038 
8.751802751519426 6.107815570004451 22.573321404637774 3.473717652564483 15.615402260817483 0.8651004100313037 
7.928174065460405 12.597868072301392 2.487657265008181 3.4738197077389668 7.087766693385191 0.8823139667259918 
12.713906934166193 10.818433150508683 38.17483332700253 3.473825521502449 1.352332535248216 0.7903924896808335 
12.560106651015913 7.855153653940615 38.0956831080679 3.4741577709909386 20.115303166695906 0.8686460177876488 
11.29566648603681 12.474141394439403 24.84213449140823 3.474181221985079 3.57012762487226 0.9038133120323623 
6.223814501261783 10.657055839507132 18.088000803085254 3.4745027900233634 9.735887275796099 0.8816874195339788 
12.073952173582464 7.166073117167489 10.728946480599973 3.474542341992419 19.2720852978907 0.8625632811941719 
12.90002910952298 10.217297087051202 0.043109985623743796 3.474868782658673 0.7224914376722253 0.8097110582914931 
12.94851650959757 9.072625918703805 6.171871921684158 3.4748978002713686 21.404967890333637 0.7194890409838887 
11.376731537241069 6.575448222700285 27.193979655949278 3.4749279648623173 18.357761433413536 0.8602470754477085 
10.971686714550055 12.647966097495285 17.518083419645563 3.4749895448422334 3.93883741706016 0.8752711131440682 
6.05161330407665 9.931078318798095 16.123035949560926 3.475226513705107 10.485554560571416 0.8652384868067314 
6.035782617965436 9.22354764772427 36.07398384524187 3.475230635953417 11.194503790821031 0.8853881660596196 
12.71304909895085 10.824230799869587 25.293075012054302 3.475236930569208 1.3585714228850563 0.8092667644045242 
6.8592830155295434 11.75929340402235 24.878544271264456 3.4753119108260817 8.458489444123025 0.8713265547284761 
9.886815813518227 6.046193300187703 14.510156412980152 3.4754002925211482 16.76505698087019 0.8780637001507131 
10.63772984368079 6.216087485006538 20.809911494910594 3.4754151699232425 17.536606831486587 0.8589838912673304 
11.298668799358234 6.525903116976886 5.213729971331247 3.475695861175514 18.26935026932846 0.8769024077740069 
12.906682700756493 10.189437622480456 23.25839136012536 3.4757461442005564 0.694040627730331 0.804207178394768 
7.161325071316769 12.071694838668884 32.176310024369585 3.4760631129609445 8.025449030166481 0.9022524978062321 
6.489826223077591 11.23838885239681 32.25319188395322 3.4760814100663415 9.099957831582717 0.8988690833878333 
8.010135349470236 6.359349983377447 19.28923463112406 3.4761155337257437 14.841086953564151 0.8980523202593377 
6.948733457104229 11.861250173300819 21.833166325646623 3.4762714729739503 8.325167031127531 0.8784836143412883 
12.941433576605267 9.991651509096 34.600449444070634 3.4763754498877812 0.4933053957205047 0.8548179522921364 
11.223999044389675 6.481147079480687 32.75154008564148 3.4764415227045697 18.186205694729964 0.8864192057343586 
6.7022629217498295 7.436361662895708 38.637729733116934 3.4764832727028 13.13108327916331 0.9234697264697911 
9.257888198466341 6.031904946627462 27.630424511449192 3.4765358366726113 16.140481231174405 0.9493290448013025 
7.0690807011574694 11.985347954764519 12.393895619377155 3.4765389532892064 8.152914268816023 0.8285816154681497 
6.096903703294826 8.787821788438894 8.090522222470511 3.476817828082287 11.640000255554288 0.8911976899960172 
8.087008098966624 6.323175818132402 31.677337463182425 3.47688912605574 14.92935656273957 0.8750613105507948 
10.956460670199233 6.342848338432919 30.35173215873391 3.476907289240393 17.88735825483431 0.8948777122561079 
12.57450579611657 11.123758969174288 30.618639869313228 3.476949680442371 1.6894591755366264 0.8192654408389627 
12.228226923088572 7.344383054926352 19.12110056092426 3.4770542931846737 19.52192149589215 0.8935772419033049 
6.025997749897918 9.353026214422533 0.30397544427206924 3.4771098526450546 11.070680355063764 0.8883670581400329 
7.488345863094489 12.33615184410319 19.66995950382247 3.477141016602432 7.607045772449467 0.869197530958875 
12.264393879048816 11.609329952465396 6.700555039795731 3.477232573022725 2.2664309810492327 0.8895804043357709 
7.403067419405884 6.725771932870943 30.480206598519835 3.477566335241317 14.136818229577365 0.8911304858306525 
12.973521100032421 9.6699867983178 38.97134175548743 3.477678010393256 0.17005455980564932 0.8040050542790232 
6.03787535050208 9.831341938038813 3.3740610533194726 3.477944014581662 10.594438144385663 0.8478021198406253 
8.331073982754221 6.224332496123681 16.02421992472442 3.477985858186517 15.197489402283068 0.8514182852406185 
12.968635150376455 9.757231456789862 11.371136676783998 3.47816012121198 0.257466524475479 0.7983404297353118 
8.41359672926644 6.195835421874927 38.091785135877615 3.478185680206999 15.285671685018116 0.9211388396242929 
8.23787794938409 12.741333503941023 14.026965918951802 3.4783897070945793 6.755440654137939 0.8270565469405792 
11.37805984211496 12.42787149613344 1.6390108152272589 3.4784393437913375 3.480042199621927 0.9456027005770636 
10.611482850638057 12.796126567187349 5.149406699856883 3.4784830708486636 4.332666073868861 0.9214528055978607 
9.077857940498738 12.952914220130614 11.852272510893734 3.478623367077865 5.887393913335824 0.8987462892877622 
12.910965065828627 8.81713686188172 12.02821319311532 3.478646970548179 21.169656956358963 0.812830592304762 
6.036157077037073 9.179391888755749 15.419680449165092 3.478648783070226 11.249561206855734 0.9243727675780715 
12.97859646877047 9.473360369003048 16.801176750999446 3.478698472486803 21.830667239058023 0.9076145400428709 
12.072942107019957 11.84126877386107 9.103084972308693 3.4787311706329387 2.5683106803159106 0.8173506620376376 
8.194059599972451 12.72437226259206 34.1784024205422 3.4788010601638573 6.8032273875341644 0.8119303320636233 
12.73141184090726 8.211258400255256 27.86653843665991 3.4789189982620043 20.538491564303666 0.8627637210869163 
7.143785317404053 6.940451827404079 11.688235547846777 3.478941574433212 13.805591066226818 0.9134924470399249 
8.515802027029775 12.836860529345385 4.481552610886709 3.478977413307231 6.46258735960803 0.8919292871641951 
12.19806346858336 11.6964927415239 10.795202259005436 3.4790985677429833 2.3771963918546533 0.9326667788762812 
10.55036610939871 12.816812559372735 32.30390228728423 3.47915428197516 4.398028370186243 0.902745817503003 
12.724069039182263 8.192075103367918 2.7592420239538598 3.4792655409789686 20.51999873446098 0.8668990973402619 
9.365109801314821 12.976753885191636 5.326668773179335 3.4793696187522927 5.600305028304668 0.8881003261657041 
8.522004303556951 6.1608757871940085 0.36282254682832615 3.479400248722234 15.404933006431435 0.9218821355384125 
9.08360032060907 12.954480997988087 14.76007211580611 3.479486694680356 5.882964974856536 0.9001967412140491 
8.174522835165279 6.2827200447427405 3.606987299088239 3.4796235464484444 15.037513201569404 0.9113838352086744 
12.847841034176883 8.551321197053506 13.413546432377302 3.4796596185946895 20.902503387422357 0.8980279186794944 
11.215299231693404 12.527521979124714 28.93440936179138 3.4796753854822713 3.6721761334041645 0.9202340599362573 
10.280154417076023 12.891283737447445 16.797686498840662 3.479862971779027 4.679313853619167 0.9264104965947251 
12.526327093335683 11.218210349051343 31.867478982497037 3.4800721945736597 1.7970115858097806 0.8906878982607789 
12.89895988598858 10.247198722457686 4.12027218157456 3.480119859631548 0.7530619344268317 0.8531130479247498 
11.40964056825588 6.5905310244343145 7.4253136644193845 3.4801920664968877 18.421414510826096 0.84491987386059 
8.066985703055005 6.328527555160601 23.299475001425304 3.480196466239275 14.923088447401575 0.8483135146193193 
6.3253052911489895 10.926044272484368 34.76742559812379 3.480271363197425 9.464290667765482 0.8673430205792304 
11.058202693834122 6.387977995897295 34.53155719616379 3.4803270807628595 18.01626062188623 0.9083625551664765 
6.0468053452802515 9.066259538564967 9.814322958883409 3.480328161434052 11.36864455533641 0.928002159889627 
7.814296224397317 6.455023804490271 5.287668520640658 3.480442105581136 14.641470984906643 0.9320167146000015 
9.002746198176865 12.944785270997135 12.88202506209305 3.48048946366835 5.966101214633419 0.9307313616530882 
12.978186312519146 9.630808888084838 21.053537260256256 3.480645197344528 0.13083969989211042 0.7723822190830549 
8.11235113434601 6.307899626148211 10.62199827768352 3.4806715115183677 14.974962070926129 0.8882536889529601 
8.106164101308476 6.310503704505896 7.756676241318111 3.4807564021993582 14.968615032278482 0.8959915966772273 
8.684450113204186 6.116037073581568 14.3085365309421 3.4808514339493253 15.579923920454121 0.8945941304330751 
10.328448553349169 12.880832138127877 0.7090666627820461 3.4808552040762404 4.631238458335655 0.9266725710584937 
9.962600483291943 12.950105630092134 25.157965831158457 3.480980905712554 5.0039389560287155 0.9000715640128011 
12.837353353005579 8.510248077173186 24.932801211175764 3.4810251753696027 20.868328836699344 0.8858569374505 
11.926030434358896 11.9964246927383 39.47988340853464 3.481057298429475 2.7837939627433137 0.8629937880718733 
11.028449997491393 6.372437144537054 14.752130356262512 3.4810643213969725 17.986514471581856 0.8997056322321092 
10.040552920275886 12.938920803489934 3.048025068579065 3.4811454655464584 4.925421379591505 0.9344991343211958 
8.206565545360366 12.732060525188144 1.4958887185757206 3.481262404204602 6.7935633401913975 0.8251050385343284 
10.624355389696142 6.205250706012171 1.7684058938212814 3.481314112884966 17.550187188020807 0.8878919281366137 
10.8496722342001 6.290957441029546 12.35506457619779 3.481317176738472 17.791317983651552 0.8867943312607615 
11.715769332581019 6.814534338743913 33.77818937267449 3.48157429232698 18.808323114192337 0.8726562316541947 
7.527754929895881 6.630817356747881 12.668370232256422 3.4816604740969788 14.310240447457222 0.9020806546115084 
8.916648964073367 6.067487588016265 30.996305979302242 3.4817294394508997 15.821148059386523 0.8386929652440532 
12.088329019484249 11.829212588687332 1.1532775737592118 3.482050889404666 2.5514887316113715 0.8308550212034 
12.809650450385842 10.582352790313765 20.11936862202152 3.4821363652848514 1.100585845970734 0.847124492287726 
7.886376779219628 6.414251971262582 1.206233378672323 3.482186209193656 14.731625112461792 0.9439797059810854 
7.501141134708778 6.648651060473243 18.21690144058779 3.482187177377701 14.280370620436564 0.9071434106887337 
12.871227236753978 10.372208847257054 28.485459129001626 3.482229365660069 0.8815963804182836 0.8726045644028627 
12.782097176261914 8.336248746230533 6.8870947896038075 3.482309414034948 20.693415263735055 0.83155408697158 
12.956105348549823 9.072373089583449 35.59288396301799 3.4824601871072507 21.452233750952146 0.7631865276932059 
6.195086467011862 10.597809368908942 21.049875227484605 3.4824759684730604 9.823664356675582 0.8707984362346118 
6.354263472310453 10.994113358221357 29.55051942785949 3.482532559626082 9.396476143719802 0.9010606822824107 
10.66026532135843 12.783745006055126 8.012067340428978 3.4826996541101525 4.287734970074741 0.9092304014846591 
11.767266994036316 6.856127524199048 13.928231957678435 3.482895532533861 18.881657839559082 0.8921936364463516 
11.268701031676265 12.500429342385212 38.71866420038136 3.4829412251858103 3.6158017375580656 0.9492073901342694 
6.098006388813051 8.753434215547328 34.168769568715135 3.482947171731474 11.694405450190985 0.8921347493455375 
6.119864387621792 10.340221193428905 9.525423287812842 3.4829999155834774 10.093575299846162 0.9025777954822304 
7.758030367527571 6.483873076036845 35.94763258243736 3.4830273932186606 14.58914453535441 0.9274745947906549 
12.450865235940839 7.649628264410234 11.805030801337267 3.4830275911272452 19.9337343090434 0.8753382566644983 
6.336998150385032 8.041583440523388 1.708231315805449 3.4830388400968624 12.447083520538056 0.8770402648218695 
12.884388369824183 8.67690656948209 1.5787755944238882 3.483039970078281 21.053632071632446 0.8625694528268217 
12.81721677925524 10.561988504044555 32.63660430088251 3.483065710447524 1.0791720460034995 0.874214024290512 
10.087530588744603 12.933217881070417 39.02392213034574 3.4831275043575745 4.880930881557891 0.9467657311461076 
7.502746827870634 6.64602680443855 20.925291472094983 3.4834154553489634 14.288228950063495 0.9389652663403741 
9.69575059323302 6.021974738431547 38.3771935228193 3.4835295340874306 16.611599948572756 0.9385819458641173 
7.71587229196027 6.507951371553768 13.935211887152512 3.483599671831146 14.54299095481909 0.9455473387649247 
12.267697397820275 11.615551503837642 5.532404873688407 3.483634172999631 2.2735456599357065 0.8576047111971961 
12.977544475339933 9.705925519227902 12.485526532078033 3.483636160312467 0.20604563428591938 0.8682009321389964 
11.160250460968285 12.56264922672751 34.495674650795166 3.4837123703199167 3.7416518317556466 0.9231164651627736 
11.136864910187963 12.575230463729794 30.181525033336698 3.4837292000464677 3.7682250962969555 0.8685694344709203 
6.037958115307305 9.111318091146957 13.950516717040763 3.483792134676836 11.334148593084457 0.9363758728045362 
6.388421807082622 7.932773370144991 15.613900674791871 3.483980218078979 12.570815811855619 0.8921455903850446 
7.06601379534634 7.0072367907246775 29.565082518352128 3.4839858297589203 13.72314296435079 0.8921034558305069 
6.611147808108992 7.552367802709055 8.223721369787832 3.484069196000252 13.012249095413042 0.9086646641634817 
7.809651309055141 6.4533574927578226 36.97426852995238 3.484151153999192 14.653817455030882 0.9298861403380937 
6.051753829562607 9.999239795789075 2.1697416969611183 3.4841989073007382 10.444969591339696 0.877641337637065 
6.127669584889071 8.623791589818149 12.284034541945026 3.484301021260314 11.831971105710014 0.9174718330488432 
12.284446473954976 11.594666094813318 2.671330205665356 3.4843605173805936 2.2472548496313927 0.8709141191920544 
9.58405080205436 12.983393598120324 0.03228661279492684 3.4844074814452477 5.38923551761696 0.9459618602640026 
9.453290980127338 6.0158578419105755 3.8138893573423616 3.4844552386726826 16.37339805049658 0.9305294646105218 
8.006336218097221 6.351915895658896 27.50836996312109 3.4844605065021526 14.876469123085506 0.8922150132190338 
6.8752143481512995 7.2081922458282754 5.018428469992955 3.4845204117973614 13.448049190728902 0.9197523293641605 
7.6659042128975035 12.462771148364151 21.381324405535196 3.4845258262561565 7.404978612173615 0.8567756946850493 
12.60033014598101 7.909322688406814 36.250153176917735 3.4845805089990263 20.24241173361004 0.8930173879421957 
9.0819888124181 6.040580953847158 37.282366751179865 3.484582254708399 16.001686720795284 0.9179697625261293 
6.7621886152541055 11.655717875157343 35.32970962167643 3.484642124482387 8.623060019898517 0.8824926582757054 
12.926647962113517 10.133102615795654 30.19240772357017 3.4846427619461995 0.6366384010610062 0.7934394333203957 
12.115211010675235 11.802955754001264 37.128681705018096 3.4846712664531934 2.515908591850433 0.8680321977400861 
6.662438909123871 11.522677164078123 36.649495454529394 3.4846772956096332 8.78944606430245 0.8962283866045723 
8.765045266462128 12.906397606109609 8.874990206697511 3.4847816447030118 6.214397508159138 0.9157669825340039 
11.575104421833142 12.29978490325462 0.43444444415483474 3.4849467522480113 3.251361969159582 0.9372069723791945 
12.845760380374555 10.475223273920887 10.59815048439632 3.484992533260447 0.9884217880305552 0.8934328604669157 
7.1933292627780006 12.112392111738181 27.929820582801284 3.48501397922995 7.9950542036776255 0.9386987524410777 
10.63131609844426 6.2037021421172245 2.864119120313447 3.4850330963251577 17.57502307400238 0.9204570318770471 
12.975271804151154 9.236618360510507 32.40660669749097 3.485238012065776 21.63476329155958 0.9107470837145798 
8.292391166074342 12.769402533037434 0.13957605774000825 3.485299415947915 6.707874174501775 0.8674257462257302 
7.377685691611784 6.735357016527038 24.088970843118567 3.4853219147814207 14.142317592982163 0.8906624579224295 
12.5177503928325 7.755914603198201 29.789216005921475 3.485491544212666 20.073443090353372 0.8441699115914252 
7.02053759767867 7.05022505757834 10.5535665396023 3.4855603671493243 13.666771222732052 0.911161389786139 
6.157984148916997 10.49046097537279 1.1836920866014466 3.4856969020020157 9.946341387618435 0.8557613835330478 
6.635578284521092 7.513591909442239 22.104291551051958 3.4857895613964494 13.064483943128216 0.9539488425094614 
6.3987117486393235 11.091461724639563 22.279608541063403 3.4857910492484323 9.298247828936926 0.9156926551817609 
8.719323280641433 6.10268813347796 8.752411529158003 3.4858548533408444 15.639349481728019 0.8958048660666201 
9.640455131173768 6.016916608017533 26.064066902700787 3.485914164086249 16.56747665627458 0.9095394041323001 
7.038415012490402 11.96824084364867 20.631819619192406 3.4859164523820874 8.208790735933157 0.8657572715850822 
6.7961409747069705 11.7002464983621 8.280537686388051 3.4859630351185964 8.570337022587157 0.866500477327328 
10.974805104285016 6.3413346196064975 10.563019412843765 3.4860030236535304 17.95017567464538 0.8927223759741806 
11.85453704196976 6.929306364048751 35.04402141484786 3.4860164159005276 19.012481426250275 0.8616979372413628 
10.622217647671636 12.800542541470037 20.017352833997066 3.486108649597594 4.3334032010005465 0.924454519293269 
12.434429560161945 11.382181239375207 36.140961654422796 3.486184599445103 1.988223207148259 0.9020070979991985 
6.96466112009011 7.106986953004199 31.34881664422319 3.48632394924437 13.590108589712443 0.8988402772297728 
9.680743587219073 12.981641790031508 35.800310296651745 3.486330133308469 5.295489916514036 0.90736159282991 
10.77287021319133 6.254284771520517 26.249740088971585 3.4863829284823784 17.732185200245212 0.89768988135655 
6.356088657417169 11.007311885812884 10.356314767042292 3.486569610825771 9.3946636218459 0.8864109087874438 
11.876475677294767 6.948517956766208 36.048478250839864 3.486788961454092 19.045849344027495 0.8696155925401439 
6.499167965100515 7.724371685555697 23.89216987007672 3.4868106935615675 12.81715259255446 0.8764366207199031 
12.910611603609087 8.774759030389527 21.663089178958344 3.4868676451328735 21.178061014963166 0.8420080538433143 
11.892445127020167 6.96331667399016 22.311459366386515 3.486912098441672 19.068294148808395 0.8163828648986263 
6.0795190990368155 8.822421555090154 11.080604384450204 3.4869473960558066 11.63648508746845 0.9218163197332547 
12.515166465833618 7.748381128541128 34.043640209250334 3.4870327626132878 20.074503715963846 0.8362628637712773 
8.129891040256393 12.70662374119678 38.419255559029104 3.487066729957505 6.8855341531204 0.8679874572908235 
9.328096385771918 12.982832352471172 38.180768853666514 3.487072131173167 5.649453413077055 0.8723099402422814 
6.740726664246548 7.3678071466678166 20.77854294204267 3.4870955973705113 13.249175808741509 0.8966192706393203 
7.512789401337244 6.634540469019321 8.557301608864954 3.4870996956103224 14.318154688250218 0.9173820458361 
6.114723434677336 10.336572099362485 32.759685138814795 3.4871120287645714 10.110273520083997 0.9001036755562205 
10.002557492710304 12.950903665131776 26.290655489299283 3.4873055701356583 4.973533320538795 0.9051665493814035 
10.884472606541287 6.299273975150431 22.1450580681108 3.4873215344175765 17.857306802082558 0.9125690425608047 
8.194634213179878 12.733823288519627 18.12386659649163 3.48734754487883 6.8158605997853385 0.8213028479658692 
6.606926908697076 11.447289059409094 13.54378339178595 3.4873781831793647 8.889879955116612 0.8875458226754457 
6.092545659947913 8.757599995142604 2.3878512144741233 3.4873919835246614 11.70408997132592 0.882017111618798 
12.360212633287738 11.495512864684168 24.64097088850103 3.4875332114173174 2.1244906761734548 0.8819287255501734 
12.965259879351162 9.105383472457827 31.238072871456215 3.4876565535112896 21.51812900759972 0.843380724549554 
7.697723905235534 12.485927807584101 31.133839957264186 3.4876874851201154 7.372452847511035 0.8460715616803047 
8.003636272887652 6.349532957869513 28.782901930066956 3.487771062923709 14.88918530782643 0.8639432954750231 
6.17699264438189 8.440597849857284 22.73160347555794 3.4877945468761564 12.033638172499245 0.8606891549682595 
9.668731260109128 12.984007848254116 13.63334464021544 3.488091301103555 5.310283868676283 0.9173570085352897 
8.91232021052298 12.938320094479351 17.079204603353205 3.488181848335929 6.069719326464011 0.9440914039834625 
12.237196062016697 7.337697663453655 33.05031237126161 3.4882364708479106 19.585018686458124 0.853256657413076 
6.354222366778563 11.007457212697084 7.342509487701477 3.488315376480274 9.400043427906695 0.8604794072734667 
10.663515016586091 12.788587448025803 24.091349048251104 3.4883484053537708 4.29323865888421 0.9025461721173192 
9.910266475009786 12.96415120173522 23.28693306660776 3.4883609516505767 5.068286348057278 0.8836889457814935 
6.014975375871575 9.653740270964379 30.872670253799306 3.4884140668357695 10.805385921913789 0.9326384345562578 
12.988389216216412 9.52343283202093 4.975960099594907 3.488467918933966 0.02343300824387029 0.8633784377795071 
9.256047602833963 6.019956989098686 5.582188549967405 3.4885831120680155 16.19540895585304 0.9223070108069694 
6.0184659475436 9.277953742152803 23.554997563951105 3.488607730748391 11.1819808752755 0.9109725380229825 
6.958365028804032 11.889741903262255 38.606514511249145 3.4886637400319676 8.32739187476778 0.9007863264972227 
11.966479828503813 7.032686749820405 26.420164008040814 3.4887185926824222 19.179642909001796 0.8390337309809432 
12.761357466287324 8.261129031654681 11.069584365610787 3.488732405776767 20.653845307089448 0.853947121614228 
9.899389833167257 6.034193416472402 18.66379641392317 3.488742970363482 16.840581319619652 0.8669268530617069 
9.51519213061245 12.988784606515352 4.126814067254234 3.4888176838996654 5.465029824101986 0.9025742838083349 
12.713490289943632 10.858576489956135 17.03293566630393 3.4888751658125483 1.39548981685817 0.799930114561156 
11.078680947778206 12.611380117946837 12.188917889930067 3.4889711625682396 3.842246153906501 0.897938273623191 
10.26099083635169 6.095027357610377 29.255558381936847 3.4889748850390148 17.208564395614594 0.8541755948389894 
7.750075350357886 12.518412574463515 26.9084988187078 3.4889899325026064 7.313596344379064 0.8749519818703908 
9.368694849091895 6.0134659887098785 20.671275400715587 3.4890056541280896 16.310215631401597 0.9041813995352453 
11.717035155979037 12.19405502563439 7.790811125576013 3.4890080773757064 3.07809216601893 0.9189399043811114 
8.969177166405945 12.948393675029385 26.720181130692552 3.4890101488312504 6.01341661468496 0.9261866206729676 
7.107249589705129 12.039326624146726 34.44424938794181 3.4890448879409197 8.117208056793348 0.8495954405583248 
11.887395577069105 6.95561180922823 4.375032142501851 3.4890641878228545 19.071102955976585 0.8172773199379236 
10.155056968832687 6.072895279524852 28.211300231051872 3.48914694409956 17.101185035998768 0.8706065074329581 
10.82364132270638 6.271662778501565 4.049676298584259 3.489152843726987 17.79988645993931 0.9036051296380619 
10.687672638201928 6.21911724510516 39.868284156144014 3.489234578944196 17.654522436219978 0.9300219342289738 
10.12887827928572 6.067905192185227 27.04393560698761 3.4892352543195626 17.074967568476318 0.8903645608639994 
11.134894457791718 12.582560519398696 6.88582293371098 3.489277753901748 3.779410268978406 0.8641073173039865 
12.987298677504615 9.382249139298082 36.625765837768824 3.4892860775983183 21.80605779364616 0.9083368597420027 
6.056643148883358 8.935442948688605 27.778731185872545 3.489331034498926 11.529106404459917 0.9265816835133279 
6.783054366773147 11.689504968717044 0.9966300894117062 3.4893732362627956 8.595312656391066 0.8584937848018367 
11.734139365410611 12.180450211145857 10.030605442432382 3.489440075213958 3.056621077128984 0.9338432659014301 
6.0189353247955015 9.742892472884122 18.477893104145572 3.489528338664174 10.719587555427001 0.9076699768913679 
12.34083706526715 7.473535334078974 37.142913962654134 3.4895435623620026 19.763262116660695 0.929233198843222 
7.744503114804983 6.484165735965803 38.850725933637506 3.4895595169092744 14.604644930603556 0.9184157003042481 
9.526916728127885 6.010464278724715 24.75644090406294 3.4896395315719015 16.471455869132832 0.9225195716306479 
6.669000647370435 7.459614907129575 16.505506644758725 3.4896602501958354 13.1423957208271 0.9265327949085262 
6.557302405846318 7.624297052122861 30.229429147363156 3.489660539266371 12.943380621074631 0.8750730083380601 
9.862615272244781 12.970781591769681 27.436213090117427 3.489672576823283 5.118293846120348 0.9324872241822815 
8.782490033420055 6.0847940891312575 16.945228994426024 3.4897638839575347 15.722461022936233 0.8922334189717599 
6.464167077322998 7.778814243313098 32.26075963177263 3.4898082960861148 12.76348930566732 0.8755688016865264 
6.153473270568615 8.510177889480133 16.408107869470353 3.4898408217671943 11.96725632849935 0.8919359289750584 
