235

7.5831523408264125 7.113965954100925 6.199818940245613 1.66183633566108 6.860025148731118 0.0 
9.693405192686246 9.678455722909819 21.09181365723914 1.677192250396296 1.3066927716836911 0.0 
7.116585374657522 9.507897577602893 1.5331298553535717 1.7116347602655324 4.299551795842433 0.0 
9.849622992487927 7.433242873937006 37.8264634628198 1.7203060738886689 9.658346396697398 0.0 
9.76295873949375 7.25699455871627 38.82699890448624 1.7720404354090231 9.756410385602969 0.0 
7.611688690327981 6.911101911073542 32.69523626023394 1.820355492722606 7.650236941037095 0.0 
9.863742358280062 9.710910119706474 22.161075519428337 1.8237589034120734 1.324244837603013 0.0 
6.865645828740144 7.503739952911019 28.7304464988189 1.9140657351669583 7.061031068637044 0.0 
7.256741979974555 7.017129336364503 19.002540512056996 1.9350958398560953 7.768752553610845 0.0 
10.097426802653326 9.615165632642078 11.81042045711294 1.9481701101447055 1.1873132323664306 0.0 
10.126594246870614 9.595124185615017 15.942556207148264 1.9608941393842594 1.1619371431270973 0.0 
9.794497628888319 9.993227307465535 26.600873073734498 1.976221622935605 1.6927626255148676 0.0 
6.990230888100729 7.19234746763253 7.307023968030656 1.9973377072123197 7.70048659186377 0.0 
6.818089176856407 7.367099466472887 11.3362755394772 2.027877618564191 7.572836743690589 0.0 
7.117976230277723 10.013198451062216 0.34608613450443215 2.0493314159438585 4.735837186260232 0.0 
9.872440295249906 10.025149493716647 24.47549852674122 2.0517488496913545 1.7194713986893184 0.0 
9.922174629817606 10.005753516358062 27.76667849086555 2.071201180407521 1.6858248230253263 0.0 
6.540857462985704 7.7599458218244095 29.830900499868783 2.094258739261691 7.335699936280715 0.0 
7.140029039935252 10.108971578804152 2.353973184964758 2.1067298245429944 4.787589563336349 0.0 
6.5575488832525615 7.674458209629453 27.726332877519646 2.1106007648538307 7.478836413900337 0.0 
7.460492394896697 6.644665586605292 31.712803800406135 2.1266974036271096 8.935717226461026 0.0 
9.584624014847689 10.363415589258544 14.148941617605814 2.1560906548371515 2.250248682355698 0.0 
6.776476397406325 7.195607647727908 14.603983697463427 2.1614747320668366 8.190784275783917 0.0 
9.993393719458942 10.075588379995075 25.489417281588274 2.1708762158388772 1.7631295402423959 0.0 
10.367616353007168 9.624531736973982 29.926649196696296 2.180037263324073 1.1815319725971438 0.0 
7.542390967964815 6.530539339587783 28.161971347398875 2.1899293027736535 9.328701751750673 0.0 
6.53243562462154 7.524251916966573 10.047104053690447 2.1962226419017368 7.910724359716047 0.0 
10.403938834839186 9.604033711048775 14.833170159584277 2.200880169827728 1.1565299876059125 0.0 
9.558438429702788 10.495609418803596 13.018399028402115 2.258926484392382 2.446729901492109 0.6105845629400904 
7.426098128381286 6.511159096641904 13.03454272419004 2.2602551556707984 9.532137520361674 0.6549553217043931 
6.800208280496529 7.0040854906944325 5.3660923230040645 2.2642994741958242 8.747622709910877 0.3631780673928239 
6.386302577353067 7.651703888789953 33.84022338255498 2.2775695569616263 8.024441180328624 0.5599198235727993 
7.010780272430141 6.775570906137922 23.653877005250113 2.278471219204059 9.114001747764192 0.4879971901715095 
6.766699233393242 7.009226628799539 12.462410439080788 2.286205763224291 8.806255037689786 0.4480617919126688 
6.393558018976282 7.598968972611964 24.245299041396233 2.291059739887868 8.123617761261684 0.5682131160922497 
9.343256523678429 10.637902513211552 21.49094539122835 2.2981968411610216 2.7465736787256825 0.6215650637772969 
9.49059729527747 10.579167273880177 18.205674682316133 2.303089132922422 2.593679539821488 0.5450232577608191 
10.538674079368972 9.589749759790855 7.81835119422546 2.31165450291672 1.1347799281369415 0.5860498699749697 
6.931206109247393 6.797214045526182 20.254249453856342 2.3152957215906613 9.186918198180987 0.6042927894593294 
7.282486347720807 6.524548507871895 11.659962077701323 2.320505998966038 9.653431615890042 0.6788329715510951 
9.372823984533502 10.656365471469806 31.77084552666524 2.3263133397124607 2.7594446673403823 0.5657061052166585 
9.419195528931942 10.64349699318056 6.63129978110851 2.332273521734227 2.7186991187243326 0.5463339781750125 
10.164134054933994 10.134982629876514 32.20889295526341 2.3329188483076257 1.8116567402517898 0.734854220387331 
9.669416591880685 10.521954433027926 19.322010510828395 2.3357728687967745 2.4442483685250895 0.6521018919398829 
7.55825119104904 6.361985872247356 9.322837804050891 2.3362352684672976 10.039927760752414 0.7305209394684423 
6.30335444671873 9.302396324349715 38.44154875617561 2.338608891644843 6.527919133524877 0.7524233233118225 
6.341721406627757 7.559946349763713 26.657279844659143 2.3541171066732103 8.362697819424968 0.39194409229802435 
10.622037312231233 9.519904330107192 18.932811307820472 2.3544101590574593 1.0548413743694205 0.6727291762335122 
7.52521808259298 6.355913474903527 27.04045744293184 2.355272131538938 10.093955129838367 0.8297946977735255 
7.550181189705826 6.338436529838269 14.061079595350762 2.3610405350027905 10.148635507984405 0.8028026945625075 
10.705197376545412 9.35122757102922 12.734295363620603 2.363785913995399 0.8707901264446019 0.618949896051556 
10.694989503134382 9.37774746984552 10.311974538836026 2.363983828136378 0.8992803520718677 0.5949928729795607 
6.658562012917953 7.017202785651268 15.897974668736047 2.364229565661747 9.030221636900878 0.7061032038111996 
7.754837128647724 6.254905523228487 19.735455649981887 2.365526773146294 10.389210389221395 0.7416785899026764 
6.156317627701139 8.852970601764456 39.70344085769685 2.3701129314727565 7.091640828468323 0.919476134201122 
9.370582739762481 10.708546556110441 26.029537379914153 2.3739402261387363 2.8375950602584616 0.5220779998290197 
9.179538626063428 10.783511860911585 16.29645774698988 2.3824775262814226 3.053280035588564 0.729278487206089 
10.787981205467515 9.181988374994507 24.942414151677113 2.3874601860974005 0.6916213207641579 0.5381217252521671 
10.89601533293713 8.543098836611303 8.737968927723294 2.3964029263433675 0.0431011603587681 0.6059169409836113 
9.277970100220076 10.768290001922246 29.41057538536341 2.3979943723155097 2.974453513511012 0.5594840264700868 
7.806248428415026 10.797237177945867 1.905536218273788 2.3997062101043367 4.473247627298905 0.8356399340278103 
9.701891361965748 10.577652157358921 11.971322337685152 2.400246098412842 2.5114894629087026 0.7335373740106315 
10.688434803846944 9.486554441760113 21.55805319502724 2.400528391259976 1.0166767244885033 0.6694552490740521 
6.098898957126112 8.662866952243565 2.7408635314866814 2.406618345775496 7.397622988157648 0.939124999589517 
9.30507256071512 10.76994485403659 27.295536990042805 2.408483229832337 2.9623637081884375 0.5782707629308461 
6.1546802559024325 7.94619104765197 21.859236047294537 2.4098192998137224 8.129474029422196 0.5724547450550717 
6.80807886340728 6.782376849536785 24.740080268411774 2.4109803855395375 9.48607207436716 0.6338518956828859 
6.653896898212421 6.948072718097334 22.6036820343422 2.4117576475971854 9.262677647054842 0.7223910696216437 
6.930299055024653 10.33277463821811 36.9798108288735 2.413094264870728 5.499513482822726 0.8631013056548438 
7.689332635438111 10.773544087762705 38.415260768789956 2.4137490124216447 4.6182455865656316 0.831331861153539 
8.689258622258999 10.907588604186937 33.409070334893 2.4150158825792802 3.604045197312562 0.7157450824750311 
8.513449725256754 10.917015313246129 18.457820367925994 2.4170527341321613 3.7832477617774902 0.6241734081208895 
10.907108574251698 8.270550032914521 0.5622666651289521 2.4180196392154394 14.963069755237553 0.7371071126003784 
8.4696986884555 6.080760171217392 33.33228047878627 2.419429585387726 11.370991213248073 0.6629035394677949 
7.193113280390694 6.459053116781828 8.280758300925577 2.423513374836035 10.040226242055104 0.827827473510834 
7.179225088931281 6.467453975180842 26.09810773379376 2.4239822005775435 10.02594234790403 0.8333296294733724 
8.364754374879341 6.079474232158407 13.381390459663145 2.4243012131126376 11.288934445410648 0.6108733267230363 
9.65115148835371 10.63407772349596 33.763817491835574 2.4247551379594308 2.6093198457073132 0.7408716771129896 
6.200790154721645 7.727136485575608 32.749279342551645 2.425630624096205 8.406920068399161 0.5377158075342828 
6.121469962534368 8.019613415466665 16.51986817190724 2.4265564921768967 8.10683321275753 0.5974811524088426 
7.579768152502778 6.253831799524875 17.455132828084416 2.427364463358113 10.494849763761218 0.7841683415557283 
10.622485078388012 7.320181964898524 0.9101567376721036 2.428356132022335 14.025819161604167 0.9126246809212294 
10.928731801327892 8.484738731688472 39.17383520484951 2.4287797489875222 15.245211864474827 0.6257086794781472 
10.286757276279362 10.151390506884773 5.105386633110335 2.433021202243497 1.8151469144104713 0.8123724895498805 
7.486236637278031 6.287502665072154 33.621504557486254 2.4336927934026877 10.42286856452091 0.8862128246377305 
7.845153785799077 6.155815936750276 24.16813614132454 2.4339314876650215 10.806616274381371 0.6764540093133978 
6.766249087685594 6.790547473664656 18.009388124054723 2.4347731240806243 9.544150003611232 0.7136151935349397 
8.450143950363714 6.0644654305491255 5.218159108326589 2.43604479939832 11.429731137694455 0.6872625242675791 
10.565280823358703 9.792383061535018 19.95773951951709 2.4363166578004267 1.362266814192889 0.8483161825183508 
6.063206854970037 8.514089985482453 1.7358715547389352 2.4368338801313305 7.64144935184502 0.7997887685473812 
10.131128118622382 6.688015927903189 36.94008474848555 2.438004351286751 13.275685789834982 0.7196278219801624 
10.724343869512795 7.4986269947363215 3.3059658196648485 2.4393551495241472 14.295048108351674 0.7466350943426955 
9.515823201460822 10.719261875592471 5.539831225813991 2.4407007291112786 2.7861394077639314 0.7162705244404826 
8.260438970270332 6.070957385747265 6.286495649611112 2.4408272181416057 11.262179966900112 0.6481113372802015 
10.915331848575377 8.859555185051093 23.948299827387714 2.4419475567341054 0.3608672161932045 0.6939568891364643 
7.7574038306260125 10.826398587323144 37.31614257210401 2.442044114644134 4.590498880353623 0.7875670684448308 
6.057831783322813 8.44951318905836 22.73800509722348 2.4426900164833225 7.724427416974899 0.7075575828018611 
7.8572418216483015 10.857883491811506 0.8382623699028215 2.4439215692806537 4.489311798538214 0.9101918160871457 
9.312593822490873 6.195101204529291 2.076487728932726 2.443945003004909 12.34518342172287 0.7755288331241877 
6.625822983693675 6.9288980735942545 13.565674229855013 2.445588017554617 9.389220007614488 0.6800699897701017 
10.917716503122236 8.875121373688007 11.874704558967153 2.4466444642544993 0.3766068202907249 0.7092090834243556 
7.376245622507053 10.673604904184256 3.178723829001875 2.446912785619547 5.011158690026736 0.9062261012289378 
10.717102849327238 7.464096448020751 36.36456173205357 2.4471700418030182 14.306384182512451 0.7625624328459442 
9.827496142197068 6.443778865893375 38.06855399413142 2.447507172593134 12.936702405649166 0.9724833560361946 
6.223589672171796 7.600555747542014 23.250257977973064 2.447660912774199 8.610579549598922 0.5683727800285818 
10.945272917085726 8.615570304099045 22.931505863905933 2.44800247839386 0.11561327750231953 0.7610118301561192 
7.593225277457593 6.224926236575008 30.21443110223052 2.449122501318914 10.612333147502364 0.8565764490086903 
10.94994389255209 8.50003912139083 30.2481690150861 2.449943892864441 3.91213908343957e-05 0.7397211803816719 
6.126555051001704 7.885965878533131 7.930843529796668 2.4515870019746644 8.322530088608241 0.5675113865439484 
9.258408856143609 10.831741487231714 23.736835944718315 2.451979273231038 3.080506089995888 0.5717868060905834 
8.946651471069693 10.911196931560625 9.034161735658962 2.452216992718245 3.4027746984432543 0.9079402458571684 
10.106069181711266 6.64471208207911 1.4784680150917993 2.4538849758751797 13.314561187927406 0.7189986519635964 
8.987320814746631 6.094091490989397 38.71932656137896 2.4547662475712313 12.05839327376801 0.9740296230531666 
6.332294940079194 7.3475102099070675 30.82456531811401 2.455031149104777 8.912374576323945 0.7027459590161291 
7.785800046434048 6.150445002704394 23.0364509165991 2.4557056539802082 10.847568317113682 0.756089587686288 
10.956669872316319 8.5425942218178 21.90490292052209 2.457039098036279 0.04259635552792673 0.7024968124831036 
10.906882882815772 8.999522542600598 29.356854650093204 2.458171674671591 0.5030259129576145 0.7538508178158841 
10.73698503783364 9.51966036605939 6.79071310453255 2.458416018822676 1.0514214842988618 0.8171822668063534 
6.136167616124679 7.82303956362078 6.750748110904901 2.458857249105859 8.41054597660742 0.56701911303716 
9.214391384299754 6.147106933329809 37.32829866358235 2.4589552320337944 12.312396761533781 0.817348585834175 
10.661588670668012 9.676433744241985 23.281288495408504 2.460987999920261 1.2265909248142908 0.8470797638999296 
6.74697711154332 10.227428410587022 38.02103830542161 2.461117258717312 5.816969116682566 0.888715165537244 
8.492308458078481 6.036898063345138 27.302154045842464 2.4631139458356484 11.599459461365898 0.7538721251768931 
10.964298870415698 8.491398424211164 37.98708379538862 2.4643138821664192 15.475139183451907 0.6511165534841054 
10.239923416105428 10.245141930628751 17.043573722849544 2.4643161022788083 1.939159389146658 0.8296415126289363 
6.107987786010101 7.9050532886572995 15.24880556681461 2.4648902655522726 8.344561584038999 0.5403955650052327 
10.959963514088278 8.343381742456195 1.5856873290200113 2.464944171627747 15.330977171878914 0.6409264192937064 
6.06517621593828 8.114486343361135 9.179578233299416 2.4651546886326825 8.131614440434841 0.7032962990963724 
10.323762325716654 10.159222300094678 28.849846488453196 2.465588704921176 1.8200782498629984 0.8017329740109319 
9.536194427505869 10.737538435376521 32.765049551692414 2.465821798383135 2.8038996278793213 0.6437772969329193 
8.791055279553344 10.950052713664567 10.212405472372076 2.467280177744504 3.5838600445577597 0.8630974319663642 
10.91792398724219 8.995418500098037 16.876623586376084 2.4681563763912027 0.4988070526032473 0.7434300531577813 
10.388478963651153 10.089241491901024 33.19845341399207 2.4682060926374683 1.7266716532409294 0.8209150957322506 
8.704590689120668 10.96030814284258 17.35495576390819 2.4688000137338744 3.6731564056293795 0.7589093609204899 
10.444741397614514 10.023761505848931 34.326215951019684 2.4706007832716823 1.642002586145157 0.7910974642896753 
6.122018824282268 7.8267837980834045 12.985440077180037 2.4714397679471976 8.446089687014045 0.6066388909687427 
6.228901551398382 9.479010535946102 2.035431940838201 2.473125510914104 6.762981566216334 0.814393074054015 
10.88501755781193 9.154483276333307 28.26492117898139 2.47318764150057 0.6623734331099147 0.6787694154805687 
7.744729952422459 6.144576024712592 21.994537714255415 2.473551080557368 10.888807424964044 0.7972936434881586 
6.124798151716476 7.807657941510877 17.545178429666684 2.474049584394465 8.474168555519313 0.5954324938737339 
10.96900321767053 8.341413834961184 36.87825788294117 2.474091037251696 15.38647749170624 0.6923872347665059 
7.891553330854444 6.100232784834958 16.387422880419095 2.4756999083441653 11.051716366358372 0.8333258624330024 
10.057661716015398 6.57534522079677 0.3555568214100475 2.4760060663596657 13.352573584239076 0.7321718015615049 
6.025539160106138 8.39516466677195 24.858854506092143 2.4766806203588883 7.8855883070069925 0.7259500023257185 
9.192239846621751 10.878067158008502 25.004030888504587 2.4767719744153953 3.188919575075257 0.6840834288890283 
6.02328995854335 8.472696335258169 30.575771149463463 2.4768605369621715 7.808591084637685 0.6781492677577735 
10.771621457338368 9.487836560557556 5.724381657582654 2.477112253373726 1.0160920005683867 0.7489304400936182 
6.022741042359517 8.479331763179795 23.8061869533743 2.4773451756312186 7.80347788076198 0.6717667188284187 
6.272087434774594 9.584502578851863 0.9123427056698077 2.477849923184531 6.661890612882329 0.9352844767044579 
10.780026827818062 9.47077017614899 9.221951667619784 2.4780873815243964 0.9974892349334308 0.779779227081509 
6.089851222743839 7.922847104554085 19.81629441873838 2.478290256049718 8.368279903178058 0.667255618584383 
10.972268807741466 8.682472255754845 7.7420782054670525 2.4789935824547187 0.1826374327117124 0.647290649699757 
7.473800236973672 6.243326569491984 29.203223345795223 2.4790443573272554 10.62419307826645 0.6548197413293135 
6.257439230301417 9.556945051022808 37.36649912375907 2.479155430115808 6.696590438852587 0.9097780602380625 
7.614856413973715 6.184042578296918 4.624500171549833 2.4793422408019943 10.778510848230594 0.8348484288448969 
7.608187296798787 6.18654289629378 18.53611510075529 2.4793978438886786 10.771630298467333 0.8355160620527126 
7.757397283465414 10.866231864003318 39.82422165798715 2.4800225863546403 4.6497833159624555 0.7954049082766849 
8.210407160045312 6.0365282977017465 25.163918842206243 2.480434808854543 11.398518856399093 0.770491671320858 
7.82829349136872 6.11217822392193 20.813677808574802 2.480500447097371 11.008883769959935 0.8159122225977795 
6.019285100044895 8.528586379784162 0.7276559203232367 2.480879601264122 7.765326117371064 0.6721802234026467 
6.52912017073611 6.992086330469421 32.07270013335181 2.4815662264296794 9.416764247681844 0.7226015825292881 
9.043714079753714 6.078600034535812 39.75091498203714 2.4816935333099455 12.24286581847888 0.8208061153158532 
8.61307816809909 10.979120212768823 6.130859092568322 2.4816977457900826 3.7851243706360798 0.6896052344961665 
10.882743084974155 9.194656577977803 17.883563693139227 2.481937221268902 0.7040614138862145 0.5248842920565704 
9.42379509108874 6.1959897264236865 36.22957938797227 2.4823095518216225 12.644177067970446 0.955823155415094 
6.782489539055195 10.292259527755283 35.96844453514825 2.482344939424098 5.7960279022871575 0.8456768956967371 
6.135497393150414 7.742949713871033 14.026341190779739 2.4827399609154464 8.569059470328135 0.6133974170335431 
10.97975396858331 8.375936508437528 2.6111770876202414 2.4828555122365388 15.476126097564572 0.712090224862608 
6.302876967475662 9.656876597722784 3.1336138415493267 2.4830853957138848 6.59740379979146 0.9211407695182856 
8.6818364314704 10.976460465239018 19.62525777040654 2.4831272467801044 3.718487818296577 0.7376325482239195 
10.86555471957273 9.25899990164358 13.756288378821225 2.4843369300454734 0.771332637049321 0.5116963730396648 
9.225443070900164 10.876582294973343 30.55899859164846 2.484836222751473 3.1670066207167444 0.6444375240117458 
8.59856284185974 10.983515861963843 5.003635481404189 2.4854709152234067 3.8055798910577927 0.8008455594450358 
6.0885317257572265 7.895008865101721 31.695921281912604 2.4862006176060953 8.421756346451193 0.6267858668694675 
7.435480596544865 6.253174225204681 5.642866501104521 2.4862476993688825 10.616103334935246 0.5855887397905868 
10.864803104229944 9.267706549417058 27.26466639944458 2.48629585282875 0.780460847450831 0.5366150097556475 
8.568959307757753 10.985399774436686 13.33072827893536 2.486356254621682 3.836591120057456 0.7327896720637818 
9.558963887942866 10.749637984301657 20.290265797006125 2.4864182223390943 2.811742853416394 0.6286942430236736 
10.985679722165466 8.566015285171051 9.768125009529413 2.486556192620792 0.06602304270151294 0.6604097369732752 
6.542628402202457 6.966404231015622 6.351256515313814 2.4866080419944145 9.464502136638345 0.6314989559964457 
8.536245190710128 10.98672623543778 14.33446501673977 2.4869903666609128 3.870308858818463 0.7514296683315209 
6.222410495934421 9.499034467920238 36.356634668709624 2.487063291740353 6.785276909347312 0.8061592982605288 
8.432908693712374 6.013595726635515 34.337728811520776 2.487309279921689 11.65406939699051 0.8018340681694233 
8.769310923282148 10.973378242674414 11.310975900933059 2.4879968458047284 3.638296681319215 0.7616310141687487 
10.987007842531575 8.577515643195614 20.876903504770567 2.4882155621556548 0.0775281870368687 0.71562250457663 
6.011407405658943 8.501974470329689 36.694720244531524 2.4885933776216316 7.816172202371485 0.6515657331652324 
6.741188122285246 6.7394092891647475 34.12994813397748 2.48859375396425 9.773942644045077 0.7911816875581379 
9.346391907753095 10.840300237874004 22.63248013708854 2.4886511336270205 3.0455425313751245 0.584096446997074 
8.674653905999527 10.983510640802379 15.370629671756497 2.4896443701580218 3.7359267527377327 0.7297503974579059 
10.840625506638332 7.651338813114567 38.6143079185488 2.48972961834247 14.777413387488501 0.7697660952525406 
8.492200511846697 6.010107665212516 19.061176633402326 2.4899045505498645 11.725599265312482 0.835729098556344 
7.586205157009566 10.816666002322155 36.32199154645323 2.4903739440877626 4.8475224234472485 0.8004852016473516 
8.603794513936911 10.988623215999507 20.653610062719558 2.4907867858038575 3.808694156609903 0.728757611713728 
10.817158350365823 7.5858866999139245 37.57792503329456 2.49094880438445 14.715109183082696 0.8142956908741164 
10.979636998935788 8.739122589240292 15.892541698551597 2.49114015245555 0.23949132997415745 0.6171739287581676 
10.759303108504263 7.450289045116197 2.0678024406993956 2.491253424463295 14.569454085113293 0.830312477372187 
7.925395823615553 6.075540631604831 7.607169100484008 2.4916205948172667 11.16166215499311 0.7749771494718728 
9.22171588667257 6.115167450521177 0.9582114168480302 2.4916460643777727 12.47381449368786 0.8789424976012777 
9.404485547418716 10.82181354550282 7.8710186449560595 2.4917688989089086 2.9884339383366303 0.6152222504326545 
6.100357781394372 7.828284297452242 20.836547807500246 2.49188377786039 8.508612428915422 0.6240456209932556 
6.998981908029741 10.489200046529152 1.3187631737564587 2.491981568457846 5.525282852644814 0.9378863813502593 
6.047394833187127 8.057219648184079 10.75953483807514 2.4922533065945447 8.27478807258385 0.6336681789423945 
8.213894129215376 6.023845305503928 32.366110394884714 2.4926288613374368 11.459498930646276 0.8109766263999254 
10.882059348357835 9.236136032686364 4.482470231508344 2.4932113824780604 0.7472743568138078 0.5721550699577546 
10.905735416392034 9.155630348621255 25.986961907274754 2.493474292571749 0.663430218571726 0.5762343085077798 
10.886338413167937 9.223209749961601 33.89451117452933 2.4935202755543004 0.733753446644851 0.5551861512407782 
8.404809379164373 6.007987180167094 26.28882476839736 2.4938302164555255 11.656684279781594 0.8089420934314943 
10.993957580675056 8.55089357753085 10.86161151005819 2.4944768129691006 0.050897109038178456 0.6331891104423246 
8.573641953055231 10.993806055018702 26.582389185162043 2.494893139454618 3.8453163284296608 0.6987051964088633 
10.248032619948757 6.7198103798498146 2.8115268557327653 2.4949334909162184 13.693874523250047 0.8922871920074685 
6.006995757486106 8.598992355463459 37.726447145052276 2.4949688654635507 7.7391575117146125 0.6509944774900085 
6.365043032468947 7.208768474505007 8.708754406326833 2.495059138706238 9.195633692287979 0.6542442255083281 
7.952666387544136 6.065506846977133 15.091345270677444 2.4952617088071563 11.20682325004155 0.7622275024610919 
7.373056778146079 6.273492960412943 6.74173812884753 2.4954628072991216 10.59033157922962 0.6393244928311029 
8.113727987303031 6.034490935514228 12.186898435912894 2.4955843032954177 11.372332735050051 0.7415911704052118 
6.004198555130857 8.46322967486956 28.343889360516556 2.496072296433157 7.878414044487792 0.6395035391593535 
6.625273201196679 6.851950729393447 33.082629248471136 2.496130398937151 9.641885579838405 0.7634050601496208 
6.546946325465784 6.945392507122783 16.91291678445239 2.496241797687393 9.520372973686293 0.7162038246638702 
7.793010894530477 6.105852919693934 10.765260268073419 2.496352106052079 11.046983759186318 0.6985227525076764 
8.834532480803302 10.973865935870364 34.55847940482897 2.4963823123416318 3.585766259560895 0.8025232952823513 
10.163142243117226 10.361776303669235 7.293516837744534 2.4964481019531086 2.1012354515103002 0.77585223886277 
8.624426842359066 10.993695235044036 12.330290677757727 2.496797541728362 3.7974820052677902 0.6982044916627399 
8.577553280266146 10.995706776674606 32.386065923492794 2.4969114574649223 3.8445735907095457 0.6965553940466935 
6.099182968436647 7.813692775803769 5.703818053709256 2.4969861883936413 8.539769539061425 0.5891339887481024 
8.568505379417568 10.99627826561013 7.3022376617016675 2.4972180854636377 3.8541070212154587 0.7400174295249532 
8.41865917176562 6.004070164130301 28.319958680554464 2.4972549080785478 11.68668129195898 0.7709329787081474 
8.472906031296146 6.002696940277737 18.048628349901293 2.4974500305788507 11.74186150296621 0.8530773175473934 
10.871406332816678 9.283807154196403 32.78848661015785 2.497583161837158 0.7972789893627095 0.5426528493886511 
10.966842607637274 8.891892534248814 31.712275735920713 2.4977774539086988 0.39351844819735504 0.6894740856372427 
9.188279547584957 10.901405559998576 28.33896865279292 2.4980947538505895 3.2266987212420624 0.6720864006083815 
10.98761951127195 8.738848222682858 14.884661199401748 2.499059684429256 0.23921335712934066 0.5431495660318438 
6.188569393624881 7.549647632884131 18.56221168586964 2.4991760781846453 8.826282253241878 0.7069640767202913 
10.239594457640505 10.294878894659686 6.1374601390203765 2.499555785244318 2.0022401171534376 0.7685526020921525 
6.110603570016247 7.765522221763007 11.948733754804245 2.4997345671776956 8.598626615203294 0.5914652591913843 
6.000390872674634 8.46113209136816 29.362268715679605 2.499911299172371 7.892572446840859 0.0 
