100

8.225730175523996 8.817324332799705 30.572255085482155 0.8479228603644184 1.103428862115953 0.0 
8.871508640573904 7.988329517927729 26.518296245921274 0.8715867775194677 5.464670403608247 0.0 
8.220295886298187 8.934124786609626 15.19007611617534 0.9597496519813817 1.2852935614422094 0.0 
8.29345109400175 7.07126300186353 26.558184220506455 0.973994844071757 4.887925047416851 0.0 
8.994464725352211 8.360256340764778 31.130822969517084 1.0577072945910273 0.3676127527637245 0.0 
6.94715532803964 8.773579090171324 22.8271422170723 1.306486322938595 3.276566174640868 0.0 
9.143613074578745 8.95802900432742 37.47609087559703 1.4918681032450685 1.0403128966495974 0.0 
9.255484666361724 7.157034525494506 26.084905552839622 1.5122276742202811 8.607440804824288 0.0 
6.899005391962323 6.944443723275112 11.448581249223807 1.5252502025114922 5.9575114099676565 0.0 
6.8477964820807795 6.989825239343457 34.66248010435552 1.5323269865707316 5.916932468024767 0.0 
9.029002006103669 9.181286438107556 3.083408691401516 1.566615069958862 1.3381829242143723 1.0 
8.884378758597874 6.541037472391617 19.35574577394621 1.7060766236088445 8.969412284836276 0.47484602929886627 
8.0356513866083 6.209829038569337 25.994072638023923 1.790525926234156 8.47330838659032 0.497155200859168 
9.074079768599795 9.44373785361255 15.368879454541421 1.7994516773920795 1.6756018502540666 0.6146366975790327 
8.131516785682805 9.821791213517912 14.726277876436363 1.826532203539646 2.737479382780707 0.5163692178296447 
9.552554700247718 7.035728198042655 18.779280834942725 1.8276340457846982 10.467599756291527 0.7310327033568718 
8.388089574333872 9.802241735646337 37.4572312536816 1.843553305823342 2.504832094306691 0.6087394230552751 
6.984848840490757 6.441303574009115 0.09160734442902907 1.8601253788521128 7.691828546655858 0.80448427915126 
7.100819937055542 9.637400034036425 22.332268075239536 1.868048087459016 3.872440471073199 0.7403764691012286 
7.651208495639317 6.160250538247832 11.463056258573495 1.872520652898542 8.473205087860567 0.46729083002146427 
6.1175894402666735 7.898464037751488 11.347556397107073 1.885146961651866 6.023948964931835 0.6538208087035837 
6.112656518693807 8.059759691022922 22.953154648673813 1.8882893414675976 5.872466251938411 0.7157028549052252 
9.899648177858875 7.842068925164696 25.67552798189433 1.906201831926826 11.818907026110791 0.5477888939881121 
8.914986586545526 9.681574084661824 2.2159264111650074 1.914390727036801 2.053135848595952 0.5682500129793673 
8.228380404688572 9.900906971450663 2.910067101303504 1.9145769567597593 2.778484947627261 0.7428288613000983 
9.908900114296669 7.808181629492767 26.69187033600302 1.9185134697535693 11.862236240621531 0.6218652567232401 
9.878397844995542 8.396157702285352 3.1950238690100043 1.919718570302401 0.39902474991187553 0.8269268850003939 
9.923983164673041 8.001536031186065 31.00429162225378 1.923983777825867 0.0015360313492394084 0.8570142394404175 
8.831994421457887 9.745749385333577 7.884170738074758 1.933870635210535 2.1776489992115913 0.557089719452138 
8.090854074064165 9.933121691318611 30.012197576606372 1.9352555222038745 2.949004784704182 0.8277386846993654 
9.642354539735198 9.025701944875252 9.329024524081714 1.9363349178046856 1.08098270384904 0.47250662368367363 
7.078133760394566 6.295158027302017 1.0783189694432735 1.938123710085871 8.172462029366542 0.5468296167363805 
9.077773487144068 9.626559893102016 32.311968514983235 1.9512285297828964 1.9231465036086384 0.6284324824417218 
9.663798005591271 6.979912638482244 25.182661172922934 1.9516152357823404 11.18896827376113 0.7580796519072329 
7.890747768959893 6.049389399918787 0.40932971893154324 1.9536677719449724 9.097133225796016 0.7328940022504121 
8.969478597998554 9.696186422015632 8.948973805497268 1.9536983211866263 2.0544082412564055 0.5668010592770786 
6.045758688966225 7.9050976398053265 6.711870639195784 1.9565442902529788 6.24160478182279 0.6723032668839737 
6.994461789639354 9.687027625926154 23.334289606351717 1.963967744932012 4.140633127921575 0.8300001356930709 
8.526369223524478 9.893968629869754 31.438643022075787 1.9657522047309175 2.5549248822060733 0.7922939118888891 
8.372214368061671 9.930305425148628 15.933797738644948 1.9658643315726996 2.7134975117270983 0.7287812904343451 
6.198042078977732 7.2074777938167784 33.87012754846203 1.9685384924934586 7.000008257118374 0.921220451075871 
6.215448075483245 7.163291234276869 12.14729717581941 1.9709660397719648 7.056100042554821 0.8975541175147292 
9.643007393988118 9.089137274163576 31.643067147043077 1.9712161978514922 1.153920716297895 0.7217471381779003 
7.860679630420391 9.967406795695275 21.74252538053245 1.9723335582826105 3.2375707986229987 0.8338989984945694 
6.029144797049422 8.09155110098526 16.054129961779793 1.9729804446798183 6.10671688339516 0.7622942836721088 
9.163830483748535 6.406794265449676 20.422689466404954 1.9730194898952176 10.542415820188348 0.9058908141517857 
7.929712404935927 9.972051165037943 22.804452781815584 1.9733033582162167 3.1699601329728555 0.8167306880297138 
9.96592986434283 8.18110800642718 8.652882270418424 1.9742543760891187 0.18136298591852196 0.6801807354381494 
8.010391552273864 6.025622110579272 27.028757433570032 1.97440523565759 9.3145570755764 0.7442731170725119 
8.114716563817959 6.028881565794569 20.028155485313537 1.9744537907174913 9.419175488340024 0.7722804448277562 
8.130203041424634 6.029227566156008 18.867009595124784 1.9750688134836205 9.437590046310582 0.7771628286274626 
6.336646611458743 6.9349100077114585 39.50596986671253 1.975135738840468 7.330000804408126 0.8524167834393689 
9.069040935442176 9.661660026666482 36.724182609348944 1.9758447727168107 1.974076587711135 0.5106096791287845 
9.725964359212165 8.962837339835016 32.69496961500897 1.9763624951539691 1.0056793430314013 0.7399905899485799 
9.687898321970977 9.028930515908787 8.173153633783187 1.9767900120854418 1.0821801008195635 0.7999043025269298 
7.964649523466642 6.023470576402119 5.878684651290811 1.9768455221739776 9.280312693775368 0.7241535892025821 
9.508027150850898 9.279085391855265 14.358224788316676 1.9774239119017987 1.3909974571551071 0.8541555791131952 
6.909756326889331 6.348031353576598 12.322834358566652 1.9793008047095355 8.172611071057444 0.7308667058393508 
6.4082957608897875 6.822334036474899 4.99659478721307 1.9800049258643104 7.481614430684848 0.8539367192096701 
9.888602465381316 8.594978880108584 15.093548436739745 1.9801058406104584 0.604316641984946 0.8833612978410889 
9.715172079488289 7.010453794373841 19.768914790276213 1.9801557906703453 11.40549250984084 0.7524570813155503 
6.710469247590284 9.502740186302233 17.3692147324615 1.9801812111365045 4.514784190614286 0.7180863970156866 
8.995539888236268 6.288126985456952 18.37009476602713 1.9803052509626367 10.375080383829445 0.7587684770405202 
6.028974044023762 7.8052594173465835 0.008707847759914955 1.9806229357614311 6.417366192345162 0.8645728601850785 
9.829604364504345 8.759165895699823 36.751197590384834 1.9808546104666689 0.7790983413247972 0.899663880716618 
8.913279370157614 6.2412297279426845 25.330740750921564 1.9817547976043988 10.287952450729893 0.8082760356776006 
6.410939284363417 6.812143682852387 6.473428624194099 1.9839648656583948 7.506341660801713 0.8374881571130035 
9.973653560684648 8.205177235694375 32.086762587864165 1.9842898164457663 0.2055446227907538 0.6831526109805268 
9.603714621641068 6.830951188221469 26.992195005201893 1.9845845187308468 11.21942050624413 0.7825114468239845 
9.981554746091808 8.116639467999178 14.184887153421158 1.9849846289717445 0.11670669545961943 0.7817361241948803 
9.81419142347814 8.807767703025604 38.230622031704286 1.985895058424011 0.8318841632930543 0.880843010111103 
6.080503148619341 7.488952255399958 5.788047134442351 1.9863629979742001 6.757203890095997 0.9492731953690748 
9.635369781676635 9.12885446712076 3.893201162720331 1.9871453723267438 1.200571804718722 0.8046022704556951 
9.107691590852626 9.649861352790765 38.210449530671724 1.987214921410916 1.94654564197279 0.6306866023102028 
7.195087968916942 6.183012617504568 6.528580924175273 1.9872912534225702 8.536166410631283 0.7176937674278797 
9.735004116901651 8.969469708071166 13.415985340812604 1.9874885661390016 1.012728998629612 0.7291969960401204 
8.953500181919408 9.746596876986384 13.545697809607063 1.9899153870501454 2.131382103156339 0.6889902483501704 
9.989394439773948 7.921812499097964 19.035353584534114 1.9909303157822522 12.431176495073307 0.978217101017553 
9.042327172453277 9.69750013401762 30.287153783590753 1.9919720478521492 2.03204991605646 0.5922283892918669 
6.707657746918175 9.516009759789497 21.398914211016248 1.992092892130693 4.535434865333263 0.6976504880490297 
6.258230563401005 8.967097907456079 29.475655614918807 1.9922447472327056 5.249039472461286 0.8997603452307723 
6.203509525865934 7.138730442664311 10.637866669167714 1.9922759030936594 7.149559727562222 0.9116772472391504 
6.24066141238465 7.064532819562739 0.746135413464895 1.9925790101141818 7.233638440153655 0.8584831161173133 
6.006608022989493 7.968451826749872 34.64778791294543 1.99364160802419 6.294759319729113 0.7499845452866146 
9.993524492924502 8.029509630395054 37.58240822013546 1.9937428926960312 0.02951070796277655 0.867362221874272 
6.977822335243674 6.287882133221732 10.69201772219882 1.9940398110539472 8.323440496240174 0.6238669983229236 
6.00575373295835 8.020388736103435 29.886419517195236 1.9943504892995747 6.245047754592626 0.6885930796703547 
7.7704892592972445 6.017985035952652 34.6123090098243 1.9952590051934467 9.172416644195023 0.6541808812471673 
7.165539548769024 6.186623337515472 5.243727257182172 1.9961611069029785 8.545786141347609 0.7150653960310991 
6.982195315146781 6.282193636735212 35.419316827623305 1.9966935363701055 8.341188316714318 0.6359253445244883 
8.921906671906882 6.228267657733655 27.514982773568526 1.9972349396951319 10.369998129074947 0.7619254902897135 
9.717054971135255 9.020423202123744 2.372383699520597 1.997383609958981 1.071013210046324 0.7344674537848117 
8.949706736738678 6.242263460587864 26.44326304715974 1.9978940481895864 10.40454317156942 0.672252595942287 
6.983382789408296 6.280046332426636 33.93879582693848 1.99793672859536 8.348497945466377 0.6460075970674743 
6.189068777902232 8.845572004873063 16.784374471685062 1.9986154974365535 5.40575935396061 0.8987670272826582 
6.236699614026634 7.059125526634396 35.464761800113585 1.9986177788173576 7.25847529630501 0.8260292664971832 
8.709058184352989 9.869136929347286 3.7869531064928736 1.999108893844393 2.415357175944912 0.6278604366444409 
6.230837576381937 8.930864912336338 22.10663018035186 1.9991110940018009 5.312109288288767 0.8909423575439012 
9.75777567458997 8.953351540518725 30.64636333049382 1.9996635922048611 0.99375392451919 0.6274441006544004 
6.224009724475938 8.91938876005657 23.52456018766017 1.999854282410194 5.3274196333989146 0.0 
