429

7.252081697188238 11.38206073559186 30.493913609479698 2.9545611757675303 6.511374872260596 0.8138986796790956 
8.3001189870361 11.870609509025348 32.53581201284031 2.954696665584157 5.347823454551314 0.8437365596001583 
9.465611362257329 6.082205399487627 1.638236326098614 2.954711368550619 14.391309546916837 0.8685195014708065 
6.667721066585839 10.814295225214515 23.787766470975427 2.954859080816492 7.329436970665622 0.8864033651341061 
8.686676163937266 6.061128539256623 7.7838158772515555 2.9555265671309687 13.613677108411753 0.8810652459762276 
11.902028856866293 9.560147155036887 14.13529867982502 2.955594072497205 0.563555789362912 0.7712241563188547 
11.490518347352685 10.591620922713375 4.882477301037227 2.9556621593340697 1.6807511183505692 0.8417983401345377 
7.270456064725655 6.603180859915689 32.052425921556164 2.9556833751805636 12.080803654742475 0.9075071333954652 
10.31111185748929 11.649155137398878 26.120250955342705 2.955847973907976 3.2846074258870956 0.895125044685541 
6.310653175154995 7.772745392336278 22.25215124858861 2.9561360280500857 10.552535953099575 0.9023126002692753 
6.158817848676399 9.81721387668577 3.860581605284594 2.9563752362052433 8.459730552845464 0.8153256035378816 
10.695584722974916 11.421962953334214 35.006543264886716 2.9565033570265573 2.838278673608704 0.8695930512401502 
6.528252904548118 7.377715109409886 24.62907738145094 2.9565760551881297 11.005575871529533 0.8743920801291767 
11.88764834738976 8.364469573340536 35.37108440432485 2.956756990588297 17.937323449151904 0.7985500220851927 
8.45082697298799 6.094498779356373 6.706065819958901 2.9569457818430056 13.38189854698038 0.881551925662783 
11.04442718849737 11.13652253660052 4.030456485580821 2.9570950404863883 2.3876235237393644 0.877973512136891 
10.578297639356597 6.499266271913694 37.72877461653967 2.957142644037826 15.600071803741827 0.8716885699778502 
6.076698290397042 9.446403827523405 20.907727789624275 2.9571894194648936 8.842167695167888 0.8790143435403749 
11.956472348255701 9.06755437351223 6.030706119517895 2.9572440446099835 0.06756025025704737 0.8852736378217895 
11.95725874520408 9.01198904486536 27.9521132845978 2.9572830475425915 0.011989077706626716 0.8645457939746553 
8.68443218437696 6.059344092222325 7.797537237540432 2.957539554123464 13.620907121837813 0.8623025011252144 
11.590197210694436 7.571814228984607 7.517636060509616 2.9578431646759196 17.094210866631848 0.8851047674101505 
11.897814472802194 9.59429286040584 38.588368552742 2.9581265562364303 0.598365024931816 0.7668361073297222 
11.244054829600945 10.92743920638349 29.95475527608277 2.9581757845942054 2.099250497492328 0.9004487833638368 
6.869769204831162 6.947406659993742 28.67731762980476 2.9582127476102364 11.56197317197643 0.8055064563603306 
11.60838423484761 7.6043135310285415 30.23361372688359 2.9583118558177004 17.13416189138571 0.8928124608851333 
11.950847837108796 9.212747555182919 13.151149886494757 2.958507137055104 0.21293134006537073 0.8937876716678956 
9.082636495584204 11.957428339462403 21.989943384473065 2.9585826291414943 4.564683482249176 0.8590099776675101 
9.771492004156592 6.143522590291845 9.964325805893104 2.9588279951106573 14.723661096685511 0.8854215588096718 
9.315164449158802 6.0579950627998205 28.609525085030302 2.9588378935865682 14.258958558395026 0.8621751847921572 
7.829437234158192 11.717954463080268 15.118607322262001 2.959306278868948 5.851928473778511 0.8702149856471219 
6.056694004949119 9.308119338721642 22.157058317409604 2.9593897525328945 8.988518359356682 0.8404236351115699 
10.052551575673824 6.233954609362584 33.7327378157774 2.9595391402243596 15.022606902266318 0.8167673405328085 
11.670501735199636 7.724275257279821 3.248394676384315 2.9595697553686273 17.276572418611316 0.8074363555446312 
7.568291085443242 11.59032880170944 8.996597208974709 2.959661081439349 6.14342835108544 0.8582992767425227 
8.67778163839526 11.942165941808708 31.48722746207035 2.9597576086048614 4.972034643883394 0.8781637327504432 
10.967827125287478 11.211015068652566 22.638055038696244 2.9598870297404742 2.496746562201359 0.8456085354207409 
7.632413627449662 6.374972969514097 28.99751156132083 2.959908680545235 12.526625531470163 0.8746874527631904 
11.939418819332762 8.65194568081915 37.70122904419419 2.9599535139167408 18.249074992917922 0.78886251043785 
11.33686246792039 10.816756107044256 7.169215112046487 2.9599879976880894 1.9560455300192174 0.8921652283099104 
9.49916655886232 11.91784324390061 19.80571147580371 2.960232499224154 4.148359429108712 0.8623043033901335 
9.750408617434672 6.136267166757033 31.407058363380862 2.96041869223156 14.709330607261428 0.8710934566065164 
11.92494520436539 8.539114250131565 18.053712653217005 2.961033624086678 18.141955643975308 0.8226366753688802 
6.857679206088873 6.955058003219902 5.829931478547071 2.961642475758845 11.561479392772227 0.8146290501887732 
9.508227063429747 11.917825782240326 19.814733695149226 2.961756580731917 4.1415615000508765 0.8791723343642809 
7.167463648321661 11.326815571457375 28.60394466530002 2.961800159328625 6.6282527375644875 0.8666310946411658 
11.879861466436612 8.307721622476238 29.528334558562815 2.961899967563614 17.91142475615294 0.8856670299429716 
8.002071637736844 11.78885315711048 8.110565988153205 2.962020078955292 5.670572200007566 0.8643222414748077 
6.141098838175099 8.224745039515893 18.27792355040289 2.9621505881435164 10.090260470021555 0.8541416292411039 
6.047300915812727 9.237020765158507 1.8905819975268088 2.9621969422840007 9.068741737539067 0.8535278897194214 
11.796823656989345 9.976719881196773 0.9299389843662453 2.96246591450776 0.9953410152637794 0.7819323132832596 
6.425831892495653 7.5331163955053935 36.02430950758777 2.9627839872031876 10.842444799729805 0.8889207694747058 
7.254155526010589 6.605953335710042 38.01034779361039 2.9630106915361 12.095911878206092 0.8487936491936692 
6.3822616043220854 7.611819748173552 16.3849006135121 2.9630387644726 10.753411394849714 0.910458789710035 
11.939056263332146 8.619280781149204 25.223521566547063 2.963612464988344 18.239152045741726 0.8312912136510121 
11.69752027857813 10.227802376143444 24.842226359970795 2.9638006559489947 1.2659471346425626 0.8411281803445003 
6.359753489186582 7.652972415606861 6.350552308906721 2.9640150051877985 10.710050463390807 0.9135009839179625 
11.71950817177733 10.178991685418882 2.078930758908527 2.9640759252506585 1.2125276287860345 0.8295571271717872 
8.114433431713488 6.171100368501499 4.365881724189755 2.9642707824959444 13.069498663987261 0.8347862286049994 
11.962566011683398 9.101106146785318 34.555830703545425 2.964290779680608 0.10112576083530911 0.8509554280675514 
11.316148588729908 10.850189493788918 35.81178986245777 2.964413170933235 1.9980796503910074 0.8878446074659075 
8.56563435898685 6.067544921778284 29.426661797423094 2.96445042054697 13.533708371598422 0.9068193116437484 
10.360566975557784 6.365914596184538 2.044624168418615 2.9647172562610633 15.384415408192947 0.8789512138897972 
9.942549303249788 11.810918453264494 1.3644948028391326 2.9647363693859017 3.6978011069984014 0.8962372963519636 
6.038692739207903 8.857288860783777 23.365148968527123 2.96474402977329 9.45678437269757 0.9040144963645433 
9.984456098065852 6.203321388353155 39.74703312674455 2.9648887105356856 14.975215408993787 0.8080154283640506 
6.946850098841079 6.860785265064196 12.447562468619438 2.9650740629527883 11.704679918071612 0.8868868562777711 
11.02814029683292 6.83651617819779 35.755325975168965 2.9654705041253404 16.20780666848911 0.9052976280694022 
7.4353170306410465 6.480661120582852 16.586693586344893 2.9656873038040956 12.327239714788188 0.8680716652216518 
11.833204307305486 8.123371099199288 5.655726207825062 2.9657250170326703 17.74427589309636 0.8024675405877267 
11.163384262670355 11.029150095207912 8.512419849727856 2.9660885989552 2.234626440181035 0.9105385540505717 
6.045019418214601 9.261608218853466 1.860887864720766 2.9665382348623908 9.057706233577491 0.8614968511794411 
7.179098179405681 11.342508785849198 2.9888829167957667 2.966990200864231 6.621017522033817 0.8882232314623839 
6.1095011179850225 8.32994451608333 1.2248617493274807 2.967146463937473 9.997450945172261 0.8129808935598557 
7.692644495177808 11.663729356931256 39.00376806798657 2.9672601003225676 6.014802446273965 0.888540593192558 
6.204614882081838 8.004653912013831 38.013131649046684 2.9673037917186225 10.337085400479342 0.8506187851875556 
11.948761587725365 9.331764651238506 15.969235249446449 2.9673662876456666 0.33245975734201494 0.8253028204821085 
11.289891868170823 7.112218754338523 12.374523607990156 2.96771339576214 16.600628515638775 0.9225581039282806 
10.159663146037866 11.732112599596135 11.59749995376285 2.9680393981802835 3.4707838933216983 0.8534439430957794 
11.72747496498441 7.829458944500304 31.824368166902218 2.968044145094047 17.445542699276633 0.8745827310645502 
7.15992708563965 11.329089337018637 28.595882477591985 2.968252932277921 6.647207442627888 0.8919914858626686 
7.670568901985465 6.34583583593826 21.661388786499074 2.968497002551575 12.61027500162663 0.9458510830725279 
9.102732139965227 6.033063141966858 27.427156967543716 2.9687149092052287 14.092492078694974 0.8993464349049998 
6.76344406127088 7.047753898393605 11.383167370727733 2.968745072973066 11.45704325744892 0.9256690174610521 
8.362304216180915 11.899618529834054 34.38963718297687 2.9689128534292886 5.306261240908356 0.7925500770621864 
7.307114636462337 11.439577374512528 17.390385936406176 2.9694104836336592 6.465695095048641 0.861171538983411 
6.038702580747078 8.780639005195289 38.68004379254195 2.969410994004658 9.548240770593342 0.91356286531205 
10.920969586323615 11.264402384552335 5.3624404848505876 2.969451516820345 2.5753169387866315 0.8635652436950374 
6.072586881716198 8.500474137987156 28.502672170064677 2.96972619140549 9.831581890387053 0.9067523522643904 
11.95055130190864 9.337038288879908 30.357965831260188 2.9697386742550016 0.3377660339974966 0.8200905879573581 
6.097687919298897 9.629551750900623 26.93173904154591 2.969806529194387 8.695557591250072 0.8265679788582316 
11.201454341877591 10.993646945631358 2.910681422112212 2.9700217782361404 2.1856476176774606 0.8907804116013485 
8.614782945517918 6.054993754325746 13.802927680126594 2.970093258826096 13.609929427593553 0.8834655705715063 
7.735402200120232 6.3121020350580075 30.13246884100426 2.970522355647244 12.691961836855011 0.8793480501053222 
11.52992459554338 7.4431923650160225 35.03836104854695 2.9705501967614882 17.02585733144252 0.8718096568931993 
11.778743391674388 7.949631982724981 38.55122720257186 2.970637609754567 17.591480648406947 0.8914690085599292 
9.159751517714126 11.96646500154147 0.557400411102762 2.970763395624501 4.5066356191948636 0.8694552206046285 
6.403303920268229 7.556572185655234 23.496032879316218 2.9709113729154666 10.840653888436819 0.8929319168756003 
6.869319675300934 11.070825743074094 5.416214992242914 2.9712148869171475 7.043085157705093 0.8858896213646074 
8.32699514334679 6.106001823670693 28.1478630968801 2.9712221360369764 13.322657687305902 0.8939739242554651 
11.649427326756886 7.654644159072815 17.655788670698634 2.9714386243843256 17.27393604874589 0.8130922214430071 
7.966161521777675 6.213971286319763 31.386622955716923 2.9716624963989107 12.947711134247392 0.8487608291629125 
8.306870220823626 6.110063947376487 5.529785474714679 2.9718948970369503 13.305152150603014 0.9025256855183984 
11.774468268224247 7.934740195650678 4.396991723802984 2.971944249501597 17.58377678498253 0.8895120645079988 
8.166398881178948 6.147322477621239 27.06177305832741 2.9719791170169323 13.16018410699765 0.863086735916698 
8.488833895984564 6.072051441033029 12.687041009101804 2.9722337643346757 13.49260157657254 0.8878760976430782 
11.967293832055132 8.828484915240344 20.94690787828892 2.972246643542981 18.50356602350453 0.9443260872530082 
6.060255699051009 9.43835871076566 28.139473148713833 2.9722474517217154 8.897627128361641 0.9061846086647268 
10.092629397436522 6.235637293316149 0.8343202290174929 2.9724636539824933 15.126268701603891 0.8914705368633805 
6.409914912440344 7.5414037782944785 1.8797564771055093 2.972548350956216 10.863096966757073 0.886215212451139 
6.80728131788973 6.992915383696257 39.97189201053155 2.9726089342324453 11.542102184927597 0.8747640077752075 
8.242571729523718 11.874657656657982 28.475172034215475 2.972768781439127 5.435486671737376 0.8839069355406626 
6.218958440664693 10.050881956529503 7.360231198959802 2.9729690616132256 8.265761097920091 0.8761129269578436 
6.149089006277874 9.84408955260847 37.16107340079621 2.9732441317437184 8.48486182636642 0.8692942483711313 
11.9580967693484 8.700062865590152 32.266369788085456 2.9732639945735517 18.38112045423633 0.8987465011686285 
9.861129781757159 11.84659431484906 35.40543906189295 2.9739945686500757 3.7978989319970147 0.8888731946299 
11.916206627866307 8.416223966875659 16.77309219666374 2.9740638112289632 18.09900272638709 0.8207219579035723 
7.9957698885547845 11.799476861003477 36.63321779142526 2.974146736801522 5.696141927843875 0.870731628867114 
7.411238404581928 11.514272229467498 34.76776389143241 2.974176903102248 6.347904918219061 0.9089335039128994 
7.812502724615408 6.273015988349677 2.700459877547857 2.974322036841727 12.794613141269345 0.9084376744771863 
11.225157486451879 7.025992951161314 31.070308629553978 2.9745637778298972 16.531214344821443 0.9554390343596961 
7.757504789280711 11.70277103278714 37.79136168343773 2.9746874801117578 5.954423045391135 0.8713849774702784 
6.770951937142007 7.030149110407574 14.504140924907603 2.9747214649037366 11.498307640034643 0.9256032256338023 
8.955195706109878 6.025513916510679 0.6741369390598422 2.9748235049532985 13.973719515378036 0.8977539484679191 
6.962180179797089 6.832710873782062 7.034481763417929 2.9748700435875044 11.773850423311295 0.9108632578299889 
9.538690642356693 11.925810232706581 38.22131539408577 2.9749879203071092 4.131421434415554 0.9122792824752196 
6.174684623495091 9.931761989853879 36.03991151303521 2.9749936777162285 8.398508565655874 0.9055414464360234 
11.523674189256864 7.424610566528726 21.880585781938095 2.9750266016649727 17.032412686798807 0.8706327721712217 
11.764316422743113 10.099866915219117 15.08287817423966 2.9750886568707315 1.126599651339136 0.8434372887225567 
10.6637581522057 6.533603646136465 10.397028141437382 2.9750970006677555 15.785399102866222 0.9108705782512364 
11.810067765495022 9.977473807912485 6.832431123403026 2.975220309797095 0.9959714988120005 0.801738621234216 
7.593133786357752 11.621609621853214 4.958050523812219 2.9752494941569863 6.138910168128252 0.8939723959552014 
11.05554720672104 11.151032649885313 11.175659645741668 2.9752673459592343 2.4042937099733734 0.893510803106073 
6.9143025034123635 11.122257316783895 32.752800929274045 2.97558568451905 6.985206572952908 0.8888212950675995 
9.002418551545427 11.975584968485965 23.290304062960516 2.97558595138356 4.671620930684075 0.8999595908005623 
11.956579845799455 9.33772306650308 36.972252352299876 2.9758059839706927 0.33845227368165887 0.850382287073194 
6.090123704107883 9.623245737819584 12.835468282601 2.9758721926697573 8.721083979712787 0.855381021904695 
9.911639903454166 6.167154311201799 26.647662093555297 2.975920363536711 14.95023088216205 0.8397684507917033 
7.185282740015129 6.641170137835214 19.67623634338355 2.976117781998444 12.073012743649521 0.8313406344727465 
8.87000240687691 6.02647090365118 26.2687072526274 2.976369375774926 13.895771287825312 0.8860966429933441 
11.417152052666179 10.736920547071001 28.810609944782705 2.976494084077065 1.8546182299695317 0.8763303806944671 
7.906122781812339 6.2317559167086785 17.502545128631866 2.976531987590148 12.906447714149543 0.9014602179331427 
9.63146875051638 6.091150867527173 2.8499024358441645 2.976601427528827 14.663207653282281 0.8813908164899246 
6.454471006451918 10.54295123095379 32.05667728613804 2.976645151524737 7.729363507020118 0.8974159068349525 
11.667686280079014 7.679386629484743 37.38318999574556 2.9766709195518217 17.334681728163545 0.8727673360029315 
6.438402302754646 10.516441805142911 4.591580953809185 2.9768067641212133 7.760782962049831 0.8966878958695231 
11.270314170159285 7.074587978640885 25.607029175066657 2.976833533004526 16.61015342640578 0.9341726521321329 
11.93704645003015 9.486176902853792 31.493164825605618 2.97701357580096 0.4883643348507185 0.8484048521936294 
6.981600896011898 11.18837591137235 21.648325578372685 2.977066353384611 6.89432291072097 0.8891100086068868 
6.568421560817876 7.282111275952804 18.675736830079316 2.9771992499837623 11.184330822202739 0.9382334491129691 
6.048246258387502 8.609679147096017 12.936501840289196 2.9774486593953338 9.745378380640872 0.9052425267384431 
11.538349978654706 10.55678652836527 20.46771213743795 2.97771807077768 1.6381805135733316 0.8829347090967273 
6.097617573442394 8.332659246409108 29.746104032821677 2.978114744497545 10.029079070173069 0.8398339662509109 
6.037837464658383 9.309482684005468 6.638441144414855 2.9782858186347205 9.046518478914837 0.9042326591565321 
6.046126006880588 9.381116870267213 0.7045435131502558 2.9783588830141827 8.974625691114909 0.899438157620644 
11.828741076664576 8.067635749438335 11.50995689827198 2.978435692529696 17.76575814431545 0.8638556409009794 
10.516812219071396 6.436572414186585 3.1681988927401648 2.9785701763821972 15.627641704399124 0.9078117192756835 
10.655052315107056 6.523281731130822 32.94749764977582 2.978813782211227 15.792130158171986 0.9143785694650765 
7.4462622500480045 6.458280212066008 5.14652670791358 2.9789999120512087 12.403681347614267 0.8882388074245238 
8.388182942665848 11.91553859540408 27.28469795230305 2.9790410223653874 5.295668407049632 0.8261646916722644 
11.12997067892124 6.917174757616419 36.93818499265171 2.9790830944058007 16.411702290356786 0.9289889577095345 
11.975743118511577 8.856495094840717 39.34596173881596 2.9792013636499597 18.575313777618888 0.817365352682851 
11.127541712866348 6.914413794480659 8.310778745352785 2.9792790336990613 16.409109483270125 0.9287066789445672 
10.666499454195906 11.46984407398001 7.555070425840306 2.9794882413947237 2.9116338875364924 0.9276675446280943 
10.760650952840782 11.40374637127259 6.4220237833458285 2.9795785599888625 2.796676731105787 0.8933889686442754 
10.920278188054956 11.278457640029906 12.562471176803271 2.979737830234444 2.5938576991493107 0.9026438899468223 
7.940393277302519 6.214939783720432 37.26726648210902 2.9798199299771264 12.95875779074322 0.8710958646917627 
6.080837872638817 9.598541489311046 39.44321201124872 2.9798925215931122 8.758967421654607 0.9068565777728618 
8.778003749723217 11.971653222004214 8.878390682899408 2.9799337588250205 4.903071106723729 0.9104511779760426 
9.499826908081156 6.0622677605170985 35.762114514966726 2.9799492695244316 14.544880819533603 0.9140708152457735 
8.423826583245479 6.076181288898258 10.806850964625454 2.9800489361020954 13.463324857739543 0.8625465737317529 
7.964118336136156 11.794278325038029 8.10061052543223 2.98010774625795 5.73910713258045 0.9087848441090505 
10.465900710152736 11.59466767811523 24.841316696682796 2.9801283952008104 3.1486101467122865 0.9601953467869873 
7.090575196036825 11.28823501764058 25.686206504460934 2.980255455149175 6.753840264674132 0.9460351503338125 
11.980290526104733 8.988136702875408 14.963630340292482 2.980314137437241 18.71400267067186 0.8516140844065915 
7.42582688316128 6.469189508294409 33.28220364305683 2.9804400256849375 12.386551725617934 0.822099620650788 
7.827083553311484 6.2600407408605445 36.08294921623738 2.98045461845277 12.83954241305803 0.8680214371354029 
8.444084844317066 11.928201110342501 5.6543369290236924 2.9805038840654143 5.240954495607145 0.8670504383205719 
10.830265349291825 6.64763727875042 34.22720366428091 2.9805170056792267 16.01611889921901 0.9343052122252982 
7.659191358581094 6.338088477286824 34.99070138672778 2.980526927852994 12.654675370214616 0.8699923562492267 
9.257714549700886 6.030412971563969 34.54447977543799 2.9807488838516853 14.304484909294946 0.8634953817649769 
7.05322221431469 6.742624683514224 15.611881556556568 2.9808869596677194 11.925740528367832 0.9749561254010136 
8.348280885182902 11.908926402827944 17.111897355483876 2.9810385139557507 5.339629930229123 0.8320949365619521 
11.874689069791703 8.210570491187713 12.759837850374396 2.9811132479936884 17.931927146099625 0.829704922851107 
9.990992428565523 6.18822783508427 15.277461352984325 2.9812964798672876 15.059242493879626 0.8673461641415761 
7.151386975353645 11.338987632083178 37.04345002491803 2.9813140153177784 6.677021890917146 0.9319164868169492 
6.473823193871983 10.583275237985017 9.378074863274179 2.981330195573051 7.697012346217605 0.897866791016732 
7.790486467748552 11.72500583566142 19.39223952967592 2.981372131936598 5.928548498603064 0.877296753189722 
6.053891970246799 8.542332310369254 10.283999656163068 2.981444656053208 9.825969054347006 0.9149275592154403 
6.688940668637745 10.88375805618562 22.555526802904353 2.9815331035091273 7.327739067348563 0.8770777622875227 
11.967538332774076 9.289889322664706 1.6942065959649995 2.981663893848297 0.29034797315499006 0.8463829629588463 
11.860479913090348 9.841560478812887 11.019541893652509 2.9817057823824857 0.8531542267581251 0.9054542174788408 
6.2098037854525945 7.948416818441778 19.409919129607246 2.981781699489548 10.442244020865239 0.8838098475436578 
7.059293947434725 11.263806327908917 18.402597968612326 2.9818046671007696 6.7970211980448205 0.9022443489164111 
6.360608816551675 7.612435724247742 34.8577914420549 2.9818987975128595 10.811169393778048 0.8791779192714311 
9.421806645351332 11.951955894423286 4.875623136242851 2.9819397124494165 4.260793815989192 0.9438162727200504 
11.078993739595266 6.862290087862959 18.54782140034513 2.981948798642466 16.352599823249953 0.9250569425283159 
6.441668008741111 7.4680071268424015 27.561249847312382 2.981956529009829 10.977022282273914 0.9293886329507197 
6.288436604788 10.240929199190418 34.32300222592137 2.9820263787661245 8.088450290299498 0.8488031152890206 
6.113947171694575 9.750680308709732 16.858548959337753 2.9820834752994907 8.609648045747779 0.8589749555497086 
7.675436656345752 6.328149705494301 1.5567107709491665 2.982155604190151 12.680570217172704 0.8866713847614157 
11.615425240733133 7.567191489056544 36.109123014534475 2.9821786363153997 17.242985563101787 0.8410983371601837 
7.61355533214871 11.640456323156322 33.58513056873471 2.982320977277509 6.126594564117802 0.9140570473316544 
11.924189199895912 9.586118421126583 14.143080238301081 2.9823509653244757 0.5899585516329537 0.8036649510871577 
10.460606977683076 6.399525704025116 19.31059447479481 2.98258936283266 15.581486159375356 0.9406501394657787 
11.84318524710684 8.097935120783298 9.689947964495843 2.9828549069108634 17.825416661955057 0.876619627443821 
8.694581098102217 11.967208674107631 37.54056438227582 2.982885854560317 4.991461237191 0.8601579052826567 
10.539102670299885 6.444818225426856 9.145681568300695 2.9829165142247973 15.673828639913339 0.945805088724808 
7.770520626044275 6.282130466355758 7.443406947418403 2.983024360090633 12.789916529421564 0.8979175813905907 
10.264989881596737 6.298432832557374 29.4089800066416 2.983062949511141 15.363698289576863 0.8688365293788418 
11.957329483926463 9.391228647997025 24.33384412685963 2.9830952937367483 0.3923589369482663 0.8528517407201375 
11.392499134689867 7.218033383516721 39.213377685173924 2.9831957917227996 16.834208373215063 0.8858723335395431 
6.546263284928864 7.302954740783072 37.31560031152442 2.9834185892560807 11.17788506591674 0.9525198218531026 
7.01177857463526 11.224398021544157 4.1633521206166435 2.9834495126495764 6.862497895416141 0.8987184364637673 
6.660635362242619 7.148374546525794 4.289961040020536 2.9834784611830676 11.370436073654112 0.9651413067032771 
8.253079222667633 6.111449700924425 39.622837389630604 2.9835571852908016 13.30473065336179 0.8823762938032667 
11.87350225223572 9.80288828073914 39.66370712869694 2.9835624318844065 0.8129088379761455 0.8669387986209367 
8.604596154354136 11.957295809955532 38.593561796942396 2.9836123589923798 5.0832178322610275 0.8953582802031623 
11.958171897471129 9.389618809935818 8.849172002808622 2.983719791140542 0.3907346606386568 0.8503658168522772 
6.254637891673145 10.168808095773873 1.4579830661516482 2.983810562114063 8.172943923826978 0.8588304853709678 
10.297734538617721 6.313152751234277 27.61640875247626 2.9838336198456643 15.403565154679203 0.8948019387014082 
7.0611139826282745 11.268124870104941 10.054406532671841 2.983901709967701 6.7976089000360425 0.9086147333013427 
6.777082863818219 10.990710086723805 6.506336121589271 2.9840052352022592 7.195174843599471 0.9382448790361059 
10.967021556461601 11.243919303304288 15.21840824647549 2.9840153557457114 2.5395772220254536 0.8664085512409048 
11.468893993787704 7.323669730910204 0.45496783219471126 2.984211909973496 16.970336639753718 0.8893083731528484 
11.215685778744922 10.999373555904938 37.07526879567902 2.984419220917939 2.190934494194341 0.8844165412956658 
9.866661303815077 11.855823578837903 16.871065156209184 2.984431290711343 3.8086048054186534 0.9069449730188349 
6.196970449002633 7.975365642394488 7.9466630755966605 2.984434658448765 10.421790997516322 0.9046953870032818 
7.516943129996038 11.590018111455258 27.66050944726723 2.9845688963956256 6.240222325754765 0.9178647827458037 
11.932464261187443 9.555491993832536 4.027129759968247 2.984613542546782 0.5587500928744156 0.8058123143358922 
8.012646224672457 6.18333556357517 9.845139046388937 2.98470534979149 13.058781646790674 0.887506431063283 
10.839664174644989 6.6496296312470164 0.03461238369834163 2.984728655302562 16.047392096807382 0.8928791699565163 
10.639330449535597 11.494294500423003 2.154365616178943 2.9847796196059457 2.953003081639544 0.9388400842959874 
10.497105691282643 6.417826683380795 30.6308655528478 2.9847855011593536 15.633745243817255 0.9171316738713767 
11.854828056825285 8.128751136241434 34.233695173058926 2.984814536388721 17.870022052617006 0.8184024004852272 
6.483520652080932 10.60524747633999 37.88342129621587 2.984876508132137 7.682399995761617 0.9023256474506013 
7.9744822815371545 6.196821039732944 25.83171837451107 2.984878368403833 13.019061060045654 0.8861880519416581 
6.14109676521238 9.858077660308041 31.324451530391315 2.984899491942543 8.506979539580204 0.8759992931350497 
10.872253239658816 6.675233227601538 28.67449416432241 2.9849409943013763 16.089978833558522 0.9506481731898273 
10.928679811501214 11.278223599480093 33.94462300883123 2.984980499855964 2.5918462997188776 0.9171065130399116 
6.289931949912697 10.251266175083856 14.57833866175961 2.9849850714891364 8.086453728481704 0.8388790837839261 
10.966418758008361 11.245816238608946 32.70933850354666 2.9850449426175745 2.5421571884287104 0.8531014397547945 
10.504580852133229 11.578272999614923 17.735131575332247 2.9851725580189292 3.1121966025778214 0.9202621528525199 
6.023358072434876 9.225574141041234 11.83693845031474 2.9851768554049016 9.152420311509083 0.9515953068953604 
6.196133017730967 10.024545069968642 30.074910137850907 2.985190555836513 8.33244618402664 0.9018089673622177 
9.671953763897477 11.908640539504667 36.58210809745562 2.9852490095243294 4.011456787629566 0.9228650838994752 
9.249291944840285 6.025144978815934 5.941645147999068 2.985282042090212 14.317392792515129 0.8604509145516768 
6.457976502987904 7.434717308751992 13.3265174090049 2.9852961934927382 11.02625616097312 0.945147880632656 
11.039467653613883 6.819736821573047 18.519362743914343 2.985460741215956 16.313851749551674 0.9288501409186979 
10.08337868615201 11.782023260046477 34.236152498070155 2.9855255478806573 3.5809670783855196 0.8872290889539691 
8.734462434854935 11.973716845127367 19.013908960962652 2.9855488730713207 4.955578109406243 0.9003679832980628 
10.570209114512842 11.539479269106803 30.768498324396603 2.9857179407175103 3.0365214870491144 0.9287796345301921 
10.631298854606705 11.500675923327826 23.635542479033717 2.9857186784009997 2.964148804676224 0.9330153494808119 
11.705808459017831 10.2624094089607 30.705022342875466 2.985812608440951 1.3034139318415825 0.8721852013892453 
6.036567293951192 8.63418658125407 33.24985476443247 2.985925796233781 9.747297303182865 0.8866631250339975 
7.241609031519024 11.413265670860312 13.294232213910803 2.9859320146628177 6.570493663304841 0.8667179391119941 
6.931352499204479 6.8466942805999444 29.757055234562543 2.9859718692158763 11.785750521333785 0.899935506560602 
7.815077253454257 6.259177646668789 36.06730376050385 2.985992144631588 12.85269973432532 0.8429428017686391 
11.918314196682656 8.367671578641655 23.939187553046423 2.9860336540328944 18.124650436054644 0.8549757084766328 
10.884593871474422 6.683680131002852 28.668857722006067 2.9861399491500604 16.11135117432515 0.8995703335931905 
10.250891493260173 6.288353325638965 23.578741911410447 2.986261410942439 15.363128976466733 0.8830798489265422 
7.520086200594511 6.406222112314916 0.40583977574669206 2.9862733606143443 12.52411866613329 0.9053783004297264 
11.643227481626399 7.61002748591131 14.613701318146127 2.986415093309546 17.318409000198212 0.8274301329144359 
7.053003561350604 11.264508489522967 10.091763387900684 2.9864349702002633 6.811894673771185 0.9031405144023993 
9.945642716281412 11.832828817450217 22.88075241483908 2.9864961503126835 3.728974068382115 0.9083852536466605 
6.151363363774591 8.102834041512715 14.279790421593603 2.986576207350825 10.293844490583144 0.8865842018149616 
6.407346048954359 7.5174630423116895 27.535653273698074 2.9865984565696593 10.934042721598146 0.9214248222346165 
6.681813728460746 7.11684502273296 32.83279978927558 2.98668047470075 11.42050674576668 0.9320842606913444 
8.721855359633743 6.026277613212045 36.47342594024886 2.9867020732989626 13.795953673114948 0.8885667004930725 
6.965299244212726 6.813581090456957 2.329058486372084 2.9867096969087417 11.836085570606777 0.9515082000523467 
10.9311695542998 6.721586600811525 1.213273416926988 2.9867345822915112 16.17461509062639 0.8693052038483479 
6.87224867121305 6.903974621015003 21.36481615031347 2.98674540369678 11.706487927809945 0.8691088942677009 
6.523871070877657 10.670662740977292 13.650665074086703 2.9870266935074983 7.6110753363177395 0.9062225325264622 
11.427946056247736 7.25993010444607 27.855867828349034 2.9870998131066857 16.911016395074533 0.943561823127836 
11.729096900411228 7.785431793303463 18.81996483836876 2.987163507502093 17.518102180127087 0.8779268504182599 
11.287692315311403 7.078989321827557 9.61048496603896 2.987276042682932 16.683017555291997 0.9164002223771847 
8.76119460928614 6.022085296496289 14.881996648217207 2.9874745180465703 13.839081557837943 0.9044876955919124 
6.2987651369492195 10.276080366303649 25.766509274160242 2.9874823659105703 8.0669871100716 0.8545485541361494 
10.76229702413777 11.412344110394077 6.415715465035305 2.9874897335786517 2.807854780965304 0.92869566153977 
11.28567469893612 7.076180240087435 38.21178920431605 2.987539338316194 16.681039293543535 0.9156213637235143 
6.025566479914751 8.720314529499595 16.023071827287154 2.98755397069505 9.6657732295039 0.9139814719796765 
11.32766417886883 10.872872870830923 17.4628464502308 2.9875865376392996 2.0242346903748327 0.8734160019403566 
6.046392662804076 9.44936100776694 5.4695066503015255 2.98759462070056 8.934732515219494 0.8908002907892666 
11.919222917022173 9.635615011843493 32.66037980005028 2.987619266665061 0.6405103026101777 0.8082201456306467 
7.8104493820003835 11.740633833822958 3.7292808692711077 2.9876586960157274 5.9164628015344505 0.8793561891043835 
9.494853525563578 6.0535768848581615 1.6528064895587988 2.987689606569738 14.576300101330078 0.9036589435061966 
11.676644044673361 7.6726109883723055 22.9775546951024 2.9877056297559434 17.396844342942703 0.849033563324087 
6.128468752870663 9.825151314184309 18.6728989152745 2.9877359981330764 8.550231105372887 0.8987334888915904 
10.62740219116731 11.50569207533695 36.237183263909486 2.987796959002167 2.9722163700070503 0.9251767376100458 
10.003719833883576 6.185811958851604 5.141910082446984 2.9878266073977455 15.103428404958585 0.886179560359013 
11.987021967378668 9.069348017425927 0.5339629981221776 2.987826865988667 0.06935424537919666 0.8193899049939957 
11.821380317144053 9.983606172245805 18.161153611892722 2.9879203463358843 1.0022982609891606 0.8790486211283045 
8.627913747296791 11.964668552747696 9.92876917660314 2.987927008328985 5.066479496004845 0.9080770211294132 
6.012053067309035 8.99528871094989 14.912902370377857 2.987950646985633 9.391635092861236 0.93682635412639 
7.57844607884641 11.628146747779931 16.283874389114345 2.9879710304173654 6.175009660066937 0.9287001883269945 
6.148827389270826 8.106178301051546 25.395669558801885 2.987993053151787 10.294776332421126 0.8896999722450158 
7.829586828902469 6.250751378811591 22.977692480767324 2.988015222883735 12.87806983467015 0.8628533905679556 
6.804910006404553 11.02734277846773 39.83560977752384 2.9880660671056334 7.159111171341017 0.9130971076876554 
6.770419914226855 7.010639518610846 11.408990265745764 2.9880733732271487 11.5641841683196 0.8830881179644576 
6.085753182507142 8.339860775214165 21.250172806568997 2.9880793679834055 10.052958863375547 0.8000042555972767 
8.179682115229609 11.873397349239452 6.835961563322186 2.9881990828407785 5.524839259051927 0.8893884550846094 
7.484442822449063 6.42464879753417 13.433149133378109 2.9882013610980693 12.492112889954829 0.9150964952073244 
7.365915642704682 11.501851845252956 7.288735726061105 2.9882259523591683 6.4228412347430925 0.8669911653622779 
7.37932503091692 6.489418304147579 39.22738319976577 2.988244937578183 12.368815390457222 0.8606904009147097 
10.959164664448737 11.25661929543289 26.78304149174526 2.9884204568541817 2.557606166289464 0.8851127642928539 
9.80421848963102 6.121812515246232 32.590758364680994 2.9884327960417014 14.896913930874973 0.8569982130417415 
6.7473417526072925 10.963798323638917 12.416984591417787 2.9884733620150303 7.245838641320766 0.9242818830667909 
6.65007726372283 10.846519137126995 16.61497770257275 2.988606663689387 7.398545689810014 0.8974661817338934 
8.715267349354884 11.97503065898197 19.042940811731086 2.988625119386188 4.979686521751788 0.8742497206801734 
10.771415862439339 11.40707831743198 29.207085177910365 2.9886351707682364 2.798461774687958 0.9013393859123325 
9.146320328681623 6.014916858691226 38.87050006711863 2.9886670940590507 14.230140725018721 0.9041735130446802 
8.090050877773015 11.846788709393946 29.61555726633687 2.9886808730566257 5.619237621941025 0.910493179501928 
11.115662965008246 11.111072254216685 9.593211535000194 2.9887548986209973 2.3441164848526697 0.8567396390253875 
6.660379965894668 10.859809911423698 29.7417398701306 2.9887647633457 7.382120983389768 0.8800350232487484 
11.89974956718965 9.724425345637018 5.24970886468671 2.9888692901861527 0.731712445226222 0.9075575475607677 
11.015823581228373 6.793160580297451 7.214137064072403 2.9889270541432564 16.297370124260887 0.9053785515274014 
9.747162648487175 6.105943282844793 17.065627020057292 2.9889490302455046 14.84026182096548 0.8495553064628877 
7.149498489239148 6.652727620879142 30.911167195878 2.9889870295991408 12.089808316124614 0.897363001864787 
6.980028871890658 11.203197690261137 8.28504604391896 2.9890405518773635 6.913159530324435 0.904930368222653 
9.428495526974194 11.958195023194829 26.955474779051826 2.989067783087486 4.2652397983032415 0.9441568284034382 
6.108762160742513 9.758505516393637 38.290636153260095 2.9890779283173377 8.623573909411679 0.839476430153088 
11.576522110799468 10.515305722078123 10.261253847071693 2.9890830732519404 1.5891126906562185 0.893757016953594 
8.581828407175992 11.959888333630493 15.889735453603137 2.9892819252467433 5.115100700790098 0.9268117670856055 
9.931369049148453 6.159486556069547 11.042945768978193 2.9893084368899316 15.033920765391972 0.8732422451559761 
11.812540476481937 10.01277553958104 35.47745861117866 2.9893307320239586 1.0332254582064024 0.7982750190159588 
7.905296821745354 6.2182219601656055 8.603196312592445 2.989425381471446 12.966559934185462 0.8591169670355134 
8.769588423836238 11.98063054081757 24.510811858450708 2.9895230247122564 4.926572091291263 0.8705337806214487 
11.83723802412372 9.942031957787234 17.10565961362294 2.989539063973897 0.9583623929641902 0.8342604857906296 
10.325481710942354 6.320306500986133 16.260879916115286 2.989591780611504 15.461387923125944 0.9223616509446714 
11.925276069877524 8.383144098687486 13.944499667870446 2.9896072129934064 18.16293722044266 0.8593842007525515 
8.668840593533504 6.028765987230807 30.55834675139804 2.9896317684838314 13.756467416042394 0.8815068069208162 
6.099730634378476 9.725626391232 24.14352183283949 2.989664872994136 8.659362739910915 0.8599298248705203 
6.138951807614964 8.132335032655687 36.882895248362495 2.9897222704970945 10.27282056790369 0.8807575799035873 
11.088403436627091 11.13946083560972 25.750111677590674 2.989769486302193 2.3842633740451085 0.86932140242701 
6.074638551557536 8.382676368399045 7.025223665118077 2.989787295137628 10.014490171571655 0.8843629632556247 
11.86846017480965 8.156906689310974 15.646946857534637 2.9897943248654393 17.930745022582133 0.8446011734974275 
10.243401909749677 11.719004165255603 8.550507053711463 2.9898213926330897 3.4140409622724697 0.8482965121053794 
6.561598852235955 7.269884533917736 8.99711406694157 2.9898327182961353 11.237839679394305 0.9378229565471077 
9.590064339249798 11.931097995007411 9.656621253642037 2.9899015670738676 4.1025630263197534 0.896030334300048 
11.626839356920621 10.428162721947482 3.623802266191518 2.9899722017817476 1.488942923581046 0.9191822689214162 
8.692751603144826 11.974394779920322 26.216083338558462 2.9902217115437058 5.0048209058302255 0.8734231066645766 
8.866961058242332 11.987284168007738 30.39046570142318 2.9902451505610133 4.830148970215616 0.9125566217327964 
9.661678269018537 6.083768734208087 8.742078658992774 2.9903549834883583 14.758916068157555 0.8906337673408259 
6.1527414299571745 9.913971956612734 2.6658927325949513 2.990355514342206 8.465643346682494 0.882407476163643 
6.023387027171223 8.71308199035841 39.925121295424 2.9904091248973383 9.682007392365229 0.913309064857102 
6.0114721442224734 9.106657795041874 7.8233870751003565 2.990430509141019 9.288034097542916 0.9698374203305081 
6.602673495338765 7.212325825405367 31.60437385276883 2.990477106493853 11.310979668728443 0.9397066967777906 
6.248830658733869 10.172217942470871 28.836443545220554 2.9904895333328563 8.190375705462554 0.8697718274571856 
10.194736000653947 6.258505752978055 22.429840427092273 2.990515811312992 15.32151732249541 0.8763103377813454 
6.338099771905155 10.363120208821725 11.645140119856826 2.990620258078506 7.979942448913302 0.9089865612931889 
7.364321276474527 6.496290580161666 24.69151040267917 2.9906530633928634 12.362450297783727 0.8604228313463823 
6.750569046601477 10.97090270761979 1.0108444958352791 2.9907184917692264 7.243806272848246 0.9181199252934114 
9.439412798597651 11.958268434270613 32.426208132708055 2.9907249517087564 4.256810477664267 0.9354529796182189 
7.98507944381484 11.813261296093389 2.5975816934954494 2.9907361728283997 5.733322574449804 0.8918686974285817 
7.497672340117431 11.58605414629774 6.07133786596998 2.9907631877552556 6.27186662760646 0.9250699390470206 
10.373785283693067 6.343373495083624 36.5740361665634 2.990810992409223 15.521219803459193 0.9131438476050663 
6.560521239223373 7.269614942042228 31.62233397683704 2.990867612095828 11.241325810487137 0.936695700800752 
7.007598639390984 11.230790037600897 4.179642724094776 2.9910010654655514 6.878724619357907 0.8913729900950167 
6.026383965923719 8.677965601353263 27.372182895567924 2.9910029207654274 9.719172657978902 0.8570766274790752 
11.483269979514695 10.66726046853096 21.69691025046754 2.9910511966673177 1.7685201270424624 0.8764184329920448 
9.55882545460939 11.93841599296225 3.7115988340244996 2.991082485725811 4.136252748115808 0.9134504429334667 
11.660465463674186 10.367030864421261 9.191152453734624 2.991128527443019 1.4197435045483875 0.8840978640738589 
7.105446188617918 6.685308751715095 23.67847589617398 2.9911753073180276 12.043890596218073 0.8790201675897968 
6.413127922287551 10.501813714062111 38.89974935365041 2.9912123926918586 7.823802935691994 0.8988841936475632 
6.92903128149309 11.158405068044296 11.261052420525608 2.9912579077694796 6.986154162280602 0.9068640773376968 
7.224369960690332 11.407260745157746 24.597161775091777 2.9912817205466067 6.5997347745006945 0.9110018720512653 
9.02364793822244 11.991221834901797 29.247022296778383 2.9913153111257618 4.675098918449741 0.8917844203543562 
11.502777169718188 10.638516634503917 0.07827734317425694 2.9914261352753817 1.7340033270052064 0.8756320277552009 
8.056985727836429 6.161080740559141 15.79934382724845 2.9914442129393657 13.137473116588868 0.8565432432936235 
11.456697984638103 7.293039770505249 5.155774384891764 2.991500996623879 16.97959527698643 0.8776481696244622 
7.226417324146306 6.59092112296454 9.377753514027194 2.991530802760817 12.198784936168167 0.906487081365049 
6.012943482332224 8.83577015631704 26.25842283085271 2.9915678299676993 9.562599964234447 0.9304454021658796 
10.381162840079538 6.346108484896886 7.894382060117337 2.991780567614022 15.534061041867758 0.9124358137509575 
6.414410189057238 10.505215860080677 24.75107685994226 2.991813740173245 7.821789765128621 0.9011173944158318 
11.261395576088733 7.041070600118127 15.442818478051237 2.9918747208523335 16.662748838191504 0.9060427038116283 
6.080535432158102 8.345679171277872 35.516641034326156 2.9918905577884836 10.058953695017337 0.8030524889972799 
11.683682254494991 7.677381035555921 24.829946077299923 2.991900962297791 17.428673359014837 0.8527974261380391 
7.081116072026358 11.295547050058694 31.63505537526514 2.99193111352329 6.782877525616058 0.8867522424677191 
10.717740533062651 6.550243601251994 4.333675700789584 2.991979102890454 15.929033505609127 0.9245376423535545 
11.985738636366595 9.19402137665923 23.128584983553885 2.992036012365658 0.1941576111074994 0.8448377738782462 
6.201473774290767 7.941175149732919 15.404093401522701 2.992132867959824 10.482332605219494 0.9019907873072192 
11.80451715284878 7.957143709514526 33.07865705350201 2.992133971470552 17.734917248630122 0.8788723776076119 
7.560084755548749 6.377112963489214 20.601696548895333 2.992138418840184 12.597885419991682 0.902220390939892 
7.452421831751668 6.4391522013741 27.74577052932952 2.992146325727731 12.473651126479886 0.8988047285179837 
11.59196955302782 10.495069317312367 10.25155072389341 2.992246384807257 1.56551977603724 0.8965677130973836 
11.464810315746757 7.3033416552607875 20.684216676955316 2.9923133912384277 16.99729552270836 0.8628844474604381 
11.869894877097696 8.152313908659728 19.869293414001348 2.9924685988399817 17.942781670188527 0.8211878514933083 
6.089772068045198 9.697164823285704 32.45938787842083 2.992568362921209 8.697800590311022 0.8450438310738752 
6.109198216606677 9.773877129120972 19.89993387780737 2.992594319624117 8.618739620669025 0.8535867254205242 
8.834189240283228 6.011929978291416 17.806587698073294 2.992666981585386 13.936715194833603 0.8839507541505714 
9.094885690699572 6.008828436964395 33.407815258951395 2.9926761625362017 14.197555765687554 0.9036155426390382 
11.781035979055185 10.10546915414162 29.672673109268715 2.9926949673426515 1.1322910237227113 0.8091226320083473 
11.464794592394059 10.69755168212767 13.188796444203845 2.9928070596330576 1.8050063972039752 0.8872173816231383 
11.99103537299754 8.89463893573395 33.503132299933355 2.9928905019037693 18.699502788709783 0.8938864946854155 
11.95456213307057 8.522285720620298 2.54262793366928 2.9929330648876533 18.325386738388016 0.8614979093169924 
8.133030924914747 11.864614720662402 14.026370172947793 2.9929338240244983 5.580865148332258 0.9049581663719061 
10.888332405954126 6.677868941958792 21.50254229750002 2.9930071710732795 16.147634850326536 0.9084401043059033 
11.12693924173463 6.894201218119436 2.5032171521615396 2.993035089637334 16.47001846136534 0.9290077737347581 
8.039220351161772 6.1653536067519905 11.76312555610221 2.9930448891347536 13.126296127543768 0.862001411568694 
8.332874313945384 11.91789021337643 34.36329735401148 2.993182249431494 5.374456005784786 0.8742899603275374 
10.92742690569751 6.709982202414423 6.002608788270045 2.9931849241343844 16.199188540705194 0.8940694520557338 
11.55651542327582 7.443241600061894 29.075458498512745 2.993203605708274 17.169674199026073 0.9227342686844451 
8.637508508840876 6.0287908541231126 16.74974265584641 2.993239694662827 13.74192631037025 0.8915458194712911 
6.012822372642663 9.190505196098938 17.80713169571756 2.9932461320654724 9.212926014929053 0.9629850345408127 
9.817297489427792 11.879595178926122 30.09028320360204 2.993333189058566 3.8741077021215737 0.9313642834703159 
10.015077243265003 11.81602288181966 15.721513264575371 2.9933871585089626 3.666388288673115 0.8726331216085267 
6.2867057665587875 10.26429190025541 17.721341394456836 2.9933926582185606 8.098756540346145 0.8590357408202051 
6.007744412709538 9.083272687291936 30.4279523453567 2.9934140776243794 9.320804243922712 0.975315756649218 
11.943008773584287 9.54716844062554 10.040301006918384 2.9934418223527706 0.5502621697691055 0.7896380258020771 
8.394312959766259 11.9315988339265 39.76955948360197 2.9935144084815004 5.312099191109702 0.8133800957650462 
9.473924015135259 6.044237079696192 1.6585473729674902 2.993516061952035 14.5825385426879 0.903696434990555 
7.390896526697267 6.475717138452222 10.582372522153115 2.9935293472586455 12.407841137170848 0.8853844331205175 
9.247409501898145 6.016637274247044 22.02922132092634 2.9936039509329877 14.354718290775388 0.9317462240255658 
6.587415952804841 7.227582393731321 20.446996948204628 2.9936643024547314 11.301683251467058 0.9291983591649342 
8.813192970686059 6.012095196356027 3.5847841913489233 2.9937387965284863 13.920733245353553 0.8921597944551592 
11.987000235397561 8.79912495577473 4.854508178582144 2.993747014972639 18.609241178576312 0.8757897714215921 
10.896006319105444 11.316913442226245 0.5557783778156846 2.993814934303127 2.6494554696284816 0.9211433225434847 
8.976609484514315 6.006262606014204 0.6977241553073377 2.9938287693793635 14.084694948524131 0.9120620134662749 
8.931910838229241 6.006918921019967 19.137210152391106 2.993855453975514 14.040116417271769 0.8943235699425172 
11.437083264276998 10.739060991152218 34.76898358583841 2.9939452179300763 1.8555992449306373 0.8415017850416933 
11.93621235817213 9.585210001821244 25.665651872647267 2.9939628852933957 0.5890019791423313 0.7843672226081991 
11.994076163270408 9.011304608098488 15.012809072989633 2.9940975043622595 0.01130463495726275 0.866721671020754 
10.334263840868148 11.680378648441437 4.507440615399787 2.994109165690014 3.3202240399272966 0.9189410385571978 
9.196494522505139 6.012336379763017 15.873068743099125 2.994118234983729 14.306085619539768 0.9031155109245269 
9.921638890026198 11.848764649767272 28.813505010667654 2.9941406569118243 3.766334135358626 0.9196080849513926 
11.35245558141208 7.147744335063651 26.758109989974656 2.9941440030174995 16.815688969143125 0.9076065526245729 
7.343919151925956 11.494489977760617 23.439890360970992 2.994175015677242 6.45807029450668 0.8982715514324833 
6.809814097790252 6.958352542666384 1.0782456080386993 2.9942008326555403 11.653145079842652 0.8633929126399367 
9.486034425122146 11.954507736674245 17.86493329515899 2.9942186674442786 4.215113112445984 0.8959109489213596 
