301

9.043785707824856 7.682047408274429 1.6194658107641757 1.0911381463611507 6.533189795419167 0.0 
8.093161087700814 6.884430758795167 38.9569180289146 1.1194524197945714 5.368564204163935 0.0 
6.346709648252805 7.105994789115988 5.638320739956065 1.8795250209210126 6.836398249618538 0.7210568968475373 
6.809256618427062 9.482202637006603 30.309796546694784 1.9012612808104743 4.273242786826012 0.6356218364375883 
8.5097871987893 9.843157468998427 34.28928232904261 1.9123578231006126 2.4878980060247997 0.977294518344859 
9.71663935613883 8.862266896840968 35.696188699972424 1.9210296406959704 0.8942113015138853 0.24352295183129344 
6.31498174000113 7.074145039339066 5.612442901041494 1.9226268344923523 7.006097142141879 0.7371750768604513 
6.080376523151616 7.8858418028710595 11.648534104706798 1.923014921117152 6.155554903530998 0.788791866525784 
9.13386351191259 9.559232858427034 20.317444095755814 1.9279143057836605 1.8161956545496913 0.6517378892764232 
9.700713474070337 8.921219808263709 34.419185952112485 1.9341851659088438 0.9601735342802709 0.6071239142907618 
6.224362017954267 8.771608424166216 17.5762419045397 1.9360448867543627 5.288613699581717 0.9833969415272855 
9.781761424403019 7.242375832948046 14.312641423815752 1.9361477608880602 11.386748568503696 1.0 
8.210086413354563 9.925824894900495 8.922327288893115 1.9372500682396927 2.8325248975661443 0.9757347899025248 
7.713084645700217 6.081768231096859 5.676758150259303 1.9395704523843014 8.852038228839808 0.8221511279638526 
9.776645403128342 8.780356790484936 35.76935734596489 1.9404704607164258 0.8030869390949693 0.8918446722875156 
9.785432090317606 7.237055083426348 14.332918366901517 1.9416108505211542 11.415417611535393 0.9999999999999999 
6.061914254431578 7.857761352603683 10.383599888489861 1.943298276124549 6.247417548111695 0.8550173938697861 
9.13857534835196 9.575475969007801 25.627935909192765 1.9438308446971053 1.836932149423772 0.6011055152111302 
7.612012086341597 9.904918183075285 29.682451442759795 1.9440287820286613 3.4442841927913683 0.9808756782674589 
8.395642772703992 6.094666310935383 39.67197437270157 1.9459778185471395 9.568624915798893 0.9989776745249136 
9.689790992397882 8.965641568577546 10.230485805958647 1.9462418238630916 1.0104244408971255 0.6521628822538958 
6.90819362638816 6.38817465339824 6.273455879145455 1.9467979107774194 8.014988673016495 0.9904584029041592 
7.729697535845176 6.071509851895456 4.480459606249191 1.9473411805496363 8.905451053133808 0.8349081773144019 
9.766819565045644 8.823332351155155 18.32752259675854 1.9492376807066751 0.850017693583391 0.2706429909383938 
6.746693754778494 9.493695888390654 12.927463576295384 1.9498471610119519 4.424021948122936 0.692622508282816 
6.04887510713036 8.023461169159877 31.69074904888597 1.9512659413913611 6.106621012196918 0.8145906641819406 
8.472596057701454 6.106739162336371 25.010522661611407 1.9513543074454076 9.672883025099653 0.919414425035971 
6.663563869332577 9.423763633786969 11.667292495306977 1.9527325511312545 4.539257512194654 0.7540889146335286 
9.949740011804167 8.124279671997392 20.297613645848237 1.9536968932006515 0.12436364248780407 0.7243995493539438 
6.936294067655194 6.361178495463726 30.37526107766984 1.9537671903878597 8.082089163051004 0.7330000239901677 
9.955269053023894 7.986213509775197 0.3023760843372969 1.9553176562967205 12.271836564456324 0.9023438817787776 
9.156280958841776 9.57847243562253 35.09326685872294 1.9566708680307392 1.836470700708329 0.7624988398792757 
7.596843566570833 6.084249272497367 26.942700514721274 1.9577119194973984 8.819438328160802 0.8782599032387376 
9.95782937347647 8.024879996475466 26.932448344919685 1.9579874539618132 0.024880666069295287 0.7326873863745228 
6.783381177571934 9.534899651118561 31.627995833553832 1.9585908960500507 4.389264302852771 0.7848256454021431 
9.801667356392645 7.229402676927389 26.330219397709264 1.9595472684825794 11.520214853987936 0.7126757277720058 
9.780889852129423 8.822061599252411 29.000138172191136 1.961467292203206 0.8482557966612028 0.6847419783108201 
8.338981237700828 9.931989608835877 2.3559180470978376 1.9615025180108736 2.7404293020646886 0.7545640666162213 
6.63255645423931 9.406401898626736 2.3595387004737276 1.9615983664612497 4.594358641956996 0.8164878491275347 
6.306779964378293 7.009494805180594 12.310031977633805 1.9616560937113827 7.201037805899331 0.7895575989156957 
6.238624218086134 8.86456257536313 38.97135919743143 1.9621195406578082 5.268871351414051 0.8902548333198536 
7.748784491701063 6.053111846337716 5.695417411140824 1.9630289642489815 8.998649746924178 0.7882014311110351 
9.178600055721072 6.430022318285014 37.620048637098485 1.963142382108051 10.51526826355646 0.9522943351860103 
9.253621039135641 6.488784685267683 39.009158488392124 1.9635013209175654 10.61250339677846 0.8058510287349481 
6.215568478506569 8.820662112523017 28.332277962186048 1.9640983065595505 5.32375818651397 0.8202605113178871 
6.908129276758933 6.366581167736342 10.310334534933773 1.9647490317759515 8.100950530061409 0.7575991505554998 
6.034337246956731 7.981996516795078 3.702756102695666 1.9657451981651008 6.19357440828813 0.784846256389679 
9.965157629950292 8.05322692512569 26.964452298113734 1.9658783319702624 0.05323343050940643 0.8136661797433499 
8.439917940066593 9.917258238097475 13.025294006520632 1.9670808182545683 2.6462132348601255 0.7577124254379216 
6.198136967850813 8.789175640256822 12.332671792921381 1.967106651353868 5.3678040702076455 0.7191711484787513 
6.790083957361189 6.448070752439126 38.398258095750926 1.9678366852128808 7.970129395208113 0.8279144619332619 
7.502989948524908 9.904367782537681 32.43625961600484 1.968155390825316 3.594021238042794 0.8374994777079431 
8.441417435646436 9.918577470244578 3.6022459538899483 1.968702329409588 2.6472280878144563 0.7738429519279766 
8.362142657065895 9.93571540869829 19.60488095551287 1.9692997353218495 2.729153333364472 0.7950954799445046 
6.221784049759233 7.1532382798013145 1.5983544252955184 1.9695322735321001 7.062759074235339 0.8007558574742674 
6.950343215609047 6.333422723113841 5.057005841325044 1.9695835054272854 8.174412612864803 0.7856235539439357 
9.246727714484708 6.474424591313316 0.2966054763843431 1.9702056546598885 10.63426559007925 0.8333505126378334 
6.814668041757514 6.425910052035164 22.34375769269868 1.9704748198124542 8.01382949541907 0.8471610220437142 
9.659579587564352 9.062610288772557 9.008782673574899 1.970620469107525 1.1223039728151765 0.834868195247062 
6.212097215802553 7.171120539965685 27.058095811680005 1.9706946808188657 7.046617238742483 0.8407121677064064 
7.982876529233176 9.970681921985847 10.180745999096196 1.970756314436906 3.1127804659553338 0.9843006646501502 
6.195623891787468 8.793113686359654 33.65830026416392 1.9709902230552028 5.375802461760349 0.7299985668383799 
8.411779618634535 9.927683380114871 33.045851871730356 1.9711736778614655 2.681477387554425 0.7959179884054909 
6.775994717318175 6.454731970894144 31.68252183291191 1.9713046983684968 7.968968322237377 0.8341509779763331 
6.816654202252808 9.577073771200496 26.30213896190707 1.9716665430174758 4.366288545519531 0.8134547066580856 
9.266653404058657 6.488846770684759 21.639924787074754 1.9717999210070114 10.667426481109613 0.8100290743767592 
9.971419044723303 7.931030067401398 37.68928330367273 1.972625129491259 12.325385237829616 0.931731235310142 
6.731610989379755 6.488951359208899 39.6202913661049 1.9728351875153778 7.9191090035423155 0.9370737592336728 
8.679037717543084 6.147506124425675 6.265928311543121 1.9730245261746018 9.990871034729919 0.8595552002433362 
9.350598797135344 6.560896068898817 5.630121642336462 1.9736102034936667 10.78789573061132 0.7794208425038646 
9.913528868277115 7.5167196650762165 7.648029099110673 1.973614099020867 11.912337888611427 0.9212302819728182 
9.410456973571623 6.619351043199664 18.9825027923118 1.9737224769988968 10.87218391086997 0.8542657405918571 
6.748629902075718 6.473675691085113 27.663904027104103 1.9737256693784793 7.94554036772289 0.8789162969481007 
9.021082512417056 9.68921198380491 8.291947409139176 1.9738405769955278 2.0273209428754733 0.9354667343135062 
9.970585065853475 7.8815689794251185 36.281848657520804 1.9741406759395672 12.285389515786898 0.9722220806540035 
8.429349988297696 9.927284164266784 24.978487992665237 1.9745292254825517 2.6687757633903146 0.7649415344263102 
6.156549820674183 8.708232005015724 16.40926473764825 1.9748167349364283 5.47970353309678 0.8036650967911997 
6.712370782557073 9.497714790942894 33.04878115766649 1.9751300201814073 4.505097123797757 0.7766172610057276 
9.123872565211952 9.625024351621377 12.30094965250533 1.9758020361864586 1.9080870308637898 0.7411754146409217 
8.58967281660861 9.88627901842132 38.296539335989586 1.976300221622116 2.505572660499828 0.9549701109477641 
8.423079557215582 9.930492169362374 29.027538900095138 1.9763087632511218 2.6779989611091466 0.7901083599152691 
7.660269476997046 6.052882667794224 0.4285929211765733 1.9765330084863266 8.97276640618542 0.8386329141899437 
7.561652886732638 9.92748515315671 23.043908859931193 1.9767010920595371 3.547016541698321 0.9000679823189507 
6.838661284979494 6.40020332113864 32.93193975617482 1.9768806298563693 8.07451390076034 0.8556057683588664 
7.439248940626923 9.895694050763275 14.977637810319685 1.9768909137044743 3.6738496825467504 0.8350057585354411 
6.225263789441257 7.129063262950716 25.67055577185232 1.9769217022963912 7.112580919203301 0.8171612407602935 
6.989819468424598 6.299822887264089 7.65349146835878 1.9776417575094292 8.259172329662414 0.8849829385860741 
9.33727405340539 6.542852857233736 20.285282763385908 1.9777713946720836 10.788577102364231 0.8054842859574066 
6.737979426552586 6.476710406348662 37.01489021004327 1.97815750483398 7.953221074290971 0.8298142319806886 
8.496784139849684 6.0852244579508135 18.40913854632231 1.9781708364132595 9.824070452582491 0.8851748522469295 
7.566862808209219 6.0698084715157865 28.271132132513166 1.9781929035219572 8.885339489777396 0.9309646107551927 
9.276632030978698 6.488725748534003 8.34692424148215 1.9783172661797446 10.710255004013591 0.8324079023187748 
9.203344088539453 9.570526517752397 2.9091196731529294 1.9785324203525936 1.8143239325588851 0.7734511201970343 
8.257653069791871 9.961993092936858 20.920738677320692 1.9788385485190818 2.8499656385881416 0.9340793089187174 
7.699702139694963 6.0434429986358325 32.2927619001078 1.9794681367708171 9.026561995567508 0.8420835825450114 
6.796532178663993 9.571822403080919 16.9332561102917 1.97963644738581 4.403185048273572 0.8931337273321778 
6.893638980986681 6.358297938493303 12.953691384004046 1.9797020894941553 8.155160731045521 0.8042585448807243 
9.335635767969764 6.538506362684924 17.63718242643324 1.9798703383284066 10.795880743316436 0.8190167059121745 
8.413790891522487 9.936585608128215 35.680300316309456 1.9802996539706572 2.6937846528075404 0.7461615786310466 
9.31971540206735 9.476717900765802 28.332952027143193 1.9804909747070134 1.6665497283772943 0.9062809116152838 
6.019566902864302 7.97739676902431 37.01994380819323 1.9805620814003864 6.244723006573514 0.8029738280698283 
9.214826426371175 6.435711576098981 27.01536706011663 1.9806063514389982 10.64119958237079 0.8440091747444451 
7.652419862960738 9.949885859671049 33.75036808555128 1.9806228357285325 3.460544462085519 0.9798569433517283 
9.71996520571659 8.983121541590393 19.619854204436322 1.9811128878523747 1.0287338827986723 0.7902132206191926 
6.659663087549536 6.540630313855697 28.920039790735537 1.9814799821633744 7.865447907895126 0.9411132365048995 
9.977799173519418 8.121526623659403 25.681922672257272 1.981529280891945 0.121602936596787 0.779431878671697 
8.54578978379828 6.095106414939341 6.344734115041305 1.981541334038687 9.890731257691932 0.8814849091415952 
8.268867412508872 9.963526990415204 31.681479341955487 1.9818496228518945 2.843383039667996 0.8853151674408102 
8.486795237455944 9.921507285356924 18.228135991160116 1.9822108492512909 2.621823368552361 0.8556676106545397 
6.640747810739516 9.443050144654759 10.415268864926169 1.9824127304871553 4.611687023811495 0.7668965018490136 
7.650031258298537 6.048699884383684 22.93073670647445 1.9824354368736343 8.990194421922554 0.8311006569741118 
9.747996491560784 8.935321028293025 30.41897997613718 1.9825027516944163 0.9740384243370972 0.7765314968724157 
9.1793608718698 9.593726173332488 26.9829436655157 1.9826384394696182 1.8512382382702057 0.9092854836257117 
7.375868407068637 9.881849837984731 20.255656558408198 1.982649504581739 3.749267183013391 0.903686839401095 
6.882097644008496 6.362418265826436 18.338037346375543 1.982770691136586 8.155927913579871 0.8139806490472236 
6.198772194354936 8.829458811921924 3.1684449055770614 1.9830339201596803 5.374109838391606 0.7808241192084635 
9.965992782926076 8.259703715592305 8.361792760147203 1.9830717693542694 0.2604518500333466 0.879508479794839 
7.3508747812264765 9.873894738923385 10.978050713416884 1.9831401973164962 3.776423033481869 0.9541049271035267 
7.726051518408351 6.035705178893405 29.811092666984912 1.9833058046586172 9.071281255726706 0.8921564404683645 
6.018251921935489 8.080739132345165 27.672086953176603 1.9833921075783851 6.150248626446739 0.8747138205774575 
9.25056643564466 6.460337642907453 1.6287493747809663 1.9835515077276837 10.700358689470576 0.7897161930316041 
6.028649392436499 7.779294851548233 15.663882699207193 1.983666801782522 6.453036109045572 0.8789612452486258 
8.379465973466857 6.0528958346514194 36.976052858673484 1.9837361356130372 9.729955428186784 0.9345250634658565 
6.234435467558702 7.095496273752779 22.920066641443114 1.98377042749653 7.171397592012486 0.8172054221412489 
6.697468028868981 9.4962630372504 25.00886046760806 1.9837824004815316 4.537079505570535 0.7924630818019366 
6.216257584250824 8.868197329347169 31.025693951961287 1.9838103761267758 5.333710128905615 0.9007495159567223 
9.299156559549765 6.500542466129881 10.944783475467752 1.9839810135434894 10.76575055240266 0.7975463187761752 
9.983040226430411 8.061271574246144 30.965993493245932 1.9839865789495073 0.06128131819214033 0.7561558869372709 
8.436692833769222 6.064516804829873 27.675694564846395 1.98413604116536 9.790318401783606 0.9001632151429433 
9.82180737539148 7.213894013221891 34.33372054073396 1.9841735648574619 11.65865427829623 0.87876962465674 
6.198419949632168 7.16849392269782 29.67306783366974 1.9842109349748687 7.091577626841884 0.8314711588855513 
9.347726230515399 6.5435345484946925 24.331499978700407 1.9843531953379236 10.832641991638292 0.8228788465551768 
9.747094102314737 8.94106608363035 20.943102033369954 1.984425150037736 0.980474160149587 0.7866824011393502 
8.415329145516822 9.940525499518852 28.99195650826936 1.9844741150739749 2.6987820933875604 0.7725568798119252 
9.771465825668871 8.894525418621477 2.3232727173338787 1.9845067135367978 0.9279760696138588 0.8008547539210281 
6.173909378260557 8.777206422202799 23.04489923379466 1.9846049434378652 5.436236991740563 0.8207925991608882 
6.192084499117282 8.818956482455906 33.64988945531769 1.984753933989944 5.391108012777259 0.8259804898352086 
6.689892547224755 9.490951653832582 23.74209304243255 1.9847716170590899 4.548543151746305 0.8275714400493996 
9.776979853154756 7.115826593584565 1.0131888539691474 1.9847972216652727 11.554463070159644 0.7789015061055923 
9.808743429830223 7.182738880141766 13.045001799888787 1.984809445006229 11.628607498197363 0.8545687279862066 
6.803042834708265 6.416724224130121 24.807783683562192 1.9848094714605717 8.068366900560418 0.8481522335151915 
9.141513365190015 9.623798471299338 14.933392975659508 1.9848864547629694 1.901653746959747 0.791831628265084 
8.669023400062056 6.131252903271058 19.629799092025955 1.9848949648189076 10.03598336199709 0.9513141988824932 
9.860115341569397 7.3071868920688114 9.035969295598562 1.9849481319327 11.764084742927269 0.7883381027052999 
9.8090188400788 8.817203302058306 33.04641417335117 1.9850366245122637 0.8422483638467533 0.7880762695444435 
9.154019290299175 9.615341178545513 1.7427391799671241 1.985217279163018 1.886875878956948 0.757970659909493 
6.633232997142503 9.439821233039254 19.69467851885306 1.9852297658484663 4.625924463399791 0.7947080894626622 
7.475454033308289 6.085305170727468 39.06626236036034 1.9852467756970449 8.824405571663904 0.9184019997639158 
9.778116930094482 7.11696605480271 35.6452052897538 1.985308229333501 11.5589645840934 0.8047647980034449 
9.078623398648874 9.666926617028615 9.569008743652219 1.9854653818869 1.9784793688676174 0.89777296580081 
7.386283097419126 9.888496975801164 15.022066850118868 1.9857163100814796 3.7430888631310566 0.9075033195019632 
9.98515278551917 8.047939070635948 19.102366009412293 1.9857315368266542 0.04794372853896611 0.8371165844698143 
6.638907146949366 9.445968025342033 4.900126289928316 1.9857989034484467 4.6189034848936075 0.7722705089983274 
8.432164786506616 9.938275723580919 23.618091496100135 1.985869880762444 2.683746408248785 0.7542593794552855 
6.226988252429825 7.105233188480325 11.031242717643067 1.9859955448134647 7.167379923865848 0.787283348251568 
8.284168364341845 9.965612842722885 15.537622653355633 1.9860477100940588 2.834529431586015 0.8692286135414699 
7.6731616170858175 6.040983281167257 14.939892477657928 1.9860941148928875 9.03091617443975 0.8244736460337393 
6.201109304923834 8.841870470098458 37.75341276645209 1.9861403830684812 5.370277104171576 0.7941436466422607 
6.146408126058315 8.713440991672426 10.981352005391862 1.9861522811056518 5.509931957086279 0.8887525664029129 
8.553215651809438 6.092344607140367 16.943697267081305 1.9862519113429153 9.920621725653366 0.8807169283891212 
6.01382908142044 8.03622932876835 21.008666462655327 1.986501316907234 6.204546606065401 0.9175493218894327 
9.98526342468561 8.071328976297856 29.70311607126093 1.9865444088301003 0.07134431194995372 0.7552776360249551 
6.197150040653382 8.834438504793766 21.608017265965778 1.986593968126994 5.3799130837863895 0.8066314989743704 
6.678701510672113 9.48352050934606 29.02427298378553 1.9866209501438714 4.566093211908692 0.8662670878519224 
9.979008150067678 8.17626315253542 21.617286205332498 1.9868422073672645 0.1764951852532608 0.8280377223823508 
6.271505593782187 7.0200530773173 21.608975493277853 1.9869546757793857 7.266980814235291 0.8741320445501504 
9.981329419869263 8.151014729098613 9.591737159887828 1.9870761732868252 0.15116047918998632 0.8761193072280363 
9.814173643371644 8.81112986688139 27.641042819332867 1.9872487688388139 0.835529926798042 0.8433881515741306 
6.1915891268626435 8.823920095881448 25.60994909603653 1.9872579627413012 5.393592641883748 0.8186314970493437 
8.44606319492714 6.063306163081961 1.106871238642519 1.987399152617542 9.81529373389684 0.8911102076555804 
6.201261065654352 7.154742021952774 0.26244172139655575 1.987441270423709 7.116799715473203 0.8206194807392744 
6.198650609225954 7.159832066537554 24.301400791206426 1.9876472987078426 7.111820487017843 0.8109980258091298 
6.911772747513172 6.336530816759284 1.0353248495363445 1.987804888978433 8.215742497681752 0.8191882577848634 
9.241578872739183 9.552531615614882 24.329317100675347 1.987931717820323 1.7816455151756703 0.8016517153601149 
6.345484810302512 6.897929033571131 6.956696229461471 1.9879589854886766 7.413500975257556 0.9562411757484933 
6.7361045448503365 9.534454570365405 34.32481293447403 1.9879593934643767 4.492408238931761 0.803495088476842 
6.877851041980392 9.641009159646693 35.652424648368054 1.9879963143901518 4.315101126477037 0.8887120597517939 
9.209858037373882 6.422452463629092 34.99279283399379 1.9880675793614524 10.669229763846378 0.8807754425284916 
9.987878456524072 8.02812575296827 28.33037138480762 1.9880774169766506 0.028126691251074476 0.8122230982878604 
6.641916424591475 9.452430892555089 15.686039639311268 1.9884532922457034 4.618456541222061 0.7832603402223506 
9.857193398762996 7.288948786539407 18.360732229440462 1.9886581276259165 11.76796135132646 0.80007305985274 
9.743676302639956 7.043394152656303 31.543210726939584 1.988844336684068 11.498317684626478 0.9168274624365433 
9.142458080195317 9.628199451876984 18.94997342066572 1.9890308997338626 1.9073825638918347 0.7538188872164011 
9.719683003186232 8.99977325799963 0.9761070898114212 1.989184807618138 1.04752227660809 0.7425141209040931 
6.010771084205057 8.007845131244583 33.018016753098884 1.9892443855692967 6.241550396318161 0.8456035876584159 
9.988299255467856 7.93281400405051 15.07172357046992 1.9894340620753819 12.432784094896128 0.8969171065622655 
6.262576697238854 7.030501279909659 17.606354573721013 1.9896149127995244 7.263217357207209 0.8862129822941707 
9.2130772939913 6.422749865724743 25.730296699589587 1.9897925789560502 10.681222697909279 0.8355801578436731 
9.257164244155934 9.54262899662592 33.69408862352857 1.9900166225474738 1.7651572120513492 0.8343220173509619 
6.181304813009074 8.807799716910912 32.40791060295569 1.9900232576091432 5.420031666999213 0.7964043360776388 
9.851917789750805 7.271580391874856 11.64407287570073 1.9900237751084 11.757935844239615 0.8766076255200812 
9.799777415947267 8.849157326980087 22.376719302629667 1.9900419374771436 0.8772987268238008 0.7685068122377954 
8.417461322132068 6.05420948663326 35.604398464641385 1.990069013221464 9.798564564896957 0.8731616740043356 
6.014654633171846 7.860807301035026 4.946193178978625 1.9902187902417094 6.391763153952763 0.91316690084854 
7.504994803403568 9.927788664432745 6.962645034148906 1.9903264253314983 3.6266531807779074 0.8237966008752633 
8.368263471612153 9.956014279902984 26.223391082219848 1.990379322568494 2.7560828839985696 0.8851254345391314 
7.758805531518229 6.0241452234032895 12.330430484323387 1.9905217581896057 9.138324171832 0.931015261504043 
7.559288519124653 9.94129598475326 24.292091151308774 1.9906925201533443 3.571365783142463 0.888121375557911 
9.233102834679897 9.56283448978687 22.969826344889768 1.9907270640052548 1.7972052296637315 0.7877812168014301 
6.009345400026165 8.025674108654027 22.39869738049849 1.9908201566822072 6.228671158486861 0.8207242045592966 
6.009533138381707 8.04087906497162 30.324653185502775 1.9908865927404134 6.213672755876688 0.8690104282153541 
6.804367770303886 6.408050085611627 3.6485353624670864 1.9909397174724428 8.099574634269146 0.7991943910588764 
6.245151943317763 7.059453101546364 10.980387508433495 1.9910098367994509 7.23453520752167 0.9125292999456839 
9.749282082391597 7.0490746400222495 36.95681788883635 1.9910416479885813 11.518697798548098 0.8657853181198826 
7.480793089583123 9.922477081170271 2.9372587583434395 1.991354800995946 3.6532899586948258 0.8879982251315086 
9.66177222328489 9.097341750048278 3.686068524893429 1.9913929392463559 1.1622023526653216 0.8398636580554802 
7.699662457883273 6.0313826366979315 10.920474628327042 1.9913957322187645 9.082743370421966 0.8820204660200572 
6.78832417999803 6.419613919467917 26.375634646592175 1.9914262367250788 8.081780658780062 0.7700772238278292 
6.272395671421947 7.009309254736712 13.600856089530176 1.9915031681802455 7.293401523253362 0.9276927659752762 
6.019403805708688 7.791486939018107 12.968821984427748 1.9915418603286428 6.465509181724581 0.8935877545911184 
6.008597229532157 8.027409331325217 28.93537581433317 1.9915913902381424 6.229358683871904 0.8123729106285342 
7.442818684192259 9.91262215751351 19.038967935028083 1.9921281424890522 3.693941659413696 0.8808621549280279 
7.509472861379594 9.930931872320338 28.373168158490103 1.9922637298474442 3.625064128233859 0.8458604419649102 
8.531224822076652 6.079793992406476 34.325811657564444 1.9923330352098878 9.926377875686466 0.8877444807961686 
9.243358662715984 6.443078445170526 16.272870334117222 1.9924722060905924 10.732005455122202 0.8380270214262839 
9.23885483136909 9.56077125601539 13.711484458097644 1.9926786511654102 1.793173430444373 0.7682232252562475 
9.32556309181995 6.512158753710576 33.622464639033225 1.9926838897716141 10.84054037531844 0.8898549907554206 
6.122841395914158 8.668696277031927 18.986784848886415 1.992706485112615 5.578343475226838 0.9401842564915972 
9.991562231414536 8.069184250116262 20.368117753778943 1.992763553977486 0.06919815587161349 0.7595744530912929 
6.301545586532162 6.95762810377124 4.457870764328845 1.9928087125150562 7.357525174959754 0.9325070630409817 
6.178725506682746 8.808922206043231 9.692631661862023 1.99283614866799 5.427714017390922 0.7679845460823636 
9.855057576336536 7.271834923675103 5.012173934464876 1.9928529774930264 11.776038157832616 0.8143080675965956 
9.37983917551161 6.562011874034615 8.36554705856065 1.9929290004147149 10.915579002144394 0.9468574183530294 
7.65179720266948 6.037717583555972 31.06122498903526 1.99293689562771 9.041494710251593 0.7938697005306835 
9.768967770908077 8.918149432473733 16.89136544503049 1.9930492605210044 0.9541850505586815 0.8075911831864081 
9.672508176594874 9.084191070654548 7.7146077994746065 1.993176830706139 1.146353344368265 0.8440103584667856 
9.754047856067563 7.05316119518649 37.00507817265883 1.9932856302286142 11.537546325882914 0.8335161553995165 
9.992470311455888 7.940574014705231 39.05076525238938 1.9933563127954275 12.46519230517189 0.8979053135318371 
8.3403192052919 9.96419377949722 31.653943432546733 1.9934578914303875 2.789321983694302 0.8825397136220985 
9.181634832300128 9.605548016827449 31.078734495954834 1.9935007678061003 1.8665849187763524 0.8418738548277989 
7.503670251728087 9.930852852226355 13.736214159002145 1.9936238250909606 3.6331823570962314 0.7896416638263392 
7.436343151430828 9.912299796586762 28.391328923934275 1.993639775627656 3.703051899926905 0.8721309452066476 
6.006357057100411 7.976867942156915 39.66457676609861 1.993777137965372 6.286768186367137 0.8507142702538725 
8.495184685171415 6.068567231690553 15.61899159474347 1.9939008026799663 9.896457850098194 0.9034731978301204 
9.994083382233995 7.978822635482082 1.7182856943220344 1.9941958319256665 12.508724188214025 0.9817044348070124 
9.994347072231072 7.969565345860426 13.641094751958406 1.9945792821267438 12.50187540419655 0.976265161168219 
6.759932876301669 6.437577565845444 14.334118974529915 1.9947256287587265 8.061707859101308 0.856068657221851 
6.6652562220081215 6.517571587738116 23.65930467950541 1.9947769174444876 7.937947202326772 0.8425339190377896 
9.993674170923416 7.931035782300029 16.17132331542144 1.9948666028409356 12.465138566642054 0.8997370519085743 
8.436992994484402 9.946501232050725 27.65435854466927 1.994951108073438 2.693096510228017 0.7601090180086467 
7.565383272422107 6.052951277833177 37.703274411182996 1.9949662719910761 8.962926849429262 0.8237452473410531 
6.00764148539945 7.896255179319482 11.633498224164441 1.9950577531789249 6.371450414511941 0.8959000563795886 
9.396548299920152 6.575043388539472 4.333628204689489 1.995206379940416 10.949131935717872 0.9601818586207459 
9.791289341570394 7.120716884372214 39.650207275158884 1.9954589203117652 11.627282762925741 0.8014531458630211 
9.993208276601173 7.904779468755059 35.04889319097123 1.9954814415278301 12.44272296941137 0.8898699169961563 
9.219434827672464 6.420410781862936 34.99617161042341 1.995525844732518 10.715612324510726 0.800455515955036 
9.513114226956015 6.69890586957569 6.906714656498266 1.99558527756678 11.12136531511063 0.9778379413815096 
7.631562211582448 6.03868105149931 6.900377638352516 1.9956248198701751 9.033596781736009 0.8072708552780471 
6.654581195154904 9.473937927210164 7.596622951090808 1.995656476876569 4.61124661520317 0.7865448440168531 
6.175294788293176 7.19126783761725 32.28940741185233 1.9958949922534313 7.102966703726764 0.8088723311377511 
8.476365550523354 9.938378078249114 37.08093850242698 1.9960545363196256 2.654387655778141 0.7384063180750796 
6.173033828767304 8.804153530884893 29.630660507792626 1.996113296399605 5.4433081928117595 0.7845508535123572 
8.578241694870547 6.089454633886199 14.322251784549373 1.9961330250425904 9.993205731562607 0.9095021466061713 
9.77725968627725 7.091187099520363 15.651279474947344 1.9961445039236332 11.598585670232483 0.7757541454982593 
9.290686181300087 6.476999324462174 14.963960564094688 1.9963471332129785 10.811034503128221 0.8475589562661263 
7.189646001132196 9.824497165911339 9.581062293215872 1.9963625702510923 3.970318752190625 0.9386648441570751 
9.841752810277878 7.229531949667475 3.655194941520328 1.9964153953397739 11.752845997022808 0.8393981676648283 
6.005615602197336 7.907030081117412 8.96655830701468 1.996550157650875 6.365350857680294 0.8877539628878583 
9.742794748902249 8.974182217170405 26.406383136261866 1.996588222206143 1.0176794303974948 0.8167996214845233 
8.458047208240753 6.056600694058785 38.4141072521972 1.9966492198956594 9.871150916143266 0.8634893995095307 
6.846467711011714 6.370279758870305 17.063786867877553 1.9966534015913704 8.17917208331667 0.7797094713708432 
6.191549838876934 7.153736495124065 38.85706639118172 1.9966606884873908 7.146593268774838 0.7796087114376228 
7.5504298428504555 6.0545802956150645 36.36399531291127 1.996690049158515 8.95572209389548 0.8345331019505228 
6.298347514318554 6.954947355816387 16.358212734752478 1.9969367068440114 7.373377860476335 0.9161782782861299 
6.660208436951198 9.481100789431295 14.433808273711222 1.9971732475853854 4.605766157290018 0.8157287560756578 
6.002739855404812 7.993610464964643 2.31373109309515 1.9972703651099315 6.280999452196278 0.8252546579031186 
6.196921309994991 7.140816701158371 2.896664585371717 1.9973203807498086 7.162933182600796 0.844248617976577 
6.009452023674452 7.83503873698379 16.985469344457428 1.9973716390170442 6.4400774412671815 0.8981906231357445 
6.652824586168471 9.474665061029878 6.366013408698116 1.9973779406648127 4.616031470369835 0.7748063583206886 
6.899468425926164 6.333096220520796 11.667605468741009 1.9974328413179465 8.247119062598934 0.8608266579546011 
7.75016684217527 6.018211572781393 5.7081284905373835 1.9974738989549479 9.162384820049358 0.9288688798626747 
6.205869992129543 7.121253927086467 37.57039537444522 1.9977730466202124 7.186066689479393 0.8680146802670469 
6.7367634409567305 9.548008353422084 38.33846273060228 1.9980231395977481 4.506024604592831 0.7804786764053255 
6.215858547945576 8.899453755535198 30.903381519743967 1.9980434878363493 5.344047062758662 0.8199081729571028 
9.180375457911067 6.387791973230598 36.25496107152161 1.998124356294784 10.678709477529072 0.7918662087066535 
9.860313540924496 8.729379966351146 23.617156509824 1.9981895820620792 0.7466329648949106 0.7575264386839671 
9.986112743046457 8.22003534232643 3.0671191008076732 1.99826409164661 0.22048243816251478 0.7560645311874065 
9.258392993076972 6.447681340071423 32.24187850488556 1.9983108234175366 10.778074180627904 0.8872860273847921 
9.288052626314139 9.52787216626091 0.2233095736470787 1.9983675649363304 1.7392964204004944 0.8126302840979513 
9.802509780693532 8.862975060096648 14.306965796775891 1.9984412585424305 0.8923323150027436 0.6792072905600373 
6.169468094136754 8.802573859797693 33.70850415619199 1.9987425694205567 5.453360402341996 0.7697652263225357 
6.015363555832682 7.761255761125174 6.359491543605955 1.998944878457887 6.5191860632199266 0.9225127149169304 
9.758569978647945 7.049412422006087 26.334330315636407 1.9990460508047747 11.569738055825415 0.8421944073338113 
6.870104118633016 6.350861097606828 15.724500297898217 1.9990807442713856 8.219628180321083 0.804222282467254 
9.986161826012799 8.227655223074125 3.074708600221065 1.9991662511415667 0.22815013773110415 0.745967263978454 
6.8813231235945285 6.343097378983181 22.36067818200839 1.999190898672938 8.23372442492426 0.8086352654171375 
6.555854981749656 9.382481563258589 8.925743942002029 1.9992023675674246 4.754115707954499 0.9233558588394132 
6.741000056381406 6.447025258115941 34.37826364770156 1.9992026928156816 8.05909858254809 0.8362081683887208 
9.271517243595577 6.457233026911387 13.619698219458726 1.9992213569322204 10.799195493179981 0.8316141197394364 
9.208186505987035 9.59285313893618 36.19319600002939 1.999223788240826 1.8430332840469497 0.7821917681539866 
6.690627131552294 9.510814524609932 20.970885227000608 1.9992543200901967 4.568070468397934 0.8055732719676487 
7.4987369947024725 9.93539582885087 30.990934233170385 1.9992552650457764 3.647092017949106 0.8189093779041547 
6.7458317976804505 9.557071384669674 22.302257037000054 1.9993521892519552 4.496265915393085 0.8134220021597718 
9.79789179255955 8.874707629256884 24.993405639010405 1.999381988123627 0.9053288883502297 0.6890132408953181 
6.000630094907002 7.992477456452756 38.28251071412793 1.9993840566667025 6.2887728254240685 0.8369917132920984 
8.413546328359468 6.0438438844559546 23.64902875298006 1.9993917360237257 9.83846483322764 0.849167139055801 
8.527819721296416 6.071436911659097 15.630702883282709 1.9994872452457466 9.956512091981747 0.8743917517449906 
9.400172317934144 6.572511677579552 22.987848874553023 1.999551307307673 10.973791838235837 0.9561929971257327 
9.885179437637202 7.333398866451448 2.5151732032632452 1.9995645984409536 11.884024622333216 0.9087038550929246 
6.159973641949637 8.783222032628748 4.311311991644587 1.9997834259527196 5.477736294850802 0.7794235319730234 
9.219280259312107 9.585230937677737 29.64156495247144 1.9999003666480082 1.8302118047180684 0.0 
