402

11.123290085772409 11.336758928870374 8.938380441091219 1.746054137393585 1.5224816290747647 0.0 
8.590314398386328 11.492009734600991 5.518634606895382 2.052634050078349 4.778185280649172 0.0 
11.786886961574401 11.1510810958084 17.504422160653963 2.1255476241599602 1.216396975061894 0.0 
8.5559750014827 11.572222967498766 25.631502479918183 2.134734938083304 4.939173780529281 0.0 
11.421797673256508 8.392751881021738 30.799638153678043 2.145869320260855 11.666317738918188 0.0 
8.556537880308827 11.60022573245413 0.7450252909874635 2.155065030524994 4.966854800413058 0.0 
8.645834896577089 11.687509886308519 30.849976220069685 2.1636665047362005 4.861839998752986 0.0 
8.499819465069077 11.561808873475634 10.82972909847647 2.1655919732610887 5.0589751177896645 0.0 
11.648645741740618 11.419520640345958 28.173984211910827 2.1755623710037946 1.546516648544614 0.0 
8.57490924244689 11.664790685292663 21.06091874397606 2.19144055203433 4.993797268446276 0.0 
11.670876648702766 11.435469619630839 13.283261134079574 2.202816788583037 1.5634715267237596 0.0 
11.38405358951812 8.281662637047404 35.82873466084371 2.206419640860931 11.89359672056947 0.0 
8.35937269311158 8.507463328136161 8.210304250854499 2.217954841056583 8.605133459165934 0.0 
11.699343976949477 11.426016762823405 8.12562364147949 2.2183989181046337 1.548809573721062 0.0 
11.633085937126504 8.49033069821224 20.62524316185007 2.2239764114757827 12.314240074070934 0.0 
11.827544407320529 11.270235620465034 3.0998968937810574 2.2256273480137527 1.351838061410085 0.0 
8.238733848680235 8.626206443902198 18.182630753915426 2.2336891436725437 8.497000523133947 0.0 
8.162928176869633 8.697443715209047 3.4713511703884166 2.2519959499048734 8.463810585502744 0.0 
8.261181323392938 8.547473190922165 33.31585540413327 2.2656841177020612 8.694611471813857 0.0 
8.532051735973042 11.728143608763935 35.821190516750725 2.267455057629903 5.158376725605297 0.0 
8.301435023089205 8.497522234146254 28.18611248683039 2.267721856329128 8.766581771288344 0.0 
11.733049541880028 11.47480036273171 33.42896633530536 2.2756310826942387 1.6044701746994505 0.0 
11.259308747036615 8.098848070789323 0.7252599606344532 2.2804028543887647 12.080266952918485 0.0 
11.483471438622427 11.741734124461761 18.263676629821717 2.2878647839247535 1.9796985764238357 0.0 
8.28197897764838 8.488491044893383 13.432875848183286 2.2882865980050653 8.839955081391231 0.0 
11.48014500996079 8.239321811737579 5.704356900397535 2.3001775873038266 12.447273142627878 0.0 
11.63443489889519 8.373271405402107 15.861855228797374 2.3059972591503595 12.683331270051582 0.0 
11.873556070734493 11.356051385661786 38.44577570279593 2.3128094843158458 1.449001043265568 0.0 
11.537888019564296 8.260716355266368 25.722394744230527 2.321681967358428 12.621615608934775 0.0 
8.378554906399126 8.3040084240302 23.248709599558808 2.346374142655616 9.266906469577904 0.0 
8.174977083038582 8.525137991811132 38.21203907285583 2.3464710930742925 8.966507473771493 0.0 
8.39902100722813 12.318119718351149 15.469213504514641 2.817234950071656 6.12807945178392 0.5756046676182571 
8.013206602934964 12.07905907578486 26.410208148465415 2.8757320186736166 6.710536652636959 0.35181445833849956 
12.715466267115126 11.144844560128265 22.849937681378293 2.9469350374067336 1.1757933106499694 0.7185454883027921 
8.405793593752115 12.484838972026472 5.599284939229399 2.952273493872708 6.321481434196725 0.46065690676338017 
12.394601699190712 11.727426738751586 37.67074090909857 2.9526463444715123 1.8452084180941846 0.2018724958746322 
12.22009392565957 8.05259665520921 10.99008065973187 2.9531672533151414 16.42884358664163 0.3921424553960174 
12.621130185056565 11.374389568864542 12.760356189780868 2.9596064153901103 1.4293043255490687 0.5519764725158369 
7.63238520524658 11.777573695276537 5.424557682201744 2.960636427944903 7.394450748433618 0.4114495288123398 
11.829215621190398 7.659556908771172 30.176156300075114 2.970471957801944 15.96863186226066 0.583530901719423 
7.75997688234162 8.021045732329307 2.7728434401799262 2.9889736635132844 11.552951011483453 0.3759571448500324 
7.9360164791054935 12.167095786061555 6.432422008759936 2.9927131704341168 6.978495686241644 0.4140164085546701 
8.593227035092806 12.64324135171519 21.30009695082522 2.994283723732762 6.167873101609889 0.7858543400356759 
11.559322518970129 12.562608134722698 13.639161044375133 2.9997411838880876 3.07220666038047 0.6439304167581775 
12.0803350477588 12.16475262622853 2.706877815707447 3.002323740654387 2.4177157273904406 0.3971414978673355 
7.831105076042141 12.087091866350676 11.489128251693622 3.0099929650677453 7.14997589741543 0.44721557163298586 
12.627943494896806 8.529351203570382 15.970954792159048 3.0114605916083845 17.385121601162723 0.5885512429828642 
7.495092792316024 11.672359895690043 10.594120343739618 3.011867815794636 7.689060662485858 0.631143119628108 
11.968321903026899 7.713629975530191 25.003689842662652 3.016915478221009 16.36125634003241 0.3990346989018246 
7.97176315051763 12.23450070473818 31.41135154595564 3.017737251165778 6.964468471560565 0.49006813370730157 
11.627739337903858 7.456717487431799 19.996358027353317 3.019573031223934 15.948517888573384 0.6831730373022645 
11.898049720949167 7.648211422131141 35.17757500927322 3.0221684695247584 16.293791381591276 0.5423424643123438 
7.904173633183079 12.182226368024597 36.463362247112926 3.0256569668663436 7.067938095526642 0.26937478350219884 
12.585941882137531 11.575308184406854 28.54408547583077 3.027984691779705 1.656741629171787 0.5472199443088389 
12.508720254133726 11.703991296874737 23.671272140059116 3.0326990706836807 1.8094541188317486 0.4692358737551832 
7.785279925213441 7.927758160631482 32.63959155353302 3.0330135592331238 11.80985053245633 0.37454751040725776 
11.494462281220255 7.352717413368335 15.996342527610125 3.039987270281451 15.887936674486987 0.5727598377679439 
12.62730936033089 8.467900709026353 20.966497668141137 3.041394862934488 17.503994621566463 0.668748578303337 
12.672359947459519 11.453479635556143 7.891688877056225 3.0420569915375095 1.5153792675935343 0.7240860256980154 
7.976707312709188 12.273524859762794 1.4080845816009315 3.043456683838939 6.99393517374164 0.4712284918383257 
7.668827598254994 8.040707380974867 22.58316327827381 3.045191674365333 11.695153123468444 0.4622360706871493 
11.485202851150927 7.341203386872749 10.975579703468984 3.0454928893438247 15.902987125514645 0.6830790994187717 
8.344678396838045 12.556658415272786 25.554572345829865 3.0457498029680323 6.534292092793255 0.6365234238920148 
11.423964301786345 7.307249170759171 31.082316638264253 3.0460763879356456 15.836006453268933 0.8107371182512145 
12.83504470764182 11.117778503707541 38.59910026880261 3.047442743954114 1.1444934512409688 0.8747950657643492 
8.388091749267243 12.589434773088165 0.4491500643612909 3.050150922964057 6.48947585812919 0.6750738433132156 
12.739436190965353 11.343248731063923 17.768519645029883 3.0510371675670562 1.390930930858861 0.7229680681470471 
11.976437369037566 12.326638051289311 12.73421823237469 3.0527936870079295 2.645560195668253 0.36229246787990915 
7.558299928192387 11.833984466103413 25.504456660978843 3.0537515063563885 7.626383287958337 0.4796428291665336 
12.12274680113444 12.19571603654336 17.59762141799328 3.0540502443247655 2.450244948850969 0.5769853842904971 
7.5692215801246405 8.150547794828364 33.981847775913245 3.054366904244802 11.582159997199724 0.4710499879718977 
11.979284352746287 7.673569938312209 15.179077912140116 3.0544792323653067 16.547142579480795 0.4374156891981088 
8.75272800635781 12.788264775265393 36.243521295580436 3.054522529481482 6.082858386875348 0.6929408498859918 
8.46835667328304 7.353453745333226 22.800930983057803 3.0577995942126983 12.805312084730314 0.7330841344363477 
12.3145056721856 12.000139620644834 27.674016231264254 3.0590022897429434 2.180048309986798 0.5234032752264627 
7.24009217410595 8.676575756147592 33.09351189964537 3.060807562825134 10.984382688579892 0.8950470068122697 
11.676329208128372 12.562351266969301 8.505002712082465 3.061980344379023 3.0358419352873796 0.6882366246892223 
11.69492438973624 7.447564998882463 0.10093363271859346 3.0639342554716547 16.234477479737706 0.32671131398532405 
11.891632697544676 12.410615153658426 33.74782835070915 3.0642029439101752 2.7744783461884595 0.6781719322456228 
12.513687439513475 11.752780850417068 3.6979750241635685 3.0644518683047686 1.8659692498021272 0.5755218608385267 
8.30555424610721 7.446067986015695 13.507719603469667 3.064916825125802 12.647703706309663 0.6414671631173127 
12.069260027827674 7.7378005708413795 26.480374804683812 3.0658413722909685 16.718869455852452 0.5312045330571011 
7.877899819442302 12.213668541121237 16.41763838406781 3.066535110882124 7.160599711481911 0.49445272412095903 
7.71846594142071 12.049074721557357 21.457817446273943 3.0666113015807244 7.38998503736331 0.5897118123274473 
8.133582800429593 7.56675457595502 28.610385046755418 3.0666262335811454 12.44457113550262 0.46383709570893683 
12.28125037246927 7.950001474517769 36.12322517340184 3.0670176420050947 17.025407479198705 0.6196253220378684 
7.608571491242017 11.922965250791156 0.5245482691695216 3.0686683868171087 7.562279813664979 0.47875142430707823 
12.492812545048725 11.792759907196334 32.76553029240827 3.0705215305551765 1.9144002995940497 0.5889961288777555 
8.194353787455697 7.515969334571075 8.59989251695552 3.070955322316959 12.541276003719094 0.5625395964105688 
7.307162997383825 11.476422618736843 1.388381056572456 3.071025052287367 8.107729301483712 0.937893567890975 
8.024701193303859 12.354315612810387 20.52501670438309 3.073207994987963 6.972729523612902 0.33550730414978136 
11.961775568486555 12.367139687168445 28.665718390031117 3.0743964740544882 2.701677954057814 0.36309721299458875 
7.386062652009031 8.38052946017936 17.692862592544806 3.074955818962123 11.365851042593071 0.6696285051923814 
8.076430750371571 7.600609591920147 18.107512844546562 3.0752549469111767 12.41362917791946 0.4591720192096393 
12.436882127704564 11.88096118430069 8.772688966348188 3.078377735296917 2.023580520356415 0.3975805024073469 
7.513305399204821 11.816757689378052 30.560758918533615 3.079652340693371 7.731865093743785 0.6537315345109618 
8.144606565471417 12.458052714721342 10.501134208978371 3.079692832936549 6.828839076146885 0.4629420874537435 
8.312559382159488 12.577651103259567 30.455162516899847 3.0808669313803922 6.625183824820418 0.36834336197653317 
11.978344716012316 12.36176542383444 38.58741376527928 3.0808738585981943 2.691183209023343 0.3552226544696354 
7.626208077226423 8.030761906598729 18.900739903499087 3.0842805905312454 11.825467070889495 0.6419747905789601 
7.86236709296757 7.776444660176109 12.640966554143361 3.084424224144152 12.173265868414713 0.5060438015815906 
12.114556248649393 12.256953389540334 7.656864839078089 3.092763607400307 2.5297586369768617 0.4110220687808648 
7.307304590756342 8.478091312071294 13.133671279546036 3.0930267734623214 11.308198705321551 0.7469650193546319 
7.841841470299197 7.775248403704326 7.65750270912082 3.09954317675048 12.218967812432975 0.6040423428653747 
12.190425355709145 7.802346478479647 0.9707031690623751 3.1028445400284466 17.053667733950977 0.6641670936109162 
11.387725720712648 7.22309708877286 1.191603581055194 3.10434734756103 16.06756634010413 0.6436212279623084 
7.114653498209577 8.85428028360806 18.549631366938222 3.10449643322769 10.926527132171927 0.8231910819252157 
7.490287640348704 11.835291526176219 15.573124552203922 3.109172094664547 7.804591631963916 0.43553445103123534 
12.596636752351749 8.289492288785853 25.763972385596546 3.10939850353519 17.72571913410273 0.7644054168826517 
7.394500649229727 8.299964509205402 28.56610451311868 3.111068552254278 11.572270045481034 0.529611778989597 
12.439799067531986 8.062622585998554 20.058263981262584 3.1154535358776996 17.484140652107047 0.6872804847972388 
11.435494700370658 7.2346933816761005 36.061018391573846 3.115696668184857 16.174224545821907 0.34096455833883144 
12.044941526445186 7.648055857308526 21.00435986191021 3.116637145533739 16.91734808194122 0.3920816883230318 
12.426242781369432 11.957114087511885 18.53553620131978 3.1172022048119947 2.115891484758599 0.23843879244688854 
7.396769553178075 8.278568560047258 23.579125245170935 3.1209189290525408 11.628069504957942 0.5995397068129557 
8.156582948143782 7.479476412356709 33.511184831909844 3.1226952433659707 12.743478220714938 0.6136351266014571 
12.791962899876008 11.413181452919781 2.755875723710602 3.1292393090271156 1.4662485359460753 0.5457164928844122 
11.929541373472173 7.536364989180472 5.144691599192264 3.1293173981679474 16.825736904181973 0.45571786379043694 
11.519402820281329 7.263727981045838 6.056104247643816 3.129819402456049 16.33539906764843 0.4596180227071869 
7.428618559389786 8.2150813671569 8.467283332126755 3.1301656567960037 11.733050729851904 0.29958795722944986 
7.663506509349318 7.916564317646959 37.591900297906506 3.1304801667403788 12.11433039087472 0.4883763114503266 
11.962038481883155 7.556739536161812 10.118666045804325 3.1335469836185896 16.886626664449874 0.3882200837434583 
11.435620271819783 7.2106624403294575 25.895379835249884 3.1371021001313824 16.27438421512727 0.4085853155737809 
8.142297887993585 7.471888814564345 3.5389168538126796 3.1372604773716213 12.795866618280677 0.6381913867878151 
7.478288427774167 11.870183226672808 35.55624706349484 3.1395245746491596 7.85970023794313 0.4788932673133683 
12.927977809909912 11.138323566480315 33.45125026543052 3.141470133127053 1.1648321781801663 0.604951234957758 
8.211528740172522 12.583594646904311 35.38941963442695 3.1422270361546913 6.838416750465054 0.16843316428485228 
7.761056885116549 7.793992730181641 27.707130951054488 3.1431408409702963 12.319795846493474 0.44096508141754676 
11.539852806038326 12.752103214234767 18.223467100856624 3.1536040915221784 3.3449477276610153 0.8384736184255264 
7.376725643337522 8.242942546609262 38.75262095965248 3.1573437007774223 11.78244346776632 0.3549721200449196 
12.303886744086284 7.830866854377485 31.074947691149582 3.164337645229209 17.492154413560826 0.5758084972573544 
12.429758199506256 12.029721930184484 13.58229330449602 3.1659905277716347 2.203317086771264 0.3442619463463134 
8.026088915539724 7.52392299511858 38.43906609514903 3.166588432912888 12.79099702031576 0.6713243288400046 
11.931293922950765 12.510011629794873 23.511589952585773 3.167026144276686 2.8977390504983696 0.7059159198008892 
12.374991687362481 12.107778917251066 22.622762203806744 3.175423984139593 2.3049125261115577 0.16365841714599683 
7.546984211967569 7.982814194357944 13.9828022072221 3.1758975157930025 12.163056343473691 0.33182626178824726 
8.081516848008725 7.4677697270119925 23.716699626550962 3.176911670146231 12.911048945092816 0.7762887066250794 
12.363656811441885 7.875925948129179 6.092016759900758 3.1778237994115615 17.640489770031337 0.6630267100826477 
7.346476594662388 8.157028937086746 3.6749185171009486 3.230747406005323 12.110918585285443 0.0 
7.746341413444409 12.840505326243962 19.564277927207208 3.6259409169450154 8.127547512016978 0.30975389854386437 
11.812006429691639 6.761101970815645 36.96597857610144 3.7113107852479996 19.382170884172695 0.45249431971256776 
13.147788521899717 12.075924857319523 29.491090062808965 3.7706811840621963 2.1983652532055693 0.4818862211919679 
8.061472403626833 13.238159878435633 29.551688651402834 3.7740652670840995 7.964120510968758 0.57522898607814 
10.984054890332455 6.333739298383378 20.811545565225657 3.7960283928608356 18.883786216282537 0.7648030391412644 
13.392284850046291 8.281003889493498 10.259157993663223 3.8029651762526124 22.111058151925498 0.5951013214096641 
6.524263522001995 11.56290690379933 36.1982069294249 3.810960778390353 10.36207771915539 0.46355054279946795 
6.203731396184537 9.520201728554914 17.76545948635431 3.8264685669160676 12.502270059747637 0.9276951638311682 
11.907290676492906 6.67537065548118 11.930970845130759 3.8328733351198037 20.05832534557451 0.37787768358067547 
10.857602536385606 6.263885851570393 5.229631700867429 3.833279410701872 18.928826583809716 0.7565140591284641 
13.500996071708009 11.571165341820357 32.6789750411204 3.837386353424999 1.618748225056354 0.4950981399633781 
6.926268255713133 7.699761422372031 9.58144849922656 3.839130676317847 14.527421390684289 0.4013670295123881 
12.599167583159232 7.171484469238013 16.960508702162628 3.8413763461951453 20.956847788648975 0.3178189095565348 
10.77902314407022 6.232949127105378 0.20329377390406478 3.846758289517702 18.911870141265418 0.7526570808275952 
6.999805107863139 12.415272111665281 26.30139496250019 3.8515852274345677 9.48948582379176 0.6157749614383594 
11.814990930669197 6.601462548751705 32.036504212139995 3.85282349530168 20.045872925144817 0.4446966744436526 
11.803650962128899 6.5952382941713985 35.29242133643968 3.852993520195097 20.033822523756083 0.388535941372529 
12.889222160419266 7.443581982326034 7.068937339721444 3.8578333003573184 21.445020575532112 0.6533747430945179 
6.2016298508736725 10.677795286274133 5.35343822260419 3.8583704124758946 11.44009746413488 0.9003036276285465 
6.324668285542554 8.815229772712499 37.964341032915634 3.8615726981067655 13.335680738853931 0.6432711457345393 
7.629589060812755 6.94983776433849 4.550312038258291 3.8629441730983074 15.65165203925297 0.6397224066756434 
7.603374892117181 6.962269217187991 24.551288064389205 3.8693177973097534 15.649149194823469 0.6870202396753994 
7.7037255670720945 6.883434452145156 2.7232673309446582 3.8711570732010023 15.784224243325607 0.772335019875021 
7.56031666352116 6.9934377457770545 18.71559974975262 3.8718821483628214 15.606409072212209 0.7482058410557801 
7.798448383372488 13.189933090773742 36.262949670333974 3.875887336377121 8.429609283957937 0.5384862494601016 
6.32725895152128 8.759070214570816 27.915166806325956 3.8767168508347205 13.442227683159778 0.4964281642274393 
6.84778120224215 7.736105351940942 39.63058378281086 3.880940907363622 14.609503947828731 0.5852892212210022 
6.343895805500445 8.697666716672433 7.9474914920694815 3.8811299723018786 13.521030828572194 0.6111563520895805 
6.833166972720477 7.754400821970609 4.520529572217626 3.8822090478276228 14.590892469838629 0.5563492532977985 
13.77348279267635 10.920978602593106 3.732400819117629 3.884246899085956 0.9298339757587826 0.5710993982193774 
7.592487339905453 6.945090371929004 32.74586539618754 3.8895488227037838 15.73306479739843 0.6481581812445937 
12.895589758039964 7.4019928528310555 11.971365422566336 3.8902546425146602 21.598317382518495 0.6136263471975044 
12.500917103928249 12.986843094649025 37.883241255194505 3.8956152316127706 3.403657693029505 0.6569124302932604 
6.165095536825994 9.285801189894798 33.71012725504564 3.9008424964394033 12.973108509230915 0.8498877984156707 
6.4964768001014015 11.739624042242502 15.42732058341575 3.9116450018599407 10.486026524504108 0.5182306311753277 
13.743062962030418 11.146188714445865 27.757926746510037 3.9146224475480413 1.1632318814169338 0.6592764052452406 
7.821738459567268 13.252607529284134 1.2542997450242126 3.914623746681694 8.459086684153085 0.6161954083476469 
9.523775844706222 13.890949016897427 30.50183723332131 3.919983890040915 6.634899724821604 0.8085982226336328 
10.867226962326136 6.1771130909311776 35.238029730617114 3.9200187402250006 19.347114667477562 0.5942976247929423 
6.793152016527731 12.25703989616941 14.593072757260423 3.9214924559408013 9.91474205153964 0.7025404883476271 
6.635661743290772 7.984835435938406 18.70350526693369 3.9216909778572355 14.436765448807257 0.6915051353528392 
8.20532299731035 6.511249780385047 8.602696317125464 3.9232949976832594 16.624073401857963 0.7420405943385514 
6.214819712212556 8.967209050268274 13.750796972053038 3.923550300034701 13.371302631335887 0.6921665083242973 
7.999166095057305 13.381378154704608 5.323744585788361 3.929001723120235 8.270966684017786 0.6621882968443535 
13.237221300023666 12.230027861062645 37.88784735770221 3.930982829578696 2.3712384937776037 0.737710345475025 
12.380382573522535 6.871623401874544 16.013978023310592 3.9310254814779255 21.081420735466303 0.6819875010683953 
13.318616297135964 12.108355703859594 27.69007239051915 3.9317143718248047 2.225272161056292 0.7675331892957001 
8.514398362663485 6.359367637194801 18.73038041418461 3.932075307768342 17.006038825730155 0.767365118476887 
6.76981776424096 12.242330156215694 11.291038222232004 3.9321904589792633 9.967249324911606 0.7295286247967313 
8.886585729703665 13.77152681650606 20.63067664329732 3.9324427351105684 7.305920900398608 0.7299315938205866 
8.567199208633092 6.336377546162005 22.805159625752026 3.933833701620792 17.07121915978658 0.7939953509816992 
12.83115565279335 12.731425232225341 3.706335897667813 3.9339707840273808 3.019209594609862 0.7370785892215853 
8.572743100490392 13.666303974899574 11.080276962795146 3.934316598033537 7.640585744181408 0.7092437072087148 
6.978578231586628 12.521636937913481 6.388182968922237 3.9354342008591456 9.62652632687103 0.6951266179652469 
7.450216717884629 13.00215079137999 11.325560570374641 3.938820148209175 8.960401552686719 0.8361115197637733 
7.152379797531067 12.72255450591955 10.404199212615133 3.939700985507922 9.371143985498556 0.6428946464031015 
7.007025143905089 12.564198548033843 1.2715518447516132 3.9411943218972643 9.589710827940724 0.746903983199873 
7.490799288847256 13.039468224867441 21.360437928345675 3.9413773352507415 8.911127912042826 0.7964412937080413 
6.305401315319191 8.626755107885787 23.00996470073806 3.941555654124768 13.785425889526003 0.6935543673074505 
12.482477714865748 6.9373025233790955 11.06685569063243 3.9424372459311416 21.263659299805653 0.6168460605851631 
7.734394403923325 6.772589664741282 9.504644674694383 3.9432405695200394 16.168585879082375 0.8092849023963871 
7.187669318597152 12.765260285217988 5.344590827156004 3.944092836960566 9.326334002652597 0.628500013910717 
8.103793942738914 6.541093527996919 28.728511129857793 3.9445698616780054 16.61027334433005 0.7144320630939233 
11.867641460382472 6.523906636564131 1.9545776765823533 3.946049885120873 20.54082835869456 0.6549341091451185 
6.9129093594592455 12.457983482200259 31.268122080804517 3.9461134577814208 9.743604343833699 0.8143096767033339 
8.296348763720786 13.560728484135417 25.571276927206583 3.9473047605434517 7.96195257874561 0.7100424826781085 
7.727760445707485 13.228467529276315 26.427197984878738 3.9479203613653286 8.62256289901439 0.710069420014658 
9.263244216851199 13.879543051543298 5.221352416753987 3.9488812811707934 6.943986732113025 0.8294800628851352 
6.682472005617534 7.855837210349467 37.88250466910313 3.9501172213028477 14.67615441011434 0.742928454764394 
12.877381633414391 7.293545602306601 5.429982236314828 3.9502177751491585 21.83833917276497 0.7637473642128827 
6.1108810675515635 9.307393446753498 28.81653745781024 3.95031010280571 13.106470267416825 0.7184683926923985 
7.726585092086154 6.768445901282043 27.821157449812972 3.9511210101015317 16.196887438566428 0.7110689518495343 
6.256483509687037 11.26663672674293 11.32278516273653 3.9519975089540647 11.126175640553924 0.6852560525316892 
8.459684138755538 13.639731919158383 16.445813611804446 3.9522425780487715 7.790411643276656 0.8077920789282015 
12.659612082675629 7.076386683039175 0.12346750908442061 3.952347562832104 21.542419077627564 0.7023762821632589 
13.875583135309856 10.776946670440166 28.706331590505194 3.9526941150822963 0.7820387729959783 0.7013374163544471 
13.610541668067803 11.609306374171666 23.70348368407617 3.952958150904635 1.657446168615209 0.8557100035424342 
13.05847041383526 7.495143344491332 21.123509826170597 3.953295857503166 22.126485766324958 0.8100123756331242 
6.322486266150982 11.451607039140999 26.2278689198152 3.9536401276206012 10.934352573549852 0.6488473631492954 
12.334363697348156 13.192359477791392 24.49110830355896 3.954796190316446 3.715189497275336 0.9015915098983214 
10.940523781357573 13.841334331145518 3.9940236063425303 3.9547989110618884 5.26256065846648 0.9865526244668604 
13.475277163014983 11.889067707657563 38.81881473308822 3.955518697198646 1.9694355952492089 0.7803631287516236 
11.528062077065933 13.648757326957583 32.940878879436234 3.95580633277132 4.644898204012264 0.7263022869167142 
13.777676747463637 8.826287558838267 11.090703223966322 3.9558112319554963 23.66344113007868 0.8839448007159547 
7.309785576170881 12.901168877590738 30.429513586533517 3.956517977019609 9.173123172271353 0.7512880285446845 
7.696658906740556 13.217028237906746 6.27098824111971 3.956595869606469 8.673528874937439 0.7071402176672794 
6.411866502722404 11.668461211010452 20.31094351893956 3.9570778115842034 10.709197022747329 0.6927663536518602 
10.829296069322513 6.13042876919253 30.276331702828173 3.957437741883831 19.48447469416577 0.5783191152742807 
8.74242386659818 13.75247091405257 31.40272153419111 3.9575921583852467 7.496334678768669 0.6858494361649532 
12.891058313690571 12.70278020005178 38.81972908728082 3.957681010762656 2.9751975449149946 0.8186818901595306 
13.617387151635832 8.394044405896308 21.230543394078566 3.9578508277918893 23.21425996063145 0.7450701665166185 
11.510297659374753 6.34077371929701 16.064487555361197 3.9586533055194777 20.204281553207398 0.5848004013682138 
6.877410011515359 7.564504506288435 12.77646090234915 3.960076582097099 15.064108027429551 0.785988051213658 
7.673056726304907 6.795011428908412 12.690888286565034 3.960633376093092 16.176814095777136 0.752167267955706 
11.93618146681833 6.544814742366908 15.047678018404042 3.9606948679513088 20.687338147785685 0.6792544762586564 
7.08248520892165 12.678977594973988 20.39394090643188 3.9609106920673605 9.501398237273222 0.73599154866294 
7.800744510370659 13.294836425338902 34.45403865085046 3.961397705154688 8.554105894473857 0.7304465546222678 
13.16137959838468 12.388357554897102 21.89042345305792 3.9621424476054563 2.563501371374496 0.8043712190887881 
12.83636361875504 7.233161973624323 30.386480066897562 3.9623668737253053 21.833412936569342 0.7826180352578648 
12.391362562434168 6.839195116733077 31.225280096310357 3.963496236291354 21.244657379027753 0.6610459042663439 
7.516627653825193 6.910872750212718 22.788216587610513 3.963564730785168 15.99405383734199 0.900021372969397 
6.793735930630895 12.330266471243949 16.252901317068236 3.9636184364203184 9.961029207462165 0.7955744269812828 
13.073079393269062 12.503392520475659 12.730251178470432 3.9636840273801357 2.7095440127480863 0.8397928122386669 
7.004259324263128 7.403510276872826 17.955453974496685 3.964368938251011 15.285488200823554 0.8672484110962803 
12.7693254888503 7.162083776587636 35.25068117974017 3.9652152721262253 21.751407362416742 0.6883088386201331 
12.404949567719616 13.15326976936472 17.666974589949113 3.965714647029485 3.645390088393416 0.8428592428561489 
12.041147350755718 13.400326351396732 28.778412894340804 3.9659175235372865 4.08557357340581 0.8691961904013982 
7.697518789247702 13.229158486921381 14.574558547116347 3.965965741093051 8.68630841210243 0.682783415021059 
7.9167961341394815 13.377706931924298 20.446375293737347 3.968455929540562 8.426784874369371 0.7071403750694384 
8.059758017854943 6.5381242208607055 38.668219411751124 3.9685164557387744 16.67392327517241 0.725670068391322 
13.753449862275353 11.290146634074237 17.87051452215219 3.968987806233217 1.3140200617663425 0.8594270877730997 
13.730570180006943 11.354902921410854 37.98609119002536 3.968994305161534 1.382702501620944 0.8573739224813883 
12.287843951884796 13.243345992351063 7.791507821985441 3.9690708200126057 3.7962492312034115 0.9522317708963552 
13.108077424067247 12.469981866170084 7.725659483761504 3.9700070142514274 2.6658574758455487 0.8418901738968307 
13.668416905790114 11.518109640789124 7.80866857840644 3.9701309142323744 1.5577748165992205 0.8579384012537432 
7.238238489795762 12.853050861042599 15.394880006979138 3.9707966272451567 9.291414972214035 0.655663557061594 
9.46497514533533 13.934730891689988 25.456803271786413 3.97093928247819 6.774193828250894 0.7721350480109881 
13.4401969261854 11.983593426876046 13.818378160904757 3.971095286452004 2.0770044650108552 0.7785841228883253 
11.854883835246525 6.488558817697292 20.120622265132 3.971248319990868 20.644028286968652 0.6467501315261197 
8.275424870272435 13.577245878645519 30.481419888570045 3.9712526303876916 8.02200274205066 0.704515957667418 
11.826971332134889 13.526592838931206 8.751462310116992 3.971735300853219 4.340347120532524 0.7563020673951057 
7.713621886816243 13.247917315345521 31.32524325814581 3.971963212791248 8.675441955491525 0.7143680864564294 
8.853550911845286 13.80324978390528 26.371912406374797 3.9722857941626444 7.402644907905987 0.7116825292140604 
11.438926818567374 13.703377542286852 17.74651123124083 3.9730989932176377 4.7685303253179505 0.9039505519447765 
6.302299983203071 8.546502462250555 12.815876861190986 3.973114710962131 13.969950604722236 0.8006838040690417 
8.874053709967601 13.81024404848801 36.3300086992981 3.9731240550825997 7.3825580076862 0.7174270333363847 
12.929798691143837 7.315476638366839 10.218974005706883 3.973711873020283 22.02011300921233 0.862578788708144 
13.061998684780747 7.466519233804412 26.21863288332596 3.974211964437981 22.223643035677377 0.9479931987809966 
11.97693948762921 13.447793340802882 33.8308204055311 3.9743639313269132 4.173761046230457 0.9151774966208059 
7.605426658414636 6.827915870720897 39.53023280012705 3.9744306776512883 16.159104564918273 0.8699776924543663 
12.217580036385165 13.298401280625683 12.737730863820836 3.9745581170498916 3.8906564463214117 0.9622616266831415 
13.134242376718369 7.555454500953591 1.2747067479517966 3.9748305590207584 22.34169365447296 0.885885523536228 
7.5712777698397105 6.853397559165614 37.83652540830326 3.9748960479413413 16.118388243930436 0.8213458047625417 
13.170644710557525 12.397383074846363 17.850832259322345 3.9749759103856515 2.573421078732366 0.843296407624392 
6.748695674119379 7.712428377735424 22.905103580517583 3.975419945927755 14.926593379052786 0.8317718151946799 
10.788289419292166 6.102964355314246 1.9221363643386766 3.9759636598589907 19.52983471895424 0.5159715103181446 
13.348885430327812 7.85658942608076 25.25760707834003 3.9760838162506977 22.718730092696436 0.7975212008060327 
6.229896995621491 8.736222140353101 32.7964296936483 3.976281069310563 13.77793973479676 0.6985020846475497 
11.951009734885229 6.534287829256426 5.1923030434108455 3.977134626343075 20.7809952640658 0.7641536998661985 
12.848568696924675 7.223774672989 36.908177387079725 3.9776589455905453 21.91947811104616 0.828887921046821 
6.577253949919086 12.027247408936907 30.267042273947496 3.9780551253578538 10.370248319532998 0.7626816052021305 
6.703516674172546 12.227818946927291 21.215523209764903 3.978690686362365 10.134847319614984 0.8522817607825534 
7.273758536991929 12.898194626565779 0.35362556929909417 3.978935109810052 9.253536803152556 0.6552807071384799 
6.672538694857442 7.818180841881505 27.960069851324597 3.978986501102248 14.809648721938004 0.7869238218460773 
13.696851539627948 11.472983029056168 12.885858550904317 3.979496238211189 1.5088779095913267 0.8236763861502022 
13.828887751649216 11.087270256477678 8.840131511551448 3.9802685870868575 1.1012674151605601 0.7416678992845466 
6.617586810123875 12.098226158784126 0.3819584147372126 3.9803607877243925 10.294628604944158 0.8544915203791951 
8.621737207723925 6.265746281074943 27.906753590792697 3.980484789806169 17.35018790780127 0.9466955796158933 
8.325286313221927 13.611198795876717 21.530386409526884 3.980630939439532 7.981285854338317 0.7974781412748188 
12.660233469785098 12.96154256480613 18.65762019364056 3.980901465362255 3.3397522484854782 0.8613390325387827 
12.687166717567031 7.06282750976899 25.2693253285861 3.9809354686266647 21.709496909839135 0.7431536622496102 
8.14717243767274 6.476303155866649 3.6621161442081025 3.981131676430072 16.8334189743917 0.8307498400443389 
7.325130173560506 7.051168526171082 13.647048844988447 3.9812731191718584 15.8282196406027 0.7507923963737906 
11.78165840874005 13.56053663452952 13.6979607359237 3.9814228375369676 4.40678385394148 0.8562317050563125 
6.872288245615664 7.535639180474469 7.765604441673823 3.9819160045544053 15.166796009418714 0.8105323454863123 
13.648238458035024 8.404234920887923 26.211813624946373 3.981973133309583 23.377578589423972 0.8965443520128666 
12.756933750941865 12.873783649756959 8.661380951148928 3.9823756945688595 3.2103818414018583 0.8315630182950862 
12.774926708419972 12.856433661845166 32.674353164991814 3.982390174458638 3.18539806049327 0.8244356484013144 
11.784621424632238 6.439544891550707 0.14965769562819276 3.9826767642553 20.61841065328493 0.5973421095670202 
13.978876356341523 10.181739833213271 2.8337386864495 3.9830247835068753 0.1818029551486191 0.9889464822019438 
12.887880992160326 7.256874545732323 15.122736870831304 3.983038272817891 22.00026550157337 0.831637267981044 
11.998278797470626 6.554478221601478 30.317480873133796 3.983056424134508 20.863033986395873 0.7426971188558251 
12.430719741844836 13.15543337255312 22.837158036307024 3.9831091162578223 3.642200846664217 0.8059190897600947 
11.234860136026441 13.787100953982502 12.785607007452391 3.9833419626241526 5.001471912972413 0.9592455039361744 
13.959289784000138 10.43728576987034 33.161870625421926 3.983364713181427 0.43816887095274737 0.9771117643309106 
6.928516646652515 12.536542514088296 36.33890918945977 3.98347309714376 9.764668433832895 0.7570211209728476 
11.451585634841711 6.289610448286274 11.01605209159029 3.984230349859959 20.261027303261503 0.5747883197323926 
11.317682238696248 6.239660452220738 26.12693527105852 3.984525065395915 20.119596892303843 0.7669810009860198 
12.447676176834149 13.144113543071674 2.7791660385818204 3.9845412080148117 3.623169326881893 0.8265721759555938 
13.247406138610526 7.691082469378852 36.08581147841532 3.9845635635907466 22.573000744297843 0.888875475198026 
11.51088495782731 13.687039314882634 2.757353702906819 3.9845993857951436 4.709338767078712 0.8003823500950641 
8.21483082169485 6.43745196954306 13.471401285200137 3.9847932775092976 16.926872114353102 0.8269731286184256 
13.524911800350338 8.141507360659773 30.421551714656587 3.9848460560893524 23.104057320299752 0.8558702707108586 
12.331332430014186 6.768213852437498 26.2031463961939 3.984915633085939 21.268760146177733 0.6350822710745919 
11.875322637568086 13.516249957101243 3.727437177795551 3.9850782621913243 4.307237423237476 0.8432440326038879 
13.398694542675482 12.080812073325484 22.81523033426918 3.9850851281885067 2.189285906152193 0.7487293986818382 
11.991948629120593 6.547890689763886 10.177150467093824 3.9855887935001846 20.867517583874168 0.7338237689505911 
8.671465151844526 6.24217111584454 32.75863482723886 3.9857599984641006 17.427998096670407 0.9439839635376495 
8.683521771309252 13.763333791684538 6.12875334132783 3.9869532420447884 7.604348331019914 0.7116985357761043 
11.332596131784257 6.242101570397978 31.17467386241568 3.987181091655068 20.147890411244894 0.7055682194696473 
13.43565384962077 12.023755203813229 18.75441236368573 3.9873929451930303 2.1225909983291658 0.7588879551989511 
6.276495375217841 11.427024737317096 6.368936767667286 3.9875915402268864 11.068002009381477 0.6946039367747912 
6.484129511522635 11.881646597890226 10.400562137432459 3.987723562522598 10.568239550835834 0.7955460601309627 
11.845963856134205 6.465170667213743 25.272760291228337 3.987806536190046 20.711292708820196 0.6712375615576002 
13.53780664583558 8.159745083739654 5.314437196337433 3.987808172434926 23.14337846294969 0.7842684349453738 
12.941628395981521 12.692522625638048 28.651482405189807 3.9878384758685534 2.9558393081194296 0.8702578961627723 
13.8261283785959 11.12413014760168 22.848634206120213 3.9878474090972755 1.139576603882002 0.8056001919444632 
6.113621543301811 9.104782956448854 18.765049710165044 3.988151334108607 13.432057523891778 0.782372721997164 
7.141158335644082 7.219138919844783 8.71093181273935 3.9882532528638874 15.606691543075037 0.8473103099604574 
7.165943897603711 7.193742468136026 28.66468397817051 3.9883524576788503 15.642566838905413 0.8169908399557245 
6.546165250696134 11.994720232840745 5.435679810161048 3.9884687892477144 10.441225852377855 0.8981610699139154 
12.174407080535772 6.6561116347316585 21.104058668934954 3.9886884500122433 21.095970214426224 0.7273216792743358 
12.712828336484232 7.075166546662507 20.168791841857356 3.989246584631479 21.782083025514957 0.6800804937552571 
6.785039050356225 7.637964262746824 32.739841132386466 3.98938425471846 15.060844840296461 0.7737514712716261 
13.562953262331307 11.7947457950624 28.61638473492293 3.9894546517602483 1.8615694290029516 0.7940370726381482 
11.312371096148983 6.232567036646929 1.0592004018388366 3.9894697676967814 20.137206728405808 0.6824905309542725 
13.625727053506381 8.335119548902155 35.30226900207567 3.9897021922664626 23.35060669056221 0.840867685823253 
11.732859141725527 13.59373861650572 18.759255849570692 3.989706511615383 4.474452847271607 0.912941394403617 
6.3137887469595135 8.473309839416013 17.77515757093355 3.989854163809282 14.10113441327113 0.7544891733780641 
13.468454702194762 11.972308558404402 33.6000695650753 3.990009908600755 2.0630060799701546 0.8210049916422726 
13.228058957772966 12.345198509305513 2.825856347596691 3.990027654403799 2.5069083136403982 0.7616688689863896 
8.266718264309077 13.594060972395566 35.42861416006198 3.9901804280729856 8.060777818099648 0.6513755682932135 
7.679041976478718 6.754183872187207 7.75988531835079 3.9902591999164008 16.326648339057396 0.818108176862427 
6.55404445380864 12.011863118432661 25.290104900116518 3.9902635042859744 10.427138553588161 0.8716461202404455 
12.619571159748684 6.9899075435532545 21.96037043114591 3.9903395416110508 21.661676294403794 0.7517958864469947 
8.248181221528839 13.585332084824193 0.294702867993486 3.990422933859767 8.081756325056766 0.6817346728947397 
7.347837324716128 12.981945530155901 25.402175472120092 3.990735020141739 9.16962326551888 0.6656433840271673 
7.103155431262472 7.25491300583224 38.74839888133002 3.990891010911363 15.564870606667437 0.7853774085965977 
13.265599224756048 7.705705268187556 11.07743415466247 3.990980658077615 22.63181422522838 0.8762076253592991 
13.527508486290262 8.133085372099 15.3283195738558 3.9910758385077756 23.133938623901706 0.7478254584468407 
13.07843583326288 12.540343595396774 23.69110501635288 3.9912545348787676 2.753656632782935 0.7818671511456216 
6.3801965635549 8.318555130217744 38.875409230232776 3.9912696937963004 14.274575026488215 0.7307759521058497 
13.351121040290469 7.831931751389659 6.263705963681353 3.9913070737929672 22.786150419503493 0.896086410939915 
8.139899540581428 6.468567229408736 23.70366231424954 3.991364570210929 16.873849800020658 0.7655711328038965 
6.563669154811212 7.969475747433494 13.758616488946188 3.9914155907217514 14.669623062344673 0.8133811496742921 
8.694256314647731 6.228142189959462 17.53147832760783 3.991475655819677 17.479154317619543 0.9491629416669807 
13.894772571668225 10.874834479051646 13.698221793088216 3.9918152200166666 0.8819933353669853 0.8325854256001333 
7.99636193259874 6.547373926738988 33.84501171451322 3.9918908185095945 16.712304722076585 0.7062831496106984 
6.507590065856544 8.066338214268635 33.763026625438954 3.9919888589150267 14.559794772569298 0.7400619020852928 
9.013180496005766 13.868218789167722 15.142241577643532 3.9921083820875434 7.267945309968727 0.7935424982952466 
12.621185124777423 13.011106613426605 13.623570886289869 3.99216413687813 3.411374170521867 0.8499847442011728 
6.400849132696493 8.272642747436871 28.809026516695283 3.992198647812258 14.328238577793233 0.7560808970739126 
12.834347667157385 12.811461549350986 33.6754412970052 3.992222782085135 3.1193014675077855 0.7814963016057697 
11.383932304556321 6.255109478181886 6.160488499037577 3.9924270367782224 20.227132172350096 0.6204705432069326 
13.466777684464727 8.019650515203287 20.288169319512043 3.9925344826860587 23.013703778046242 0.9145201314468947 
13.408375016307767 12.079862129532307 8.639871189930005 3.992849449910886 2.1876865667964225 0.7406200433234006 
8.068085277749478 13.494389334952167 15.489824582338738 3.992875069204614 8.28854629404918 0.7033279874794567 
6.529453390976817 11.974493229686855 35.257215766061705 3.9929083735394597 10.478721854844022 0.823213060381349 
11.476481069162888 13.710294053700798 37.89591122049245 3.993279142825341 4.760250394532925 0.8255950627904627 
13.416027389978744 12.068543008846634 24.58382894016954 3.993508896764006 2.1743995310387696 0.6981289488360191 
9.066302225673724 13.883042836386515 10.148949595031787 3.9937217232794873 7.215743207862474 0.7138896334743399 
6.363368050318996 8.348674096858831 3.793775098599781 3.9939916344210924 14.249904153188847 0.7296379433234224 
10.797134957732165 6.086193421308396 10.280542861772993 3.9941589948634193 19.62455462904942 0.5251644735733774 
13.499105888778377 11.92604072082134 3.7177098972251983 3.9941676077933335 2.009782850014375 0.7637020489622073 
13.93868085274186 10.665175133452768 38.732483297274655 3.9944542578328845 0.6682884107528118 0.8598334287566486 
13.27610110806769 7.713780816118206 31.303957634100463 3.9949513923240025 22.666976240459853 0.8265823097862159 
12.08383772313477 13.408535649477678 38.727799636167006 3.9950588143505117 4.0832166587555605 0.8271593545490916 
7.0837113131791245 7.269343888979545 23.74394500665386 3.995149872224166 15.557631180410581 0.7733391153087202 
6.303501090049853 11.516153321988297 1.3145628282536066 3.995350433571352 10.996639020270209 0.6476155843014908 
12.398419063641072 6.8044469686494615 36.109012964640726 3.995494109745443 21.400830735885982 0.6993747191130633 
12.313284248088122 6.742095700812921 1.0157488805367905 3.995650689826913 21.296138962902738 0.6581664671022386 
9.509545543321925 13.96548017726024 21.45461515456803 3.995695009672194 6.768117499456601 0.752000776664437 
11.36035751365617 6.242615069788952 36.16194116123689 3.9960623216784144 20.219105523766395 0.5679684944338234 
6.151910676308447 8.922454564257679 2.857627808921322 3.9961100596953054 13.645200277750163 0.5517147021816661 
13.788235695721053 8.72790659038251 16.152612171344646 3.9961170314603423 23.813722480194592 0.9447382284950929 
11.80010923437063 13.567822317909672 23.538646187773665 3.9962168794799853 4.409918363311689 0.7892047656835102 
7.183553540330301 7.164926897373965 3.6249935606387638 3.996249511406862 15.706406183075053 0.902666273261818 
13.851260628147255 11.067294750562377 33.94815697948227 3.9964142065725885 1.0804071738290126 0.7379436983649151 
7.15743402214612 7.190759878538676 33.665909475833395 3.996499893466834 15.67065330613972 0.8595083462301187 
12.400781211439114 6.8043457038626425 6.169574232695261 3.9969934708002977 21.410690108589595 0.6971055301793786 
7.1510974441881 12.803542180351666 35.35687991387863 3.9970106992004095 9.4498095600323 0.6731320223727904 
13.147837370246545 7.536814585902611 16.104166422573044 3.9970192010725696 22.46007439910569 0.8596940331164103 
6.3251712888385825 11.573333985854815 31.133087262710593 3.997467434191563 10.941336428849436 0.6400996065996664 
6.791146309257325 7.615911049477816 2.807872051326761 3.997577032728055 15.113162775955605 0.7101079391839304 
6.455912235889354 8.150268553224016 23.900778711570368 3.997757434476332 14.4823654322987 0.8096740972321242 
7.814611152516889 6.652419932324724 17.792583798224015 3.9977764725157363 16.526925304958827 0.8066456767597738 
6.45715223272242 8.14708598960598 8.776270852468933 3.998132142891001 14.487117999718727 0.801731611523361 
7.555659813292362 13.164491250241975 16.359897798417826 3.998600232732944 8.91086954859296 0.7001722794790977 
12.707165252802497 12.943821356878411 27.685689519926328 3.999353433643325 3.3084748450138832 0.7993048399199914 
8.674803651475152 13.773435487181176 1.2050561772459112 3.9993700426519467 7.632924591563437 0.5780614418869199 
7.9105186548665785 13.410176054755981 10.282414339972078 3.999404082621765 8.48080010066409 0.5940774177905367 
13.788028440147329 11.284409102530715 2.7715068944418064 3.9998582732427868 1.3075744004257324 0.7705030858321198 
6.154981521610857 11.102581494832132 25.070392916999467 3.999981631445352 11.449268684852726 0.0 
