428

11.160288141844386 10.984633513640967 18.516054907827723 2.93353285975466 2.1797476007710657 0.7834299768845738 
6.066709329774151 8.951147426110948 19.268751181623486 2.9336974503192383 9.265337189722786 0.8586445697394913 
11.927633174789424 8.80981539689707 20.832655758079973 2.933804047543908 18.24331642747478 0.6894883750953729 
10.779067662233976 11.332932983066241 7.150204746822034 2.9338810559197928 2.6970792822813436 0.7910081935730602 
6.432774891165961 10.421784191137943 4.110192115142922 2.934640530899436 7.735185040884705 0.7757927112912164 
11.524828573452758 7.502739289897953 16.344059944775083 2.9353958777886806 16.87241426097304 0.7871666868329121 
6.2647829418964065 10.065458045364647 24.2294532938258 2.935406820420827 8.131493003976123 0.7909555510710141 
9.745964820142376 6.160890130477275 11.469098360054502 2.9354741293548123 14.587332193056252 0.7976151928268672 
11.086968465756453 6.9340399197615294 25.3374296015023 2.9366015102837437 16.159665264868046 0.7970690871582423 
6.6405853586850085 7.250557452019743 11.82830032023162 2.937241338115612 11.101639040567342 0.7797300947981765 
10.577285386314603 6.5221535663393535 20.272698108397528 2.9372695039247585 15.50659280227687 0.7649915662565785 
8.09771899732251 6.204353628534012 35.22508588919784 2.9376435525917053 12.92621318081569 0.8433156531760965 
6.696169050947798 10.823658763476635 0.07947596506880927 2.938259404378022 7.2634038441132915 0.7781743292658082 
7.029466999501757 6.819989460982034 0.2984565923765743 2.938612981711274 11.688091977330778 0.8579876974426276 
8.798904536373708 11.931850790182752 10.757082989373593 2.938739260531003 4.817413571028872 0.8225436174933828 
9.336087929651832 6.080376308284384 7.792680848668347 2.938904149114899 14.186084350221872 0.7734060646840337 
6.186950058916469 8.148767299970796 1.8584264438318918 2.93902144950136 10.096815074078537 0.7634543099653021 
6.20947954586568 8.076017126219663 11.345701745465853 2.939515054559405 10.174676565879953 0.8053936059734904 
9.859797415749922 6.189027488423395 4.498291795181032 2.9395268423624774 14.724748603652584 0.8046366792946391 
9.06869416217864 11.938761683478713 31.470623942716095 2.939564443961059 4.548756614899824 0.7849762293360004 
11.009423720976883 11.145600001202975 4.611383573496269 2.939622944458492 2.405082860835961 0.7879172559970662 
10.781388053639768 11.338601682272223 38.88250558797935 2.939796119797588 2.704109246302922 0.7983755507236859 
6.0968616013724315 8.53468820930434 29.756781364822622 2.9401917665598347 9.704161227842896 0.8085521007214298 
6.561155280162543 10.644059181398362 10.91035499227803 2.9412402417040484 7.4956094683705246 0.8255735714568859 
11.822025349568854 9.829596114368865 14.126645219812914 2.9414378773968917 0.8410079188143769 0.7582737948812477 
9.604606544676432 6.121220304611173 10.38878278555729 2.941584880374618 14.470838751915991 0.8234771775082761 
11.93885713381384 9.126788019079006 39.5697936927425 2.9415908034175073 0.12682730909445894 0.7712959139858898 
9.739024878351525 6.152571030965731 11.475963023480098 2.941769791217192 14.609791208663964 0.816884904441564 
6.399861009518062 7.623404593658876 6.990890304176645 2.9420635075715005 10.675298844351698 0.8374286080180691 
8.261108191902085 11.84796287828106 30.825814377603493 2.9422531604437365 5.368567934264508 0.8184497277786753 
6.38442438496582 7.652498520126237 30.29135466509856 2.942277355421041 10.64313863679208 0.8221785994402468 
9.397838572038893 11.91723100031934 4.414976964367014 2.9442337269018104 4.225732227209718 0.8206661212666203 
8.490831159876986 11.899892279582529 36.57483676088606 2.944253409768692 5.1365640127336505 0.8456313564801995 
7.1375058429956155 6.718853391041375 9.795628478951045 2.9449132986284856 11.861180311615904 0.8720265717961417 
9.652062177462781 6.127861527653273 18.66329494739204 2.9452274084714904 14.536567350594495 0.8022150568527961 
11.197995440032013 10.960438433937409 25.423126223428575 2.9452508904438863 2.145125269261957 0.7897433917805701 
11.751568634410997 10.050539991019928 16.879119336774053 2.9452952691719307 1.0741966581441567 0.7778097829547141 
11.19158265233158 10.967782480906529 25.417953144842876 2.945369656624341 2.1549610622290736 0.7791376017338258 
6.318188182200302 10.21783094696885 38.25733193186879 2.9453738033541965 7.9976564176005205 0.816873669667547 
11.540643255502932 7.509381678713597 31.542578999297604 2.9456427365665427 16.945092358833577 0.7829925538631045 
6.054309939916212 8.99228307474844 10.907992123033793 2.945700168213285 9.261906942215486 0.8667219479477486 
11.475933823884596 7.403957157413579 30.48082771926716 2.9457768170089103 16.822152037016643 0.7627852480349564 
11.477740630430496 7.406188172092641 30.473519246494234 2.9460880459455905 16.82678345616847 0.7660881517233011 
10.313821052685068 6.3629926037117315 0.19909520467869157 2.9461727319621844 15.24530957245097 0.8403198176907858 
6.164200025161865 8.197826719245535 10.177965045608431 2.9470737129648357 10.070929378726667 0.7952592198776456 
7.490414391438552 6.4684194316362476 22.074299209900868 2.947498750414114 12.304903316176755 0.8572799610055691 
6.116114925897257 9.609243322898465 4.620723382511933 2.94753635213019 8.64629150830616 0.8601003546208796 
10.527909135153848 11.520657447166364 32.98753001541132 2.9475787167167975 3.023813041820098 0.8329345823645473 
9.582042815041785 11.889650221750841 11.519294650487247 2.9476859131539874 4.044321189116786 0.8293201097991395 
9.791720518059623 6.160241324535482 19.770706180607352 2.9480588042969225 14.693959985399907 0.8295478386783938 
11.63633111732585 7.680485970810466 32.77423184560489 2.948111095838921 17.155437551914844 0.8160385160923239 
7.336480926009802 6.565920740255187 20.685966545197058 2.9482261704708264 12.125675810997421 0.8810318899271494 
8.361904294561214 6.121643165215673 22.512408099230317 2.9482374730759155 13.250056294448548 0.8474191418768748 
7.196678229270308 11.332423335761796 25.591692070071797 2.948248297887045 6.571503606997371 0.8519607053005986 
8.017808688081503 6.2199216535452635 11.948853654938663 2.948480182337111 12.893057060093206 0.8486317976907113 
6.991184651608389 6.841441281844389 8.552988399211358 2.9486801867376724 11.685347336716724 0.884207764991321 
11.619603148280692 10.353753381592046 19.20784436559361 2.9487232614563914 1.4064813460680838 0.7925499175757521 
11.004109027118968 11.163030389918937 27.986189597848096 2.9487545608769463 2.4283480078038693 0.787937131503012 
10.522332166130326 6.474325505302755 19.149353283919943 2.9489874325265 15.496406454866289 0.8106092746424113 
11.947921159194312 8.90200208800681 13.61760744676777 2.9495495845265225 18.43455066166794 0.674156714898753 
9.568434314418454 11.894658886971698 19.78158870642688 2.949943667552412 4.0617485256884525 0.8177235926894718 
6.424341620767965 7.561753428262858 16.567341283058386 2.9500117436413444 10.770085190531951 0.8327724261436656 
7.266568542274467 11.387179865163247 9.071678035209928 2.950154627688741 6.486955262273355 0.8384413679292354 
7.0121974305311845 6.819781407015576 0.2682453548692365 2.950374919968953 11.72220216372413 0.863271098485014 
10.18162685243703 6.296530538943152 15.479426799104601 2.9504218588648095 15.119274867680666 0.8840501791064843 
9.262439289298396 11.939170017987788 22.045860478879185 2.9508633948737404 4.3724188860553515 0.8265590415466003 
11.24750190914563 10.912332953476739 8.890417251903514 2.9509798638022455 2.080438403091499 0.8322171488804772 
9.668530230387738 11.87435186526703 1.8424855493899983 2.9510729090122987 3.961149918734776 0.7986233838048978 
11.516356440119296 7.457558133247023 8.092522483750336 2.951470251593649 16.921623740444467 0.7507433676576424 
11.210860768073772 7.044057838707403 11.267567508320578 2.9518833097075006 16.40919299767352 0.8218148012025148 
11.949827906144478 8.883026761305452 37.10213756724181 2.9521462386608506 18.431878003228924 0.6917320597204115 
6.34311251886221 7.71294427531663 22.31561708433436 2.952213326619019 10.606418811935107 0.81976248557081 
7.807927319179591 6.298918249671029 9.126254441201667 2.952436264903709 12.685930867413433 0.8305571234727915 
6.116682023457571 9.635454729871974 12.872037270729003 2.95251168796491 8.635123216737036 0.8629139548528054 
8.170459770115297 6.166346834843111 28.309962936119625 2.952579762411311 13.07284385762475 0.8595068613198712 
6.254339662210203 10.085867213718736 17.155367706341302 2.9525850193248058 8.163852258700807 0.8364213679596374 
6.834418697043464 11.00719530395573 6.137943418887012 2.952723381547424 7.069213247978588 0.8518641972401101 
11.804558055104092 9.923841326678161 7.259999987617739 2.9528001424626944 0.9396187693075433 0.802043029736747 
9.493201106580926 6.0886428169146 24.471244011173354 2.952837276084748 14.410441422936849 0.8456329140490431 
6.685901639489021 7.165804314376167 35.24289958122496 2.9528503238871893 11.25572226503968 0.8263411607810855 
11.433213931522886 10.673004242150824 14.936461630263665 2.952875417421415 1.7786193090635685 0.8489328035085204 
11.854561751856096 8.243711465860871 39.072993634588926 2.95304844898117 17.789740680407277 0.6901184418157132 
6.055385282993967 8.77035331367912 20.409353190733427 2.9535560655160555 9.50874874241486 0.8760560837543989 
6.698726307538912 10.851518053506211 16.655871746225486 2.953638385123158 7.277989475214611 0.84697566077368 
9.104910642616119 6.0481372451244475 28.705264801190403 2.9537264542532746 14.02404070727777 0.8096064979789991 
6.12723918102995 8.312981705316975 17.258347294145672 2.953768586101262 9.972906246810265 0.8082265253335392 
6.0595786179173565 8.714948316187346 13.266959864689547 2.9542058774996054 9.566407350783901 0.9005512681156285 
10.072271596568264 6.247126062784702 22.384516443584495 2.954332630393255 15.019294039989248 0.8833658023252488 
11.790638796457472 8.029626321138572 21.537278985799453 2.9545371835400327 17.57517975868672 0.8064739081648976 
11.85485736183151 8.238027364330904 23.783524414558528 2.9547948920207774 17.794842766503105 0.6987880938531758 
10.688366074699374 6.574584828711249 36.72339501548647 2.9552019821517153 15.723158938967075 0.8988281974113215 
6.0543012626604025 9.240348139233376 31.554423791267105 2.955487824234274 9.044324986886753 0.8556007994663095 
7.767141955383607 6.3137162349301885 0.7659040234586669 2.955682564933689 12.656589977507455 0.8441372373509286 
11.95468355437323 8.91446973713549 28.82470167434824 2.9559212324331807 18.48705865444004 0.798030969663982 
10.87459418585355 11.285471027742975 22.33792778802549 2.955923067383262 2.612580186483271 0.8173044792594598 
11.280290652534571 10.881164193737888 0.906853316720543 2.9560961053115413 2.0390569140238846 0.8466103987227922 
11.3482019361515 10.796160394514057 16.103027564259676 2.9563904504930605 1.9304481057763994 0.8668928434770761 
7.409977837968398 6.507506225731866 13.786173611353412 2.956466757891428 12.253223636855267 0.8496044783443856 
6.4397608237792845 10.478510148879042 12.38075981905505 2.956487256829238 7.739757778166247 0.87749010035538 
9.733167571468346 11.864356554682642 10.15713342198363 2.9566997074789714 3.90347609813044 0.7951290325588243 
10.934123701350089 11.236447953499912 14.196415301511266 2.956777627897997 2.5362099321389593 0.8333589364443096 
7.683194639317696 11.647637784193215 13.594642441846233 2.957019139980195 6.009616559457356 0.8412396796375354 
10.925043724770319 6.755247002734919 7.6719312140460545 2.957145475117541 16.031466996231906 0.8752006525496768 
11.215521855017798 7.041299099482304 2.9627900754595444 2.9572024461896977 16.439783761552842 0.8383769030253728 
10.950703507537657 6.7772768041944005 29.89470250324807 2.957320168580328 16.06623396275241 0.8837929287283302 
11.873552011913986 8.300009875453522 0.28753518952087376 2.957581332717247 17.87633592565986 0.8102707353696884 
6.217168535504406 7.998111060411464 34.85475103923527 2.957690383907099 10.313970296870444 0.8466102639585014 
6.129015242765336 9.71118711959598 35.13443919072903 2.9577593876705053 8.573850459947739 0.8672624835829685 
6.152579139354259 9.8003563155508 11.687037436086605 2.9577653371223653 8.481633714680733 0.8828605105640005 
6.4960899321037235 7.425456873267123 9.481343415267233 2.9578288804550668 10.952674898418724 0.8527990521659089 
11.607243351147376 7.602992414616169 9.248971753904286 2.9579296958721235 17.13024537197041 0.8492364839313773 
11.15827015361566 6.97732234725572 33.52154233654103 2.957930854989563 16.357969400928205 0.8590241906585283 
11.716078085797164 10.171672062166119 25.00519565425885 2.9580222428859777 1.204699894692986 0.8087187535339424 
9.074572168765343 11.957439191431616 39.72729728093048 2.9583792149368007 4.572431135896718 0.7993933311397501 
6.652042225197709 10.800361016482384 24.90768794285654 2.9587506657243035 7.359715277005794 0.8785789202444517 
11.845799592240308 9.810289955947745 29.329846481967074 2.9589094497643718 0.8207754139531005 0.7863297021207802 
6.326878930483563 10.269549708926572 14.724030344543067 2.9592790871643455 7.984727170261934 0.8503991799168851 
11.776710299565998 7.976162298516968 28.43365493413661 2.959453281721803 17.549347385865577 0.8330128422695603 
6.593587232066422 7.276868178714423 33.89002812550179 2.9597306774773786 11.137510612821067 0.7991778357860184 
11.687923846986244 7.760856349410876 2.366824671859355 2.959799248934404 17.318431305958452 0.8504339639432916 
9.29219430309547 11.945344302137801 13.731571361469882 2.9598024543704042 4.356575814849148 0.8178304678454568 
8.995877955567973 6.039976326198396 20.49204716423285 2.9600265439208915 13.944674421454671 0.8442504866197129 
8.914144427044121 11.959016421603348 24.635544395499906 2.960261705107478 4.735835826576412 0.8393409130797654 
7.504483759967197 6.44523336461306 37.318980651674785 2.9603042724504123 12.38232169492926 0.8873460323851566 
6.192960431429206 8.059722785708356 2.9954677009431734 2.960336531416348 10.25702285785868 0.8765642098803741 
8.628656968458053 11.937051009122737 35.4472812480031 2.9604331232547114 5.022561254496214 0.8351232281915022 
6.40741343521497 7.570497485041493 8.163472073464948 2.9605713192180563 10.792749064930131 0.8546265298234076 
7.650094068157914 6.364861921240829 7.941485817753403 2.960776708728476 12.550651037883839 0.8682151425774377 
7.6460782428688745 11.633153282370987 28.72328504351995 2.960844530348414 6.057075395317614 0.8407149336057589 
6.857507324551383 11.043775421425686 29.592368610291956 2.960961471815315 7.046411212648536 0.8531061438587482 
6.227943691907601 10.04165984767079 8.891716418190853 2.961309070915158 8.238793424490616 0.8885250945224425 
11.661196720572548 10.299205314157106 10.935228716037656 2.9614021060842353 1.3449677909763391 0.8541252028432668 
11.961177146971407 9.037079475429477 14.853664525212167 2.961409290058345 0.03708044433908597 0.839805665858968 
6.118643506274935 8.315946500737285 17.25786269945862 2.9614429648036724 9.993934745497615 0.8252044977794506 
10.35884069443158 6.368458831256021 24.908841114366183 2.961664558257352 15.368208282941044 0.8550566966955914 
6.8968545789909665 11.085311571486507 21.27339269934552 2.9617131886944756 6.990982770766738 0.8555217417807798 
7.052556953672667 11.23155563364816 26.928379343741746 2.9618195361560264 6.777570566422408 0.8629381075397103 
6.139483259104171 9.768197594763897 26.81619781245434 2.961871632860939 8.527912297264312 0.884811509950735 
7.169421886387134 6.671456259158603 11.167827389614004 2.961947363315236 11.984489654979825 0.9232836251423583 
11.937237879757353 9.382038665622977 10.557602828268081 2.9619790519705633 0.3831059451599792 0.8122812158548757 
6.554130402480787 7.329024358946185 25.893268508526745 2.96216773344522 11.081298879086901 0.8488650846675868 
9.0983137706106 6.039420040047288 5.238559627738233 2.962211892617618 14.057426509165872 0.8454875275445384 
6.292473574976732 7.797732972900086 28.8390838512151 2.962455965352218 10.544815922164172 0.8234844159768833 
6.2333368878823485 10.059569209385433 24.225718894923617 2.96261905843971 8.223775983684046 0.8878971911766903 
11.341429066584126 7.184831468190332 12.774068373034012 2.9626216215907624 16.660970952774644 0.8917984524728174 
11.229750844048716 7.04923905763393 34.67409818623135 2.962643596654332 16.48540560448197 0.898884162866299 
11.531284857080465 10.539441203953924 5.2401626176627545 2.962647844094194 1.618797400315131 0.9106273674675497 
6.128925305053251 9.731216149765395 19.96183030919513 2.962726271804617 8.568828358646407 0.8780489312582671 
6.092901585374811 8.427938601736923 15.980768163483205 2.962849209072072 9.883742019522217 0.8515111224300104 
6.037051380430896 9.001512856812113 2.672799236372846 2.9629490057951005 9.306865972689224 0.8517754444932891 
6.2810813340099525 10.177994469179003 15.969732033376602 2.963138485067047 8.097510403587446 0.8315634802794962 
11.882207170968035 9.688253796861131 36.38426592820632 2.9632434029747436 0.6945971649652947 0.7951872095033002 
8.25677132207073 11.868594357490668 39.14451481724005 2.963312750204371 5.40601088888053 0.8570233135613022 
7.615579097474708 11.620927780655549 37.009995263393165 2.9640991324112225 6.096448159746068 0.8464212373217123 
7.5363255950614025 6.422351355335692 6.775866204847539 2.964222545459787 12.437751649907284 0.9147281009826632 
10.10847606982926 11.74922832974818 29.931257900521913 2.964283320884509 3.5202002101646137 0.8802633486885186 
11.919411939174914 8.486137129606426 10.003228741602612 2.96429099788907 18.108717689499073 0.8458160724810184 
11.48756394136094 7.387434098805752 38.6564800475347 2.9645139817605157 16.921566077546288 0.7974204509119275 
6.906859672372407 11.099349392962326 13.048750787358827 2.964541162620657 6.980645079507209 0.8932629813718154 
6.691199557669643 10.85958744967685 32.0563045325931 2.9645615131922147 7.303335988663729 0.8144354709284821 
11.96354626746527 8.918943170634565 13.63462757159698 2.9646545648682405 18.54640707128782 0.8676248560619461 
11.767784065121784 7.9370012658501885 4.960460874194148 2.9648937485087306 17.541776811035675 0.8298186362626794 
6.1581570080660075 8.154107103130267 10.17444286087104 2.9650643135991235 10.172833276625397 0.8637725135163306 
8.297024644933064 6.11944193865952 14.191047293540741 2.965095124036514 13.262948317656061 0.8841470009560893 
10.475679263404434 11.572169974726172 2.5009112514112672 2.965415260519965 3.113484866621466 0.8391230297264632 
11.027013864742173 6.8351201140916515 17.057774934707453 2.9657191586978566 16.20738910016392 0.8832403364174004 
8.714742280646046 6.047583889837227 33.17704905453482 2.966164670749029 13.692022434723523 0.8445850594200723 
10.676740849695548 11.446994074210526 31.648930345690758 2.966351273241113 2.877525766062508 0.8919784675585843 
9.750679665280279 11.869802111069587 10.134900223348382 2.966358730255795 3.9006131682217955 0.8379767816337153 
11.44367336930629 7.31804282458967 29.16815459575883 2.966566951169489 16.851172314312223 0.8044303557897676 
6.773310964312179 10.960321831622968 15.518325382752181 2.9666489083122007 7.178478634340429 0.8321711841123628 
11.931856483577043 8.546535781921094 18.372064109800263 2.966717417849342 18.18518651123872 0.844797954415325 
11.867025244394458 9.762829315180895 12.88223480127629 2.966773047621686 0.7714951654820439 0.8075752613540124 
7.38645262181786 6.510350456106934 5.607628925314472 2.966797935998571 12.274678586645738 0.8613526079622337 
6.062490681202021 8.581649577942557 14.550596252492596 2.967149823258106 9.741325143962293 0.8435830035864186 
7.257333728197612 11.401539368873749 1.0326908122179148 2.9672002081302438 6.523471268402652 0.893575050498433 
7.609900739593975 6.378464869656693 38.480365172075594 2.967292097756046 12.53629350721154 0.8604174253235667 
11.835260838297243 8.124541263357036 5.993565787292226 2.967344270681526 17.75568983478517 0.7675186471113884 
10.917192893946794 6.734980718169858 31.17129004314357 2.9674805710673846 16.06834367253282 0.8730153231794299 
10.920218825397345 6.737457848245507 7.659629161106665 2.9675473586576873 16.072615342815766 0.8877901689655523 
9.56712396136973 11.912982703154418 19.772433313494894 2.9676754904194844 4.090979972906194 0.8296386037782645 
8.78560239623615 11.959968966424205 26.047413941754854 2.9677234734210076 4.876273666742399 0.8190958511008334 
7.138848002365842 11.311639935460947 10.389817122707285 2.9677543613842987 6.673448563909215 0.8955286642184344 
11.169312841667038 11.025304813909843 26.580678600639892 2.9677900522557064 2.2290478127326914 0.841302876600497 
8.740246691219955 11.956479865264296 18.93728690957026 2.967868759755958 4.922003424825508 0.8888403059911956 
11.934455791401867 9.444308192015557 2.21325210903408 2.9679017101622653 0.4459847531956136 0.8350086656910941 
11.967128210668342 9.078181451874139 38.21401182892589 2.9681580412708906 0.07819049506144182 0.7847680526537052 
11.103068264368988 11.094677932490598 19.687010957868118 2.96826073070731 2.3253336618643026 0.8471487713261084 
6.4124001119899585 10.454275485070863 13.72842784266124 2.968263864097611 7.805257821745869 0.8748281135107888 
10.456271477333612 6.413355993583455 26.015234750804055 2.968409309988442 15.510400263996026 0.8318011863470036 
6.441097840338653 10.504562831655635 35.811841941645184 2.968449018783907 7.747842557649047 0.9026253112981296 
6.097253614409357 9.621448364674157 36.30753261488036 2.968523984915014 8.699813614076778 0.8940328554393324 
6.756045867744973 10.943444729735123 15.523884628599006 2.9685531097151787 7.207162600063597 0.8149759254346771 
11.139912225675335 11.057484357694365 11.43404536268855 2.9685798314601155 2.2732280976707955 0.8211125031407197 
11.586830121694259 7.543659669556703 24.63728613041836 2.96860526789609 17.130126887381792 0.8597088439356726 
11.95176579094483 9.316477257773366 17.7019746322106 2.968683064808357 0.3170797882699805 0.8874607438850303 
6.239177873151345 7.9086020501161425 27.673045238600373 2.9687182926488345 10.444113748202106 0.8607351929071161 
11.156813244962251 6.959923202955576 9.953852806024585 2.9687971826117807 16.404370756298746 0.8529589977221924 
6.884071706464663 6.917448061856909 31.028711747914315 2.9688676491967296 11.635115099445503 0.8617921507434616 
11.958750436161484 8.751522830503792 12.557739454794046 2.9691657156929825 18.4070502844649 0.8273326831181607 
9.297677707669546 6.04560556503823 38.09090128025834 2.969353211555755 14.290925942674136 0.8532691555492976 
8.41773594181356 11.91174517342754 21.396897518144186 2.9693924274898933 5.250372272239183 0.8448085990074724 
11.442501010321024 7.311298738555706 15.279659102869104 2.9694314499282086 16.861223645741866 0.8023789844696144 
11.96737999568813 9.119910499149164 39.55878316737529 2.969801772276443 0.11994310415318665 0.8426192397944552 
6.030944234354324 9.077871655392165 33.06165357529019 2.9700767892812685 9.25289084186828 0.8676338148473756 
6.0716446665128885 8.503312480426711 37.83605521444654 2.9701790268033132 9.830124660114754 0.8537892971898021 
11.661135751586581 7.680336527739936 32.745706313837516 2.9703796337151487 17.29598946885492 0.8895952938235687 
7.660072218068816 11.651176872967774 4.001533421548594 2.9705462919386076 6.056235429951762 0.8439809713107278 
11.151498149331545 6.951716531490067 1.8344032194139785 2.970590758409534 16.404666826219948 0.8502684286388954 
11.768379898738608 7.922614731804895 4.981767112393385 2.970637352465598 17.562542290458797 0.828348426931674 
8.09006620477287 11.827869184432117 32.289929552330804 2.9706604713358296 5.59110188588388 0.8885757401743443 
10.315163278567777 11.663762336877166 3.950503941832359 2.970737995289795 3.3040017608038426 0.8849567423633476 
11.966920870993775 9.15095004519818 16.23858554370907 2.9707583831210123 0.15101507596731878 0.8805250625141916 
11.856862651150756 9.814767062346547 14.098443581151614 2.970775921106295 0.8253434381932614 0.8631526052328627 
6.202332657320561 9.99960613856835 32.29815835015192 2.970884547160754 8.313810902379188 0.8957445763936202 
7.177366256928437 6.653816663801372 2.7894987622650405 2.9709543935306684 12.03808088887045 0.9156991921696067 
6.367799449972958 10.377717815109213 28.941235029830075 2.970957103970364 7.900944289619108 0.8495412214039659 
10.530951193340405 11.546233312444727 9.367567771647714 2.9710462193970755 3.0585435882856107 0.8579995196185228 
9.529460783931633 6.076398285477346 17.369505609150536 2.9711573009319636 14.533552722804254 0.839834459184832 
9.029113415598063 11.971157919194017 8.025197317081165 2.9713005522425875 4.638194111809952 0.8550192329892992 
7.371008904515321 11.485386451609546 8.00944288486432 2.971659099394252 6.391972416223851 0.8568698779313145 
11.7739232263564 10.066220445408778 8.70741945285343 2.9717799555026274 1.090531601616604 0.852548288003339 
8.794953886623508 6.03529464759934 11.128461026995815 2.971787632917924 13.799010137890036 0.8532731033352728 
8.899790051604429 6.029856133063429 19.333885089913394 2.971833882312128 13.90420829010609 0.899889902319065 
7.868056854903793 11.747970581418276 11.100450518229017 2.9719753700309472 5.829636279070304 0.8766671657022971 
11.265695603289034 10.923495442994717 32.60943402791747 2.972071884390535 2.09201962860784 0.8755574300812285 
9.811369446903747 11.859202393218258 32.17537871726833 2.9720966849606145 3.8467572172908504 0.8158951674579114 
6.54112497336345 10.66979374474101 26.027275151633297 2.972251258994284 7.56449701449116 0.876871320318118 
6.1329349994104945 8.215937216507779 25.464545283959403 2.9723418656108325 10.131340183521203 0.820766614694694 
10.395288570699279 6.3750828590101385 9.674061646537204 2.9727125983832376 15.460962254554062 0.8325591058532119 
6.376696589698291 7.601202091752047 38.64034410066 2.9729373304224636 10.79610822833056 0.8824208165041716 
8.844837502686309 6.031015086625146 34.56907271681098 2.973036632202858 13.854872041839897 0.8776189958833148 
11.707160970819247 10.229032133771707 18.13993635522322 2.973086024280232 1.2670387112294765 0.8647392045770329 
7.823423851256907 11.730390218395957 34.511557879584956 2.973106486236824 5.879821867510319 0.8867161239267372 
7.044368769132431 11.239430270246007 20.05717969694504 2.9731366343373256 6.804459245380876 0.8687511417457283 
11.469633539700618 7.3444546531373796 6.9549756132006095 2.973200332290556 16.925328314577442 0.8690863196712252 
6.042570270808136 8.693238211854343 28.41976542938916 2.973296722120781 9.648195772698166 0.8267225649157408 
6.152433687044242 8.14442743701942 33.503404729376996 2.9733210921805306 10.20880606517396 0.835310938083021 
6.999953788325467 6.799679652660913 16.914258186332688 2.973481878160356 11.818504820384327 0.8967743912638029 
8.790035416813549 6.033868705587853 2.9010675078973094 2.9735534267747274 13.802400949228169 0.8534624726871646 
11.770069546785304 10.08119628712073 23.90459670141425 2.973595585366478 1.10655934008064 0.8219273161336182 
11.806070796583533 9.98452664368548 30.736076098321597 2.973773028925637 1.0034615178692619 0.843734582752191 
8.030916568101167 6.1885068393710725 26.865699105535754 2.9738218659233877 13.02669496836193 0.8875589749253197 
8.505152209398533 11.932368760894764 13.0143111773803 2.973829330296987 5.168440572620149 0.8602277879298738 
11.25547334076343 10.938187401351392 8.902289199029376 2.973841016875618 2.1110808625425435 0.868723218206532 
11.94264564223008 8.568311389322268 26.585200064296366 2.974141629499938 18.25386404038342 0.8696540948988589 
9.08637101820496 6.027097761148756 36.91021493712787 2.9741566324846627 14.101766103855244 0.8449021377147238 
9.283583161277807 11.960863573247313 5.532908053071118 2.9744129687626026 4.3881824144947075 0.846520605662169 
10.46075416332803 11.591093467121503 19.092412488358356 2.97448618773729 3.145371705614963 0.859014451676041 
11.894236213746872 9.686670283407814 4.700629661237684 2.9745788507079776 0.6929201232225104 0.7881947236825341 
10.848395912137802 11.33081726956092 7.150383160766708 2.974773368189779 2.678257022741011 0.8521889760756596 
10.90039386516193 6.711374476042483 22.880570231637137 2.9747779129970255 16.079783382686813 0.8805673615186999 
6.557707676040959 7.301537970348914 18.74506967030895 2.9748218537982623 11.15335104161418 0.7959700584427619 
9.292655709279455 6.0395131409543374 14.6514321313744 2.9749167730805333 14.312094826420378 0.859240522222054 
8.150638224438232 6.148819352597753 28.336789530811927 2.9750036151081427 13.158028934885042 0.8740375442228187 
7.307703712837778 11.446896830258488 24.480261763391027 2.9750917332869036 6.47340878960097 0.9140233162178041 
6.375710606800828 10.401528470022004 37.13318986671943 2.9750927500734994 7.887177984886723 0.8687171017377179 
6.0289788769156605 8.843242322783187 11.984264276052727 2.9751536906821694 9.503551275708986 0.8910597180433155 
9.072649936023655 11.974336204239478 39.721167181307656 2.9752233309541585 4.600812722059551 0.8256556830714207 
7.919752381328793 6.2277721592657205 33.82033912719267 2.9752616890934243 12.915079543789265 0.8661036171339443 
9.711753983777433 11.888880676547123 1.8345235834504408 2.9752689452804737 3.9548178327565786 0.8583373469946269 
11.895566204677454 9.684248566631236 4.70892003385368 2.97531506677984 0.690428292229889 0.8143394646744329 
11.951507373582338 8.624266467019627 19.458101105596818 2.975327118842031 18.317792205156024 0.8661444950334287 
11.709197836629919 10.230143147274116 33.30782398930425 2.975399986688465 1.2681944796055191 0.8763861526128716 
7.945237686406282 11.782214904225201 18.228659526544142 2.9754400198072246 5.752014744262926 0.897690816625039 
11.868251249755025 9.791596400915372 5.821914960443998 2.975481489383426 0.8012447981887973 0.7669843867728348 
9.754388241092052 6.121731694908462 26.69015404983977 2.9754882043779776 14.78437116569086 0.8517698203104773 
6.025205769575056 9.064915674467343 9.658273761979707 2.9755024379356665 9.282895774546805 0.8942484301827835 
9.539628652100388 11.926262668785895 34.987623250747 2.975602844617813 4.131434811283395 0.8532651744375224 
11.906125548772833 9.639329178709982 35.323780702442086 2.975618843867641 0.644353156835308 0.8636271367468689 
6.199099069093684 7.995064003578918 26.58908542441091 2.9757255218945695 10.373607953209003 0.856435104700061 
8.158743842449804 11.854437689040125 8.84446925330517 2.975823657952335 5.527297464597254 0.8811306053840747 
6.3885434581453655 7.572961035190026 0.018431732790723743 2.9759276666413235 10.83746187999163 0.8658957662548297 
11.142588925199323 11.065706349317018 10.06862665306965 2.9762106820578764 2.2831431892032157 0.8373031225229126 
10.61552877701752 6.500372644311632 27.176806168907397 2.976251022121174 15.732951850555246 0.92798815120239 
8.792863998208594 11.969053450572336 10.685185291892907 2.9762701012498236 4.8824177232044335 0.8245962584534784 
7.813358676885516 11.729658761500488 19.339098876810063 2.9764331983028387 5.895933968243309 0.8694731425465789 
8.834803323671974 11.971952437342257 32.95485653232892 2.976540144478889 4.8408199261057145 0.8529259731787079 
10.527706926852742 6.445411090130676 34.263080293919394 2.9765437931905505 15.630887209737132 0.8779382853506257 
7.559614384565055 11.604967835095099 21.90550243857227 2.9766706473897924 6.1792478994660875 0.9080999505283155 
8.720682251472812 11.963564353246376 2.334977642829834 2.9766981843100724 4.955515852091832 0.8484910637135871 
11.599875648751453 10.449670696886432 3.807484401936449 2.9767261409780352 1.5141223328449982 0.8679973138024976 
6.370115238846374 10.394560199364495 37.180306432855495 2.976758640971687 7.900376915302417 0.8425600576681935 
9.759901680353792 6.121570516963747 35.10451460564407 2.977046666180573 14.79740716183686 0.8695190048227456 
8.361198037698411 11.907717690626427 22.526907344092457 2.9770606502760786 5.320164321114516 0.8715850044124787 
8.32609353645816 6.100155967916695 29.405472231485412 2.9771203086225158 13.34955045105988 0.8854698163057021 
11.62827489434622 7.60159247528944 0.9671269679072623 2.9771416703639964 17.25020668042051 0.897633917249167 
7.0557641560908095 11.254888937338016 26.959315328978334 2.977343973488896 6.79533678288951 0.8764832213957812 
8.180888033511042 11.862686306454865 7.461878563145888 2.9775690257002623 5.5069662935464265 0.9029457086608246 
6.102601524805259 9.686923931487184 28.214496504397324 2.9777142931635674 8.661598030799173 0.9100277201845542 
10.035245213248292 11.791965164291785 22.759295324212793 2.9777176041680513 3.6200642772922436 0.9162701474574574 
10.536720374623584 6.4493971157457715 34.25226505765541 2.977765031520995 15.64708190632712 0.8847326571111285 
11.838177528464634 8.098703943955593 14.36810648057942 2.9778492681334296 17.79472157950479 0.8313945969169889 
6.340570486577011 10.340092903517748 21.775438570185216 2.9779883020125943 7.965606504491507 0.8814836388133044 
11.679941197071024 7.701303619382216 10.62142972593147 2.9780357803069157 17.367709218377286 0.8963789880663737 
7.5800773800028765 6.381999754581681 30.06829919374973 2.978272239367962 12.554678022748373 0.9013532465008394 
11.962493467459657 9.30666566538546 24.56467210469132 2.9783235846810574 0.30721014371948385 0.852145181396542 
10.240808768003205 11.707562531029096 36.978215281560885 2.9783386741917575 3.3985289124068814 0.9073265599291575 
10.799902063403147 11.372998416836298 15.423231681962775 2.9783836093006046 2.745718198917533 0.8826434108518038 
10.182576813336444 6.266419644334437 23.755191256679282 2.9784139202470925 15.251529833184751 0.8874940248288147 
6.484704138705334 7.404856797481239 17.59969111787452 2.9784551543355318 11.040430572914751 0.8494419173927069 
6.527030335351077 10.66006519939423 2.5603613996861085 2.978488782673789 7.59633832394945 0.8989929774211284 
10.487754057328655 6.419671194265227 10.800729962931022 2.9785078278900836 15.59369892319701 0.8652647502382218 
10.525581599514732 11.558323588342597 9.40580379832533 2.978660571372315 3.0772140347319095 0.8406745014391237 
9.684938802118138 11.898967226869827 33.563457217479275 2.9787836687333247 3.987939672225746 0.8839614133863315 
7.465278667693871 6.4469749130931575 29.007217417404306 2.9788096048944115 12.425010643720455 0.8881471764343206 
6.539626565946696 10.679285449951834 33.134010911557965 2.978831491946998 7.574233488697935 0.882057100017853 
9.41273684294699 11.950394449332123 36.164830967817565 2.979123882650009 4.2655281156504525 0.8985439257742975 
7.033185064256722 6.762363474066811 32.1613480925437 2.979157299246415 11.890755261521111 0.9441350714170839 
6.1865032036006475 9.979967135618432 25.30950351169588 2.9792784042854414 8.361120822679776 0.9134366724565274 
6.0662216971114695 8.48129121353284 22.963907527977483 2.9792807748947965 9.88105236256635 0.8258916015802407 
11.979040937865232 9.039056990069076 30.023331150191666 2.9792969569934105 0.03905810886549155 0.8405892398684762 
6.079897530373154 9.591752542229125 21.129208997738942 2.9794579212258494 8.764529447260394 0.9244067195285518 
11.078577702290632 6.8652757587880675 8.782126873489503 2.9795188958081242 16.34105790667994 0.8489996563027018 
11.437083603074955 7.285862035121193 37.570206979379016 2.9795377915065417 16.894606116406177 0.7576366335589232 
11.19155511383536 11.018741870702415 33.74599234806641 2.979636312959184 2.2179691919774065 0.8373156002210254 
6.536163539095535 10.675632890120879 17.98740145696405 2.9796368383642156 7.58125032080115 0.8799912936136035 
11.979124125563718 8.944137989145753 21.98599501167611 2.979647818077244 18.665814107324213 0.9857168265384461 
11.96977535263633 8.757251093844763 27.76089682938791 2.979679962104284 18.478863123747285 0.8439417320120648 
11.936580759563396 9.504970962672223 3.596730624219383 2.979681565298553 0.5074199235268111 0.8280951674068437 
6.892163039664242 6.893927287514652 7.512032861020721 2.9796843661087467 11.699945631574337 0.8900300036823128 
10.961519185996684 6.756964959075701 39.39458378778786 2.9797254423599773 16.182686093283785 0.9253663369833246 
11.600468474008714 10.454873433405002 27.486385180336484 2.9797806952091115 1.5199314126334826 0.8930478175100751 
6.555876377235553 10.70469684064215 1.1844471733295094 2.979887850549167 7.5467696969179485 0.8970356868115791 
11.9777480746137 8.886076927965693 5.345092772744145 2.979926519598651 18.609479683494662 0.9583269946026582 
10.175544673013494 11.738261950333822 5.1243880390203955 2.9799301647683594 3.4724722924252838 0.92933066413768 
6.548013128993 7.306324186301973 33.94335557160562 2.980063317699201 11.163538099017357 0.8058942583817802 
6.682876008957852 7.125996060135744 28.151412068943692 2.980093011382336 11.388884496430197 0.8675402335080709 
9.78708025643502 6.125644978131724 3.1809321164271935 2.9801698142571 14.840249431917837 0.9166322367602462 
7.398605424953663 11.513372571409048 23.338857608805228 2.98018560960541 6.3718896607182725 0.8476897986703971 
11.923031400190647 9.581755367427002 11.610002944443224 2.980361030820031 0.5855144840089999 0.8434325111558306 
7.428750451385623 11.532567120836715 38.50776241064918 2.9803894654162293 6.33658738451415 0.8809535898247072 
11.041171074494242 6.828164018712243 0.7038505805087141 2.9804782980199875 16.293626422922095 0.8816965997197599 
11.54491575515567 10.551351077587233 36.88547872659598 2.9804842503812403 1.6316362014175887 0.9186916484213151 
7.963687967239045 11.794547551240065 18.235222518451323 2.98050979622396 5.740191352380279 0.876509550105348 
7.728876977331607 6.304076540815368 24.302665532520443 2.9805632079423603 12.73237493199992 0.8680112736631194 
6.199869402507117 10.021454054289357 0.5341819603372002 2.980620698451924 8.3213114213833 0.8988740022553443 
6.481953138864069 10.595026457422241 34.278512250646386 2.9807162553241255 7.681152557523248 0.9043802235554315 
6.053321512459439 9.449885803077452 37.322182171290294 2.9808239372269183 8.912923050278248 0.8980911249182132 
11.951530003953321 9.417884394926405 34.026220420899875 2.9809657381056414 0.41926532617585366 0.8343351137068146 
10.762586932286164 11.404074478620606 23.67479006949977 2.980987553248236 2.7966312808753884 0.8648794973042141 
6.049067955933985 9.42264492388274 15.183643950390788 2.9810448940563568 8.94115493249608 0.8938015022391467 
6.26739542993594 10.191518755770387 31.07801462059882 2.9810811263176977 8.139574313210014 0.8839866078794131 
8.486194335363235 6.063409623269928 38.90969039667232 2.9812009831134314 13.532194699484611 0.8944347665122503 
11.539326643399633 7.4380306969482834 8.103820666776414 2.981262803839192 17.087788575307783 0.8705305928516943 
6.3900864150910905 10.441271390430574 4.0749449170589 2.9814278695896292 7.86214249756808 0.87645889465509 
7.929743833899263 11.78278880320958 9.965819463395356 2.981503275923952 5.778020310165521 0.9129328976217586 
6.714935106996169 7.084752973001056 36.541080135933015 2.981558776825789 11.446716791012216 0.9317071955716053 
8.5691484158195 6.0494449665243515 16.834848637531486 2.9818464234697473 13.619255174435661 0.8920738892439415 
7.091773221161958 6.708686541601029 25.02506858377931 2.981852914567529 11.980966175019308 0.9164964102701314 
11.86704312975818 8.18001317044851 7.390725391963073 2.9819984420739525 17.905759996652698 0.8354806307877333 
6.78480508871457 7.003615226882147 14.535668465206243 2.9820530943163446 11.55570348191221 0.8971468309957397 
11.980230389891673 9.105262273659944 7.917545931214875 2.982088751712457 0.10528414470189773 0.8112899951802227 
6.427033199841624 7.492397655295369 31.73495087743379 2.982117198313328 10.949169056713572 0.8781347146729932 
7.107108157081631 6.695375387217712 18.022231647597977 2.9823370256945823 12.003213561065305 0.9393354263414272 
11.439220298324045 10.716103103805736 38.418058881442875 2.9824160552558268 1.828524379065147 0.8953657611229926 
9.828153847411699 11.865173781715228 0.4066232072619158 2.9824586492374263 3.84565186784868 0.8452209540665058 
11.06647109506751 6.84944755663658 32.43262840799372 2.982478599823627 16.3375740727105 0.8396380312702172 
6.021034689226944 9.145767306276174 24.70926048609614 2.9825295355399644 9.224067478282105 0.9087935231469549 
10.835908576535953 6.649391745504639 6.509164632076612 2.982602800826823 16.032858414390866 0.9062902777008611 
9.192175773741003 11.976515881698402 14.948701632944193 2.982713248372319 4.4929260314944255 0.8370735942669701 
10.169455544765388 6.256094458337573 7.167919717063263 2.982724240144955 15.257459287830189 0.9095830187823188 
10.145658472565803 11.753939177702987 14.719768954424893 2.982736047700031 3.5093896018604305 0.9381084565025812 
11.964806042395157 8.673385311375117 34.89049121531201 2.9827423663213612 18.413852059092832 0.8350216205163125 
7.952152253787116 11.792755502500542 1.7165092694955817 2.982862416537252 5.7561613706161765 0.9188989549477099 
11.096254535805254 11.122454226841771 34.87337253444235 2.983135099844224 2.3614749268651813 0.8467395140841215 
7.678171365701129 11.674387213828318 3.9727961081508454 2.983216034406628 6.055442872462301 0.8636047803850364 
6.078115750053058 8.398022366693548 7.6355684185459936 2.983250683581455 9.978297954488902 0.8352098248466441 
7.014153736863772 11.22629143521195 35.01795222301806 2.9832798955696767 6.859075068868485 0.8753782290358858 
11.962721318584922 8.650126955797893 3.0720363774405826 2.9833083579571245 18.393999174776482 0.8559191457934261 
6.670607144965587 7.136029905580688 4.882058106634204 2.983363133441001 11.385864882780673 0.8646874864175441 
11.899929037109892 9.700776306177548 36.39390397265359 2.983400048865885 0.7073858891854279 0.8144524509969499 
10.601401427955924 11.517333512961994 24.76658654766929 2.9835305510319223 2.9961188534194427 0.8997197678965104 
9.926059657180664 6.163729842855206 36.21437422007213 2.9836244557530556 15.001611667734174 0.9254558455078002 
11.965059997977148 9.332829474308884 9.385618990394235 2.9836816603942453 0.3335236225709295 0.8255632128587027 
11.98240947186295 9.090738370140317 23.0586145822743 2.9837894881632585 0.09075236169936929 0.832909051191951 
8.184208758728081 11.870122700330958 7.463963600184446 2.983809589147919 5.513269801732868 0.870142900268954 
6.9311989144086095 11.150236654189955 4.698994840287426 2.9838658818328465 6.972981132590835 0.8713292539413743 
7.7505034661695245 6.289853855360361 0.8072268841505021 2.984314613669186 12.77402725602554 0.888001303153646 
11.446811186143647 7.290898883275709 22.190421463816115 2.9846124719678273 16.933096790534798 0.8790609898828828 
6.025384797358262 9.244382530493807 16.615691587064862 2.984637067550743 9.131857456039283 0.900160778540123 
6.068324739501362 8.440196032738 30.876544496866277 2.9846440851099825 9.939675222944638 0.8124269825843149 
11.340659578299809 7.148107460877345 36.116356163104854 2.9846596519443866 16.7554110088672 0.8445630193152078 
11.868937488303557 9.82323666663568 37.50902841176749 2.9847145459971434 0.8340490680089303 0.8151346839107461 
10.888681860632053 6.688851452908104 38.258618591025765 2.98471552704869 16.11010059069732 0.8929566394349869 
8.71825678332778 6.028528488547291 9.928107853291834 2.9847985164020456 13.78336834631579 0.8541291757745313 
10.770984839685818 11.402674975942109 30.602531565758753 2.984834056093472 2.792639746500953 0.8634910749727243 
9.244227155570739 6.025001322208329 29.855068504072477 2.9850065387500186 14.31101238264969 0.8629764434541715 
7.162144850282976 6.647678208898196 19.46917684640235 2.985151480282664 12.087351787199825 0.8944613092104194 
7.999456452016856 11.812500933754873 25.11977357666165 2.985171501569502 5.709389082774884 0.8921425051145493 
6.065697398691693 9.548937204574443 14.041284665908009 2.985207498752926 8.82622707439132 0.9201057882802924 
10.885460114198326 11.314506339438022 29.472523660679457 2.9852804621227063 2.6485399401547305 0.8215051044216312 
9.64935898322461 11.91380745202214 18.458587043224277 2.985287416071403 4.034686602803937 0.8728384670824191 
11.721376543509596 10.227230271103586 9.81509365253764 2.9852946973250774 1.264724452533919 0.8452730582158511 
8.153389612608352 6.1372284253998295 4.790210991357739 2.9853325168862135 13.209658315967783 0.8659351822462003 
11.751590274376035 7.841973665088894 3.784084683680689 2.9853432014407377 17.56823409805935 0.891442422236192 
11.898551797178639 8.28531924386508 30.897678430888107 2.985359459783211 18.035877238071844 0.9076002535652369 
11.976446767514634 8.768949189954087 35.99869271521074 2.9854011182203304 18.526546351474877 0.898026177494715 
6.109036226076254 9.744993239768027 3.406747823822755 2.9854122779675634 8.625998885166588 0.8783915787769525 
6.894321973568307 6.883661087631912 39.22999349397366 2.985426325167079 11.731280156472899 0.8637901785751962 
11.877526689834953 8.204604540854154 15.449792916255376 2.9854336011946967 17.952913299743898 0.884055638285404 
6.083069817380222 8.364115533932386 39.27802848657697 2.9854364412032512 10.019818586074866 0.8024282911741522 
10.645021136890445 6.508563423068715 11.939217536235233 2.9855235315916375 15.811183719919281 0.9167618746641868 
10.025652411355724 6.196178163526222 37.38394357713588 2.985528388678795 15.115951543504334 0.8939109663030833 
9.009286119850161 6.01441262346605 35.82662934099193 2.9856018178820753 14.078603241226492 0.8470765456303029 
9.23350105653483 6.023525816749082 6.316738322394116 2.9856190826966036 14.303138217162683 0.8960001586942021 
8.207009641810847 6.12152260887553 21.145140230700463 2.9857102671551545 13.267205771935949 0.922323764790391 
6.297723438964555 7.73017415503938 37.21327618610263 2.985758913383916 10.691643001745604 0.8580029904902917 
11.951826347354386 8.550161044059285 18.38023161722404 2.9859058711247672 18.30944168384976 0.8296278612408469 
6.238028763984499 7.865449402052947 36.011470180255884 2.9859152981755925 10.54432319134278 0.7902992087505847 
7.64007446759965 6.341713739455965 7.922217496312275 2.98594763796547 12.658986254581329 0.8588737371789547 
6.030902266267587 8.682989833594648 5.007936855594753 2.985973341819934 9.6983206419956 0.844755489307387 
6.5892241558650895 10.761892152373697 9.682484233280448 2.9859846160455024 7.496215650030759 0.8983920766215779 
6.046343836661508 9.438603448259343 29.303500413320258 2.9860438235318054 8.940737231039876 0.8730811416912196 
10.061640861572718 11.790978229647216 6.143039300734181 2.986074479534224 3.6051313960548246 0.8830262536523733 
11.889578051477683 9.753110967414528 12.803229063367269 2.9861074067792033 0.7613324331002929 0.7592284073523161 
8.456463876357398 6.063672595148148 7.067304238320524 2.9862099970009512 13.525600125279578 0.897857491598857 
9.392451159871527 6.039578552463055 31.033478407880647 2.9863209907712935 14.466295779621412 0.8395201825916696 
6.240584446845972 10.1419730915193 7.700599171757901 2.9863818805943914 8.21018300406254 0.8778996217317175 
6.01790332163336 8.839755002738478 3.873628950444825 2.9863990118992265 9.542371190024728 0.8850360361279433 
11.19185975687675 11.028640261357179 1.9720414636194619 2.9865750457363567 2.2302081984884 0.8261455119101107 
6.013758762279972 9.051332714528257 1.3733270719041002 2.9866824031758843 9.331604254279029 0.8751904642793119 
10.423262724183695 6.374225535700299 17.740196509793392 2.9866985652086107 15.558001882194015 0.8519520430874841 
9.857737306623216 11.861030075708793 8.685330006814088 2.9868388609504053 3.82172863617582 0.8384434573295064 
11.986254704805033 9.060417657891112 6.526978368546672 2.9868658247995055 0.06042177876150312 0.7928526806323684 
8.935491492269689 6.0136982190869155 12.39368140856067 2.9869984389440583 14.011385004798832 0.9066929759072377 
6.311125776587486 10.300821869076724 30.036364492317684 2.9870021969192666 8.038039499441133 0.8666535855281309 
11.624518832755976 10.426226028406155 20.3791620659714 2.9870085014264665 1.486873982141093 0.8745756511741244 
